ply
format ascii 1.0
element vertex 784
comment vertices
property float x
property float y
property float z
end_header
-9.13335895538330078 8.69964218139648438 16.9867477416992188
-8.93023395538330078 -88.4612274169921875 -12.3492431640625
-10.0828800201416016 36.0569648742675781 -11.064051628112793
-9.81487369537353516 3.52684235572814941 -14.8458194732666016
3.44188523292541504 -104.054183959960938 -5.1122746467590332
-0.253629863262176514 -64.9643096923828125 -23.9150733947753906
5.94268512725830078 72.8187713623046875 25.0957088470458984
8.33548736572265625 69.0238800048828125 -7.98618412017822266
8.07590198516845703 -88.4418563842773438 -13.4208440780639648
-8.59511947631835938 21.6020469665527344 18.9612503051757812
0.574814856052398682 100.283187866210938 20.6226558685302734
-2.11445498466491699 -79.841766357421875 -23.5450286865234375
8.29381465911865234 34.4264564514160156 3.5735783576965332
-6.31735944747924805 84.7462692260742188 22.4137992858886719
-4.55969619750976562 -9.65106678009033203 21.5373668670654297
1.22855174541473389 71.1126556396484375 25.5145187377929688
10.5400600433349609 81.1139755249023438 -12.9090719223022461
8.55722618103027344 -49.2296218872070312 -16.0859947204589844
-9.98717308044433594 31.5422840118408203 -8.94167232513427734
7.75958251953125 41.5508003234863281 18.7007694244384766
5.22303628921508789 -59.7530632019042969 23.9361305236816406
-9.39424991607666016 -7.94992303848266602 6.7450098991394043
5.26265287399291992 -99.9814605712890625 15.2135772705078125
-5.79152441024780273 -16.6026859283447266 20.7774848937988281
6.13396215438842773 -36.6237373352050781 19.5273036956787109
8.56933307647705078 41.4147605895996094 4.51453828811645508
-10.087224006652832 94.5869598388671875 6.46603775024414062
8.42348861694335938 -62.507415771484375 -24.1563682556152344
4.31565475463867188 -25.2687416076660156 24.9383697509765625
-9.91895294189453125 17.2742099761962891 -9.12125110626220703
-9.98167324066162109 33.6436805725097656 -6.40580463409423828
-6.81586694717407227 23.8107700347900391 21.0139408111572266
-8.19894599914550781 -52.9037208557128906 16.3989048004150391
-9.92358493804931641 66.84844970703125 9.11922550201416016
-1.53797733783721924 58.2505531311035156 23.8882083892822266
7.09935903549194336 96.615020751953125 5.43762731552124023
-10.1271696090698242 40.8268508911132812 -13.1066980361938477
-8.9403839111328125 -42.3383903503417969 -13.9551000595092773
-9.35352802276611328 102.886299133300781 -9.06079006195068359
7.93338251113891602 25.4559421539306641 12.7171392440795898
-8.57697105407714844 85.0569534301757812 20.8709201812744141
-9.99658107757568359 52.2495803833007812 0.320116490125656128
-10.087498664855957 77.1757888793945312 2.93335390090942383
-8.65805149078369141 -84.7158584594726562 12.2521095275878906
-1.49314486980438232 -31.0770912170410156 -22.9121589660644531
-3.62372565269470215 -27.1654491424560547 21.5587787628173828
-9.83111858367919922 24.4883670806884766 -3.97613620758056641
6.03157377243041992 38.5399398803710938 24.3175563812255859
3.55401706695556641 -23.5654792785644531 -24.5082492828369141
5.66500520706176758 -103.005561828613281 -3.55927109718322754
8.00308799743652344 -31.1786041259765625 -2.09189891815185547
9.31134414672851562 32.1921234130859375 -16.9603919982910156
-8.5811004638671875 -48.9147911071777344 12.0798139572143555
2.34906744956970215 -54.7949409484863281 -24.6268806457519531
9.42599582672119141 59.0167999267578125 -18.6738491058349609
-4.13402843475341797 -31.1703376770019531 21.0396327972412109
-8.74522781372070312 -46.8503303527832031 -3.66800546646118164
7.6020660400390625 88.685882568359375 15.5362672805786133
-9.77733802795410156 5.49371099472045898 -9.22222042083740234
4.45828628540039062 38.4092178344726562 26.2115268707275391
9.59960746765136719 93.6144638061523438 -12.2386894226074219
6.08678817749023438 -98.7986907958984375 -0.77399832010269165
-8.70160865783691406 -99.26434326171875 -12.9891691207885742
8.48470306396484375 5.24121332168579102 0.300096601247787476
4.61616182327270508 -100.345352172851562 23.1917400360107422
5.23696231842041016 80.8645477294921875 26.6492919921875
-8.41399478912353516 -86.2012557983398438 14.9273719787597656
-8.53323841094970703 -61.3823165893554688 14.4070415496826172
-5.73406791687011719 102.40667724609375 -1.16409504413604736
-8.69051837921142578 -48.7967643737792969 -2.07995223999023438
9.50332260131835938 -60.5803108215332031 -20.2764606475830078
9.10694599151611328 8.82622718811035156 -11.536076545715332
-2.27730655670166016 -21.0211257934570312 22.2778091430664062
7.64857244491577148 64.9079742431640625 -23.3819618225097656
6.48800516128540039 -31.6203536987304688 -24.8908557891845703
0.914807736873626709 -35.3734550476074219 -23.7818183898925781
-3.46973943710327148 59.6299095153808594 23.0221672058105469
-1.85340023040771484 76.6754608154296875 -21.3814144134521484
-9.62566375732421875 102.788978576660156 -6.95672178268432617
9.0508270263671875 38.948150634765625 -18.0332870483398438
8.63873863220214844 -11.2316265106201172 -15.1608572006225586
6.38543605804443359 45.9569015502929688 14.7326231002807617
-1.17724990844726562 28.2782058715820312 -22.2745952606201172
6.41709089279174805 17.2475681304931641 5.80080080032348633
-8.49724483489990234 17.7379283905029297 18.86090087890625
-6.53283357620239258 -15.0319738388061523 -20.8932056427001953
-9.13630771636962891 -12.8473262786865234 -18.2545871734619141
-9.68419361114501953 90.7044677734375 -17.1089420318603516
6.56112051010131836 76.4836654663085938 12.1522130966186523
1.95455634593963623 -54.4096488952636719 -24.4673995971679688
-8.24223995208740234 -56.2881546020507812 16.3011512756347656
-9.47430992126464844 -3.50531768798828125 3.48075580596923828
1.05502176284790039 79.503021240234375 25.4107608795166016
-8.73139476776123047 -88.0072097778320312 4.97959709167480469
8.91868495941162109 96.5373992919921875 -19.9512786865234375
5.88532209396362305 99.943695068359375 4.1978759765625
3.30175614356994629 -104.724052429199219 11.9129877090454102
-9.75465011596679688 37.7021942138671875 6.31701135635375977
8.94978809356689453 39.7419242858886719 -15.2683610916137695
0.555059969425201416 -7.49659299850463867 -23.2760562896728516
-10.0469608306884766 69.5437240600585938 3.10540103912353516
-9.82702827453613281 25.6601428985595703 -3.05830693244934082
-9.90090084075927734 12.1659917831420898 -12.1029462814331055
-7.8406977653503418 -50.5674018859863281 17.4386825561523438
-8.94747257232666016 -66.0580368041992188 -10.9051046371459961
6.05542135238647461 -51.7723579406738281 21.7703189849853516
-10.3874778747558594 87.650665283203125 -10.4383201599121094
-8.77479076385498047 -69.2407150268554688 -1.17189979553222656
-9.42753982543945312 -20.4310245513916016 -2.65282583236694336
3.03106784820556641 -96.3916473388671875 -25.3883895874023438
7.18556499481201172 -30.5478610992431641 1.03609299659729004
7.06311273574829102 54.3878631591796875 18.1528282165527344
-10.3925981521606445 91.3299179077148438 -7.58602190017700195
-7.74879837036132812 46.8467025756835938 20.7871322631835938
5.88881778717041016 -69.4246826171875 17.6306076049804688
-0.150903642177581787 -78.99755859375 -24.0680427551269531
-6.48057699203491211 -37.4664344787597656 -21.1644649505615234
7.99105978012084961 70.5668869018554688 1.02980995178222656
6.04282140731811523 -7.97283315658569336 21.3523063659667969
-9.70353603363037109 1.49678635597229004 -7.10951566696166992
8.74355316162109375 -73.3296432495117188 -23.8331623077392578
8.60317230224609375 2.14872956275939941 -16.4139080047607422
9.07156658172607422 -65.276580810546875 -21.8129501342773438
-8.53157234191894531 -83.3462677001953125 14.1078729629516602
4.94940090179443359 98.7958602905273438 21.1801052093505859
-6.9375157356262207 102.730178833007812 -6.25233602523803711
-10.1022729873657227 56.8414268493652344 -4.53082895278930664
-6.40827035903930664 -101.597328186035156 -10.9894742965698242
-3.18560051918029785 -65.7915267944335938 -22.9549598693847656
-9.64153957366943359 9.70427036285400391 -0.680276572704315186
-9.60459232330322266 100.746330261230469 5.06920337677001953
-10.1550712585449219 49.6253700256347656 -14.8865623474121094
-9.76273059844970703 38.472412109375 7.4875187873840332
7.75924491882324219 88.4876861572265625 -2.96509766578674316
5.97793102264404297 5.0640869140625 16.3484039306640625
-9.72698497772216797 -3.67644810676574707 -11.2271995544433594
-8.56740379333496094 26.4961700439453125 -19.1814022064208984
6.06950616836547852 6.48981380462646484 23.9977073669433594
-9.45032215118408203 10.9548549652099609 11.8217153549194336
-3.91694283485412598 -18.2779369354248047 -21.9669990539550781
-7.28936767578125 -33.2713813781738281 -20.6766204833984375
-9.68347358703613281 65.2781906127929688 16.5894241333007812
-9.26421737670898438 -13.0749225616455078 11.4989452362060547
-0.544926047325134277 -14.4808082580566406 -23.1889629364013672
-7.62971353530883789 -73.869842529296875 17.3622646331787109
-9.80802059173583984 33.4220314025878906 1.58825552463531494
-3.29697513580322266 -101.234817504882812 -14.0360336303710938
-10.221278190612793 56.5259742736816406 -12.0496273040771484
-8.93773746490478516 -8.22716999053955078 16.9668979644775391
9.85633373260498047 42.0493659973144531 -16.9205703735351562
7.51120471954345703 75.8799972534179688 0.448623120784759521
-9.45593452453613281 -32.4334564208984375 -16.2888107299804688
7.49441003799438477 -68.9605636596679688 3.45179247856140137
9.17033863067626953 40.8354682922363281 -18.9867458343505859
9.05047416687011719 -57.2671051025390625 -19.2625598907470703
-1.7425762414932251 -94.0509414672851562 21.436309814453125
6.89394807815551758 49.7633438110351562 20.0347328186035156
5.48217296600341797 -94.5764846801757812 12.1081151962280273
-10.0264205932617188 44.4916915893554688 -4.56255865097045898
-9.54460906982421875 -4.95286369323730469 -3.55748915672302246
-9.909942626953125 74.094970703125 13.1653966903686523
7.4674830436706543 -85.3049392700195312 -10.5663175582885742
6.66287851333618164 15.131805419921875 13.939763069152832
7.56712627410888672 -52.5332603454589844 6.6139674186706543
6.34037923812866211 -12.5503482818603516 8.06476783752441406
-6.25967025756835938 -102.133987426757812 4.71440935134887695
5.83785057067871094 -80.3525466918945312 12.7258815765380859
-9.24800682067871094 -25.7844753265380859 8.03064632415771484
-9.53741836547851562 15.0821371078491211 9.03109359741210938
8.19024276733398438 -42.9456367492675781 3.02419328689575195
9.14517116546630859 -54.4538002014160156 -7.78944206237792969
-9.19764423370361328 -35.9259300231933594 4.32969856262207031
7.82724666595458984 18.5608863830566406 18.2207450866699219
-10.0015974044799805 74.748291015625 7.4681096076965332
-0.378944873809814453 -6.26979494094848633 -22.9040584564208984
6.43484973907470703 -101.14129638671875 -5.89565658569335938
6.17868471145629883 35.8278350830078125 19.6623439788818359
6.38008260726928711 -82.4928817749023438 0.625052690505981445
-9.47131538391113281 4.69344329833984375 8.51635932922363281
6.44866275787353516 -82.1594467163085938 -0.604700803756713867
8.01562786102294922 83.3866424560546875 -5.47432088851928711
-9.91979598999023438 50.1715774536132812 -16.6163558959960938
-1.44987237453460693 100.260246276855469 17.1675281524658203
4.98047637939453125 -29.8027744293212891 -24.7615737915039062
-5.11460304260253906 102.546981811523438 14.9253082275390625
-8.14005756378173828 -33.3363723754882812 -19.9245109558105469
6.3701777458190918 56.8930397033691406 17.5548591613769531
5.35815572738647461 -91.7661361694335938 22.1411170959472656
6.76396083831787109 -9.46094322204589844 1.80420684814453125
5.97844266891479492 -84.9354324340820312 6.24216842651367188
7.3130030632019043 -41.1114997863769531 5.13197422027587891
6.04743623733520508 71.6648483276367188 24.8947982788085938
-6.03372478485107422 73.7434616088867188 -19.9172248840332031
0.725148320198059082 89.2670669555664062 25.2613754272460938
4.04736804962158203 19.0163841247558594 -24.1070461273193359
7.03712844848632812 -46.1033210754394531 2.50868773460388184
-7.62705183029174805 -27.2625102996826172 -20.4259662628173828
6.55337810516357422 -97.150299072265625 -4.99386739730834961
-9.49144935607910156 -30.2673301696777344 -8.31959056854248047
6.23120546340942383 84.3386917114257812 22.8432216644287109
8.92404365539550781 -21.2803707122802734 -19.1910018920898438
-10.3031768798828125 79.4269638061523438 -8.08217525482177734
-10.1400508880615234 45.5015525817871094 -8.60478305816650391
-9.59437656402587891 17.1407909393310547 7.09790658950805664
5.67203235626220703 -84.7663955688476562 20.0029659271240234
-2.31945633888244629 100.960800170898438 -4.28187942504882812
6.30200099945068359 61.6636161804199219 23.9617843627929688
-5.22455835342407227 102.697784423828125 4.72797203063964844
-6.68496513366699219 -98.54833984375 -21.6758136749267578
5.95391321182250977 -28.7442150115966797 14.4660177230834961
1.69942164421081543 -54.7491912841796875 -24.3905353546142578
9.28337192535400391 65.0280075073242188 -14.491032600402832
7.39148712158203125 62.1213455200195312 18.8689727783203125
-8.70256519317626953 -90.8825454711914062 7.57945060729980469
6.80643272399902344 -33.8529434204101562 7.02082681655883789
9.35381793975830078 86.1237258911132812 -19.180145263671875
-2.63713574409484863 10.0991659164428711 -22.0138206481933594
2.89971613883972168 -82.1188888549804688 24.9080829620361328
6.8613591194152832 74.7347946166992188 9.73445224761962891
0.420664042234420776 47.9728164672851562 -22.5192794799804688
8.63799667358398438 -54.2579116821289062 -17.1114883422851562
8.04556751251220703 32.5505294799804688 6.1939549446105957
-8.26818084716796875 102.260459899902344 13.9266996383666992
-5.29203605651855469 -50.049774169921875 20.2834320068359375
7.20252084732055664 -100.836631774902344 -12.1483430862426758
-2.0262451171875 59.8827400207519531 23.6480274200439453
-7.19919443130493164 43.2036705017089844 21.1289901733398438
6.91697978973388672 -21.2651901245117188 4.30017232894897461
-10.1907052993774414 90.80645751953125 -15.4855403900146484
4.02991771697998047 100.398361206054688 14.30010986328125
-9.72984695434570312 57.9557762145996094 14.9917573928833008
1.75421774387359619 -42.1764335632324219 24.4959735870361328
-9.61531925201416016 0.773249268531799316 -2.86520862579345703
-8.50080776214599609 -49.7136192321777344 -19.000701904296875
-4.66418552398681641 -2.15502142906188965 21.5715541839599609
-9.04698467254638672 -25.0617942810058594 -18.5305118560791016
9.24743461608886719 85.7047119140625 -20.5944595336914062
-10.0398120880126953 33.4725761413574219 -9.95656204223632812
-9.95348358154296875 57.2907028198242188 7.09232997894287109
8.14534568786621094 55.0832557678222656 -1.70766878128051758
3.54010391235351562 -74.4929733276367188 24.8459339141845703
-9.81317138671875 40.9326095581054688 5.48017740249633789
-2.51030874252319336 57.4936866760253906 23.3957138061523438
9.10342693328857422 41.0982437133789062 -0.793105661869049072
6.59789371490478516 42.9619483947753906 10.2541265487670898
-9.60986804962158203 -19.5777587890625 -13.3994379043579102
8.13443374633789062 42.99029541015625 -6.5763249397277832
-10.1858253479003906 84.0049057006835938 -1.83803689479827881
3.21681618690490723 -1.10461854934692383 25.4579906463623047
8.83005332946777344 -62.5446128845214844 -8.08046913146972656
8.41855430603027344 11.3648920059204102 1.24720048904418945
-2.30586457252502441 11.7659273147583008 22.6810073852539062
-8.95171928405761719 -73.7817535400390625 -17.3889026641845703
7.7958521842956543 -9.60619544982910156 -23.8707618713378906
7.49222230911254883 87.9208602905273438 -0.101761281490325928
5.99433040618896484 -7.10415983200073242 22.8087158203125
10.438694953918457 19.9652366638183594 -15.9747676849365234
6.44563627243041992 74.016632080078125 19.3099231719970703
8.23659229278564453 -79.93157958984375 -16.31280517578125
7.74740695953369141 52.4355087280273438 16.2435283660888672
-4.67796850204467773 -101.647941589355469 -7.74164962768554688
-8.03808784484863281 -99.3650131225585938 17.0110397338867188
9.50545215606689453 -5.01802682876586914 -9.6133575439453125
7.23446750640869141 -12.0191612243652344 0.257983118295669556
-0.110270872712135315 14.115849494934082 24.138458251953125
6.96859359741210938 -21.447113037109375 4.53246116638183594
7.54526090621948242 96.9166107177734375 0.622268736362457275
-8.98838233947753906 -20.5414180755615234 -18.6153717041015625
-9.81579685211181641 21.8382740020751953 -5.01967239379882812
-7.83163547515869141 99.9128494262695312 20.9541187286376953
-4.71170759201049805 94.1306610107421875 23.2108230590820312
-3.45865273475646973 -41.1814308166503906 21.1379508972167969
6.99748945236206055 -100.031158447265625 -10.6004438400268555
-8.92437744140625 -83.076263427734375 -14.6438064575195312
8.75438308715820312 -34.5941276550292969 -9.44951343536376953
-2.4066462516784668 -7.1376338005065918 -22.2819881439208984
5.34827899932861328 -92.9105606079101562 22.0664520263671875
4.53576946258544922 -66.78656005859375 -25.4504890441894531
-5.98230218887329102 -19.3606300354003906 20.6640434265136719
8.34312725067138672 -51.8334007263183594 -11.5326681137084961
9.00987148284912109 -68.8179473876953125 -21.9089775085449219
-10.0950841903686523 51.4697647094726562 -5.62028264999389648
-3.86320209503173828 -86.7178878784179688 20.3889904022216797
6.14908981323242188 21.5795211791992188 15.855473518371582
8.51956844329833984 -83.6526031494140625 -23.3826084136962891
-9.52062034606933594 92.5813369750976562 -17.5375118255615234
-7.95127153396606445 -56.4911613464355469 -20.0019416809082031
1.64804089069366455 -60.0231857299804688 24.61474609375
-8.74221038818359375 -74.3987350463867188 2.82643747329711914
-7.63632726669311523 42.1339263916015625 -19.6638317108154297
-7.85277318954467773 0.414287030696868896 19.6021633148193359
-9.95375633239746094 54.2107887268066406 3.28617286682128906
8.40856170654296875 -71.703155517578125 -16.6825428009033203
7.31598138809204102 -93.4637680053710938 -10.7714681625366211
7.47849750518798828 -68.7473373413085938 3.44059491157531738
7.56089115142822266 45.6142692565917969 -2.49545812606811523
6.84274005889892578 54.7987136840820312 17.9660072326660156
8.31574440002441406 -23.6362323760986328 -23.3175735473632812
3.49823307991027832 -76.6531982421875 -25.2839813232421875
10.3573112487792969 80.3100738525390625 -15.662816047668457
8.14541816711425781 64.3431015014648438 -3.32848381996154785
-9.72901153564453125 45.3737373352050781 12.472630500793457
4.4774165153503418 -103.963340759277344 14.0162534713745117
8.48489475250244141 -98.4734725952148438 -20.0418243408203125
-9.76381301879882812 23.7837390899658203 -1.42140328884124756
-9.83099269866943359 8.18934535980224609 -9.70735740661621094
-5.62819766998291016 96.4928741455078125 22.8925418853759766
0.425950497388839722 -27.4939479827880859 -23.4865245819091797
-9.04697895050048828 34.3103675842285156 -18.5420494079589844
9.62885284423828125 87.8732681274414062 -16.7316493988037109
9.98271083831787109 -3.47013950347900391 -15.2111482620239258
8.60391712188720703 40.9018478393554688 -6.49617290496826172
-4.54484176635742188 20.0670433044433594 -21.2714767456054688
-9.7482757568359375 31.1966571807861328 3.15514945983886719
4.82185459136962891 -76.1992263793945312 23.6353759765625
-8.78970909118652344 -69.6325302124023438 -2.45506644248962402
6.45058059692382812 85.599029541015625 14.2549448013305664
0.930450558662414551 53.3290939331054688 -22.6450710296630859
7.72651815414428711 -39.0904884338378906 -7.97006034851074219
9.67705917358398438 -42.6772537231445312 -12.7417640686035156
8.98526668548583984 34.6858978271484375 -17.6425743103027344
8.37676334381103516 -24.2790069580078125 2.6462252140045166
6.44257402420043945 -32.0686721801757812 -24.9158992767333984
-5.60886764526367188 -9.50925064086914062 21.0030765533447266
-8.75019741058349609 -69.4251785278320312 0.0948599353432655334
3.11892080307006836 -44.8711357116699219 -24.8956756591796875
-1.37358009815216064 101.903388977050781 8.13471889495849609
-8.88056087493896484 -90.7957763671875 -15.1974649429321289
-8.79576206207275391 -57.3324470520019531 -1.44481194019317627
-5.25327157974243164 -75.7174530029296875 19.8098526000976562
-10.0737419128417969 31.9561634063720703 -13.5614233016967773
8.42442893981933594 -32.1080207824707031 0.379330843687057495
-8.899749755859375 -45.8477439880371094 -11.7223844528198242
8.20034217834472656 69.6330184936523438 -0.225403174757957458
8.9555206298828125 -70.4521331787109375 -20.7253398895263672
-1.90526306629180908 45.1668624877929688 -21.7861728668212891
-5.18665266036987305 -102.42901611328125 11.8322935104370117
6.15880203247070312 1.23824703693389893 14.4298286437988281
7.70493555068969727 -62.3638343811035156 7.5956263542175293
8.05695343017578125 82.8496322631835938 -2.73210835456848145
-9.83885288238525391 7.04251289367675781 -12.4594316482543945
7.67827987670898438 -93.6407623291015625 -25.1073722839355469
6.88020420074462891 -31.0455875396728516 -24.8266544342041016
-9.65046977996826172 -3.62499380111694336 -16.2522182464599609
-9.61998081207275391 27.7118473052978516 8.91308879852294922
7.77946901321411133 -86.4545669555664062 -12.8434619903564453
7.10494279861450195 54.4186744689941406 16.8791122436523438
-3.9124300479888916 -74.5590362548828125 20.4753837585449219
-1.93606424331665039 -100.338951110839844 -23.1419830322265625
7.86970710754394531 -51.3739089965820312 -7.22592639923095703
6.33853435516357422 94.5659027099609375 22.5798702239990234
7.15624856948852539 62.6563072204589844 15.3714323043823242
-2.29539060592651367 -29.1861572265625 -22.7026481628417969
-9.84245777130126953 8.10668468475341797 -10.6087818145751953
1.55735504627227783 -92.2176361083984375 24.2559261322021484
-8.70944786071777344 -98.982391357421875 -7.88371515274047852
-8.87773418426513672 -48.4560890197753906 -9.92804431915283203
7.21233844757080078 77.5632171630859375 3.60412335395812988
6.90984392166137695 90.6699752807617188 9.47432231903076172
-8.47654533386230469 0.23364664614200592 18.4070549011230469
-8.63867759704589844 -53.4223136901855469 2.84659504890441895
6.14304637908935547 2.19521617889404297 13.5305089950561523
0.117633059620857239 -102.665290832519531 11.5968761444091797
8.78788948059082031 11.2951164245605469 -15.5137510299682617
6.98089885711669922 -62.4497451782226562 19.0139904022216797
-8.97405910491943359 -78.8815841674804688 -13.7946014404296875
7.38780450820922852 -63.0212249755859375 16.5014705657958984
6.71787548065185547 33.0272598266601562 19.1542072296142578
-10.2618484497070312 75.585174560546875 -7.54102659225463867
4.38674259185791016 2.7239987850189209 -24.3441543579101562
-8.71436500549316406 -70.6779556274414062 5.39566516876220703
6.63627052307128906 57.7289161682128906 12.5710067749023438
-4.13109731674194336 -102.183647155761719 12.8048944473266602
-9.98490333557128906 33.9478721618652344 -6.42296648025512695
8.08449172973632812 -68.385101318359375 6.36602687835693359
-9.4384613037109375 -28.4623050689697266 -4.4953303337097168
7.74726390838623047 -34.9011993408203125 -6.68689203262329102
7.14321517944335938 74.4296417236328125 4.76958179473876953
10.1348018646240234 69.8518600463867188 -15.9406328201293945
7.2868647575378418 36.96380615234375 -23.7904338836669922
0.631645441055297852 100.444236755371094 -5.99279928207397461
8.30256175994873047 14.3947887420654297 0.219908982515335083
0.613544583320617676 9.06011390686035156 -23.0545291900634766
-3.55619072914123535 -34.308837890625 -22.2963542938232422
7.44304037094116211 -26.9706459045410156 -5.3858036994934082
-1.88065111637115479 82.8550338745117188 -21.3036651611328125
8.49516010284423828 -10.5638189315795898 -15.3653593063354492
3.33349490165710449 -55.9618263244628906 25.4873046875
1.22765946388244629 -71.6447219848632812 23.8705368041992188
7.96692085266113281 -9.11697673797607422 -10.4467763900756836
7.77688217163085938 -45.2358818054199219 -4.19183683395385742
5.72077178955078125 37.406280517578125 -23.8924770355224609
-10.3080034255981445 85.9144363403320312 -6.08976078033447266
-9.39760017395019531 -34.08270263671875 -5.48782205581665039
6.69576072692871094 -12.0646800994873047 5.48004150390625
-9.26720523834228516 -29.2773151397705078 -17.5919895172119141
-3.77632594108581543 -26.6374626159667969 -22.0759391784667969
8.94985103607177734 50.7587547302246094 -21.2504119873046875
7.23610401153564453 -32.764434814453125 18.6190700531005859
-9.94544315338134766 51.416229248046875 3.97242617607116699
-5.12153339385986328 -39.0247764587402344 19.9432392120361328
-8.37443065643310547 67.6706390380859375 20.6992835998535156
9.10279655456542969 -22.5924911499023438 -10.7904996871948242
-9.55788040161132812 -13.8353242874145508 -7.09785175323486328
-1.9333183765411377 28.3997726440429688 -22.0112323760986328
7.38858604431152344 -95.7915496826171875 -11.8701276779174805
6.23905658721923828 53.9861373901367188 23.3347072601318359
8.73848819732666016 -63.9684104919433594 -16.3410110473632812
6.63431358337402344 -40.0856399536132812 -24.8548526763916016
6.96584320068359375 -50.3563461303710938 -1.55125105381011963
6.08473539352416992 20.8565139770507812 23.3463726043701172
-10.2552490234375 80.5292587280273438 -5.40465259552001953
-8.22537040710449219 -42.4288291931152344 16.2911605834960938
7.45613288879394531 -14.1748504638671875 16.9669780731201172
6.33857440948486328 68.6064605712890625 23.3901844024658203
8.75407886505126953 -7.49281501770019531 -20.1808528900146484
-4.39546060562133789 85.1414794921875 23.10467529296875
-9.52026557922363281 28.6260890960693359 14.9590320587158203
5.13626813888549805 100.555656433105469 -18.6704235076904297
8.69367694854736328 -38.8096389770507812 -15.4504451751708984
-9.58061027526855469 11.0062236785888672 2.77479434013366699
7.89458370208740234 -6.47737884521484375 3.44755244255065918
-8.48231124877929688 -90.5060577392578125 -19.5279350280761719
6.55571842193603516 7.1941070556640625 12.8308801651000977
5.73128795623779297 -81.3055877685546875 17.1655101776123047
2.49475598335266113 100.669906616210938 -17.6010265350341797
-8.65157032012939453 60.9185218811035156 19.9234943389892578
8.998138427734375 17.4955825805664062 -9.98888206481933594
0.336332499980926514 50.966033935546875 -22.5142021179199219
8.68096923828125 -92.61663818359375 -21.4795818328857422
-9.6307830810546875 -8.91348552703857422 -8.66736507415771484
-8.71674156188964844 -61.1701698303222656 -0.514225244522094727
9.11348724365234375 62.7879753112792969 -1.66664135456085205
-9.00011539459228516 -57.461090087890625 -14.3203439712524414
7.48676681518554688 -36.4977569580078125 -2.29824948310852051
6.47747373580932617 82.2978897094726562 21.6589469909667969
7.00161266326904297 1.31785809993743896 -1.1433262825012207
7.8177947998046875 -7.34000778198242188 0.740017890930175781
-10.0302448272705078 84.8212661743164062 8.83364582061767578
-9.94330406188964844 47.8189048767089844 -16.0556869506835938
-9.44042873382568359 -23.6112022399902344 -3.74665927886962891
-9.54790115356445312 -28.8379096984863281 -13.0929412841796875
8.30545330047607422 -6.89887046813964844 -1.93584060668945312
8.90108299255371094 3.10211753845214844 -19.1390228271484375
8.79662036895751953 -4.23572778701782227 -21.3924388885498047
-4.63101625442504883 102.087425231933594 -9.82095432281494141
3.3336937427520752 35.1437530517578125 -23.61029052734375
7.7195582389831543 -31.5306472778320312 -5.97032546997070312
-8.67664337158203125 -68.5439605712890625 6.21720743179321289
6.3497014045715332 44.2478561401367188 21.8538684844970703
-9.33876609802246094 -28.4631195068359375 0.484226912260055542
-8.95934200286865234 -78.6285781860351562 -13.2084760665893555
-6.98607206344604492 -52.2220611572265625 19.2427005767822266
-6.77969646453857422 -21.7753009796142578 -20.9349327087402344
8.87190151214599609 -2.0209956169128418 -18.4610385894775391
-2.43844127655029297 -101.117294311523438 -3.79054498672485352
-6.49151086807250977 -14.6657590866088867 -20.9031791687011719
-8.65789031982421875 -85.5289993286132812 9.47798252105712891
-8.66283226013183594 -74.7033004760742188 9.92319965362548828
6.08670186996459961 34.9538040161132812 23.6656227111816406
8.56827640533447266 -36.6074638366699219 -14.9817914962768555
-7.66535329818725586 -38.2913970947265625 18.0887603759765625
7.94152069091796875 -100.905540466308594 -17.4207668304443359
1.91686999797821045 -28.7854671478271484 24.7188243865966797
-8.85518264770507812 27.8085613250732422 18.3973903656005859
-8.54140758514404297 -99.3431320190429688 8.29096889495849609
-4.29502248764038086 -85.8380584716796875 20.2067584991455078
8.03532314300537109 89.8010711669921875 19.2659358978271484
-10.0399761199951172 86.113494873046875 11.3879098892211914
-6.31336879730224609 42.7756462097167969 21.6163311004638672
-2.85929369926452637 -92.8929977416992188 20.7644367218017578
7.23428106307983398 66.6830368041992188 3.60915207862854004
8.60734844207763672 2.3305823802947998 -22.3913421630859375
-9.54354286193847656 60.4838714599609375 -17.4229259490966797
8.47361660003662109 -3.72028088569641113 -8.25291061401367188
2.82033658027648926 41.1953506469726562 26.2120990753173828
6.63662433624267578 49.0604591369628906 18.6977291107177734
5.97524023056030273 10.2767753601074219 21.2347316741943359
9.95330619812011719 -23.87249755859375 -17.461944580078125
0.86326223611831665 100.354713439941406 -20.0905876159667969
-3.93485689163208008 -38.9909744262695312 20.3395233154296875
-10.1216516494750977 35.9875373840332031 -13.8279438018798828
-2.45703792572021484 -13.3514823913574219 -22.4588775634765625
-9.60041236877441406 -19.820465087890625 -9.47184181213378906
-5.39503049850463867 -54.0897293090820312 20.2052249908447266
-9.23930740356445312 -28.8392925262451172 6.45631217956542969
8.85843372344970703 72.3100051879882812 -2.6519777774810791
5.60345268249511719 -99.1329879760742188 6.24786615371704102
3.12671804428100586 -47.9985237121582031 25.2687091827392578
6.95418119430541992 -89.7498321533203125 -7.39809465408325195
9.0097808837890625 34.312896728515625 -20.1457061767578125
6.10657405853271484 -40.6644325256347656 21.9831104278564453
-10.2653961181640625 89.2544174194335938 -3.36266875267028809
-9.83179283142089844 35.2451438903808594 0.26465192437171936
0.87278515100479126 67.237213134765625 24.8638134002685547
0.450816959142684937 -84.584228515625 -24.3492698669433594
0.604695737361907959 -73.2068405151367188 23.3767185211181641
-10.0740556716918945 90.4912109375 8.30348873138427734
2.27617597579956055 -93.6781845092773438 24.6287593841552734
8.47960948944091797 -42.4929885864257812 -3.64374256134033203
-9.19452762603759766 -21.8161582946777344 13.8885812759399414
-0.543626189231872559 29.5134525299072266 24.0792140960693359
6.86305093765258789 -0.0188376139849424362 0.908222794532775879
8.16327667236328125 61.1446876525878906 8.31225490570068359
5.89877986907958984 98.7409896850585938 14.8091344833374023
6.02436113357543945 3.45282649993896484 15.0665607452392578
8.39959907531738281 -93.6418533325195312 -19.1849861145019531
6.11642742156982422 -48.1559066772460938 21.1961708068847656
4.83463335037231445 -39.5398635864257812 24.5377998352050781
5.87235260009765625 -80.0305404663085938 12.0822877883911133
4.66469240188598633 -99.6982955932617188 -25.5972862243652344
-9.94369888305664062 82.0420303344726562 10.9438199996948242
-9.64837169647216797 17.5930023193359375 2.13703131675720215
-8.71895885467529297 -65.4564590454101562 3.19739913940429688
-1.76123929023742676 50.7295951843261719 23.6792144775390625
8.19087886810302734 -3.92894959449768066 -7.63277769088745117
8.03344058990478516 18.4964065551757812 0.766790330410003662
-9.03694629669189453 101.70159912109375 8.07825660705566406
8.43066501617431641 -20.3068180084228516 -14.3071670532226562
6.49059343338012695 39.6262664794921875 16.0929126739501953
-7.81803321838378906 -72.7844696044921875 16.9373016357421875
-9.64290046691894531 10.7463884353637695 0.397987902164459229
3.03791260719299316 75.1922149658203125 27.1817855834960938
-0.408006578683853149 -21.4317131042480469 -23.1504535675048828
-6.27093410491943359 32.1470870971679688 -20.4136695861816406
6.52241754531860352 -74.8813629150390625 1.06111407279968262
8.89103317260742188 22.9033584594726562 -0.258170753717422485
-9.91645240783691406 86.0353469848632812 14.2327594757080078
4.21203947067260742 -94.2572708129882812 24.0034599304199219
7.19807291030883789 12.2682313919067383 17.3899250030517578
-3.20594096183776855 -49.8624191284179688 21.1812858581542969
8.75707340240478516 80.246490478515625 -21.5211277008056641
-8.75468635559082031 -46.3466300964355469 -4.31664514541625977
5.65146732330322266 -20.8224067687988281 23.4667015075683594
-8.90573787689208984 -80.9925765991210938 -10.2207918167114258
8.09411525726318359 42.8505935668945312 -8.04383754730224609
5.68367385864257812 -85.582611083984375 12.3169403076171875
10.9724063873291016 90.3255767822265625 -13.1346416473388672
8.56964015960693359 -98.0971832275390625 -20.4450359344482422
7.62130880355834961 51.1993865966796875 -23.5511398315429688
6.10515642166137695 31.5754718780517578 22.2929706573486328
4.6021571159362793 -23.4798641204833984 24.8871669769287109
8.50103282928466797 -56.3802986145019531 -24.1827373504638672
-9.56106185913085938 24.5302066802978516 11.8162689208984375
-8.69065761566162109 -97.5840682983398438 2.43256020545959473
5.77861785888671875 -22.2560462951660156 23.4718494415283203
-8.60584259033203125 -99.0000152587890625 -0.765328109264373779
-6.28348493576049805 38.0727119445800781 21.5554466247558594
-10.0139837265014648 43.150390625 -4.72986459732055664
3.25606322288513184 100.309768676757812 16.8970947265625
5.58573484420776367 82.1609268188476562 26.18048095703125
7.78061389923095703 -15.7797460556030273 11.6885595321655273
9.53594684600830078 23.1751804351806641 -9.58354663848876953
-5.80734634399414062 18.455657958984375 -20.8684291839599609
-6.95993852615356445 96.758575439453125 -19.3027267456054688
9.48462772369384766 56.0493354797363281 -17.5838069915771484
-10.2009553909301758 66.3069610595703125 -7.11135387420654297
6.21497917175292969 84.3003311157226562 21.1638984680175781
9.10064125061035156 18.0071468353271484 -10.3294210433959961
1.52169716358184814 -0.353196173906326294 25.0655269622802734
-8.73611927032470703 -44.89508056640625 -4.24379444122314453
8.28715991973876953 4.00618696212768555 -1.395668625831604
-9.28118801116943359 -22.4548110961914062 7.674285888671875
8.14609909057617188 65.1018218994140625 -5.81557226181030273
-8.88837528228759766 -83.505889892578125 -11.1003999710083008
8.896514892578125 -65.82318115234375 -19.7716522216796875
-9.69967460632324219 37.3928413391113281 9.36614131927490234
7.65895843505859375 1.83970153331756592 -8.23239898681640625
6.03960084915161133 -42.8662338256835938 20.1909580230712891
7.61975002288818359 78.091796875 9.28374767303466797
7.44590997695922852 -35.8446846008300781 3.90205693244934082
8.14706134796142578 -44.2612800598144531 -4.39671993255615234
5.43759775161743164 -99.7007293701171875 10.4165153503417969
5.52801370620727539 81.7381973266601562 26.2747974395751953
6.69433164596557617 -51.0224990844726562 4.71134376525878906
-5.43341302871704102 74.1443939208984375 -20.1348171234130859
7.38496589660644531 -75.5894317626953125 -8.83288764953613281
-10.1024169921875 53.0253372192382812 -5.2481379508972168
-9.49855899810791016 16.2130661010742188 10.0655508041381836
6.82334089279174805 11.2663211822509766 11.2421255111694336
5.9645543098449707 6.49603891372680664 18.1431636810302734
4.42956733703613281 85.8285369873046875 -23.1131019592285156
-9.86598873138427734 37.3278427124023438 0.733060002326965332
-3.17724037170410156 -62.6040534973144531 21.0958099365234375
-9.56519794464111328 -23.5427417755126953 -14.3599748611450195
6.09476232528686523 92.5582809448242188 -23.2595939636230469
-10.1467351913452148 45.2602272033691406 -12.4432163238525391
8.56231403350830078 -32.2671089172363281 -8.40973567962646484
-2.801300048828125 -101.658897399902344 20.8187885284423828
-9.64822959899902344 9.77507591247558594 -0.863942444324493408
-8.65843296051025391 -58.7137298583984375 6.83772087097167969
0.142177343368530273 -37.2912979125976562 23.4472522735595703
-8.63661575317382812 -62.7679290771484375 10.5676021575927734
-9.44443225860595703 89.5763702392578125 18.8522720336914062
7.66991329193115234 -33.0551834106445312 -24.6768722534179688
2.27304887771606445 -10.8692598342895508 -23.9365997314453125
8.83332061767578125 -11.4762535095214844 -16.1735439300537109
-8.83463382720947266 -97.8275985717773438 -13.7711925506591797
-9.20791530609130859 95.8672714233398438 19.8113861083984375
7.38524818420410156 92.7439727783203125 11.9825305938720703
-9.90676403045654297 65.051116943359375 9.44274997711181641
6.91668701171875 86.3860244750976562 7.44785833358764648
5.80220842361450195 -75.3411026000976562 18.6137409210205078
-10.398249626159668 89.695526123046875 -10.9390735626220703
5.83154392242431641 34.5272674560546875 24.9750118255615234
6.44613265991210938 48.6455612182617188 18.8511161804199219
8.3778228759765625 -53.4449234008789062 -14.5537805557250977
7.42441701889038086 -61.3910789489746094 -3.4210662841796875
7.30038690567016602 -10.6265907287597656 -4.87345409393310547
-7.26103067398071289 21.1638031005859375 20.7462596893310547
-8.91375732421875 -44.7127532958984375 -12.8025140762329102
6.56577110290527344 -50.8985099792480469 6.77724599838256836
-9.98126506805419922 19.8755664825439453 -12.6305704116821289
-6.17328023910522461 1.81392180919647217 20.8110256195068359
1.65981471538543701 -9.96367263793945312 24.9869003295898438
6.222442626953125 12.6586103439331055 19.2352104187011719
-7.8967289924621582 -10.2427577972412109 19.2335166931152344
-10.1027755737304688 36.5750274658203125 -11.7767972946166992
-10.0259580612182617 62.1098861694335938 -16.0157337188720703
7.89359521865844727 16.3049831390380859 16.8942089080810547
-0.601808309555053711 101.389816284179688 10.3357639312744141
-8.58136081695556641 78.1548538208007812 20.2919406890869141
-9.71862602233886719 29.4678668975830078 4.36134862899780273
-9.89814281463623047 83.1157073974609375 12.8747673034667969
-9.62552356719970703 4.48205423355102539 -2.12821674346923828
-10.0054521560668945 22.4528865814208984 -12.4395465850830078
-9.32486534118652344 -0.029147762805223465 14.0072622299194336
6.10607385635375977 2.97710347175598145 12.9379901885986328
7.90298175811767578 20.3607101440429688 12.5022268295288086
-10.169255256652832 76.1908340454101562 -2.62879514694213867
10.3393344879150391 16.4931793212890625 -14.2081317901611328
6.00996685028076172 -39.4699172973632812 16.9595737457275391
-6.92652654647827148 61.4477005004882812 21.6605262756347656
4.86797046661376953 -4.89053535461425781 -24.4314289093017578
7.75275611877441406 23.3838119506835938 -5.1034693717956543
6.4495697021484375 64.3621063232421875 20.3614578247070312
-4.79054594039916992 -45.1421432495117188 20.5822010040283203
6.08499956130981445 6.62684917449951172 14.2423295974731445
-4.95600032806396484 -84.4303207397460938 19.918121337890625
7.07378196716308594 -48.1162490844726562 -2.60443496704101562
-9.45871734619140625 -5.7244715690612793 2.75379467010498047
-8.63301467895507812 -65.9137496948242188 10.562657356262207
-8.97890853881835938 -52.2919883728027344 -14.068058967590332
5.42757558822631836 48.4358978271484375 25.8238735198974609
7.21929836273193359 -60.6122169494628906 -2.87810397148132324
-4.2954249382019043 -88.30242919921875 -22.9851207733154297
7.72763967514038086 88.7818603515625 14.8902244567871094
-10.0077028274536133 102.106590270996094 -5.53910017013549805
1.39478099346160889 100.470489501953125 -5.8993072509765625
-8.53467941284179688 -19.9185962677001953 17.5276069641113281
-10.0828227996826172 61.3550567626953125 -1.46269619464874268
7.63881921768188477 57.7868766784667969 -23.4682388305664062
8.2720947265625 -19.4890785217285156 -14.1546287536621094
-9.696075439453125 20.9568138122558594 1.34688711166381836
6.69316673278808594 67.8172454833984375 11.0922155380249023
4.17990779876708984 70.5220260620117188 26.9912033081054688
6.80973196029663086 54.8594627380371094 17.9722137451171875
8.58008575439453125 64.5947647094726562 -9.36362934112548828
-9.53651809692382812 9.37657260894775391 5.62221050262451172
8.76019287109375 -79.9106521606445312 -20.2096195220947266
-8.95434761047363281 -37.0221099853515625 15.1501226425170898
9.07998943328857422 47.1810455322265625 -15.5075826644897461
2.90387725830078125 97.79931640625 25.594818115234375
4.19063186645507812 100.466499328613281 7.70243263244628906
8.44560718536376953 7.52297878265380859 -11.0351352691650391
-8.66443061828613281 -75.2609100341796875 8.86166286468505859
-8.55928134918212891 -46.9167251586914062 5.79013395309448242
-10.3111515045166016 87.74932861328125 -4.50518798828125
8.51219844818115234 -42.8700370788574219 -1.21395087242126465
6.46006250381469727 91.6717605590820312 23.4136734008789062
-9.85303211212158203 58.9728317260742188 10.6673374176025391
-4.36253690719604492 35.9340019226074219 22.3973197937011719
1.83334958553314209 3.2801666259765625 -23.5225925445556641
-8.89252853393554688 -85.0674591064453125 -16.9679069519042969
-10.0806112289428711 99.3858871459960938 0.575649499893188477
6.3698420524597168 -73.2881011962890625 3.4864344596862793
5.64289236068725586 -93.9024276733398438 7.1667027473449707
-8.71382522583007812 -73.7530364990234375 5.43995428085327148
-5.89497280120849609 102.450187683105469 -11.7770204544067383
7.67206430435180664 50.8386993408203125 17.3080711364746094
8.61629486083984375 20.4586563110351562 0.161377191543579102
-9.52562522888183594 -26.5099582672119141 -8.40153980255126953
3.35300564765930176 -86.061981201171875 -25.3983707427978516
-8.95692253112792969 -7.09097146987915039 17.0358600616455078
7.30340194702148438 22.8985099792480469 10.6599245071411133
-10.3506383895874023 86.306121826171875 -8.56931304931640625
5.47011184692382812 98.5973587036132812 18.1067085266113281
7.12433528900146484 8.78101730346679688 -24.1450347900390625
5.49573898315429688 -91.4942245483398438 13.0254888534545898
1.34794044494628906 -68.6100311279296875 24.106353759765625
-8.89280796051025391 -53.6429328918457031 -10.9879350662231445
8.51721954345703125 -95.22027587890625 -20.1112537384033203
8.7035064697265625 49.6811637878417969 -10.9115772247314453
7.95776891708374023 -32.5136451721191406 11.8601894378662109
5.57095479965209961 -81.4612045288085938 22.1659374237060547
0.261202901601791382 -68.811065673828125 22.8148670196533203
7.43472051620483398 -65.4813232421875 9.99104976654052734
-8.46112060546875 -42.31622314453125 8.90797328948974609
7.55320310592651367 -7.89718866348266602 -5.84319067001342773
10.2143993377685547 81.1198043823242188 -15.5837688446044922
5.94364500045776367 -12.7445802688598633 21.2651958465576172
-9.92057991027832031 65.4329681396484375 9.39383316040039062
2.21266937255859375 -8.53920459747314453 25.2453098297119141
6.21714305877685547 32.9253311157226562 10.2563791275024414
-6.53078222274780273 -3.00702428817749023 -20.8123703002929688
-10.2575206756591797 90.0070724487304688 -3.33477067947387695
4.28787136077880859 -44.8582725524902344 -25.2410182952880859
4.31550788879394531 -98.3223800659179688 -25.6709537506103516
7.27452659606933594 -24.5766811370849609 18.5828685760498047
-8.80297374725341797 -90.0395584106445312 -17.8105564117431641
10.1311683654785156 16.8949375152587891 -13.0575752258300781
7.27158832550048828 73.346405029296875 2.77425479888916016
-6.52366971969604492 -88.2234573364257812 -21.9879646301269531
-8.83788204193115234 -28.3091297149658203 -18.9480037689208984
-0.363989710807800293 -66.025115966796875 22.3824653625488281
7.22332286834716797 65.6126022338867188 -23.4430961608886719
-8.91560745239257812 -56.0879554748535156 -10.4666967391967773
-10.0736770629882812 82.7198028564453125 6.37574338912963867
-6.04965734481811523 -19.8367996215820312 20.6105575561523438
4.52313756942749023 -32.1320571899414062 24.9292736053466797
5.98576498031616211 -88.3903656005859375 5.08982658386230469
0.964579284191131592 -25.2520332336425781 -23.6071395874023438
6.39548826217651367 75.3901290893554688 17.6456298828125
-10.1867570877075195 93.4544601440429688 2.23359775543212891
-8.24059581756591797 -25.9535484313964844 17.944580078125
-8.80080413818359375 -50.8163833618164062 -5.86604642868041992
4.74354934692382812 -103.90869140625 -0.714631438255310059
8.04198646545410156 -17.1236057281494141 -1.09279310703277588
8.69040775299072266 -48.1625785827636719 -16.9911746978759766
-6.7816157341003418 -66.455291748046875 19.1037712097167969
10.0364580154418945 53.1700477600097656 -11.8302078247070312
-10.0153837203979492 41.884490966796875 -4.35459280014038086
6.93785381317138672 -22.6587371826171875 9.04559040069580078
8.24541473388671875 -81.3257293701171875 -16.5190277099609375
-8.91495609283447266 90.0063323974609375 -18.2999267578125
-8.65084552764892578 -51.8432464599609375 4.0840306282043457
-9.57322311401367188 100.666557312011719 15.1449213027954102
-9.85090923309326172 12.7336807250976562 -7.81568145751953125
2.42044854164123535 93.8586959838867188 25.9929847717285156
-9.73734474182128906 11.7830286026000977 -16.2875156402587891
-8.74106884002685547 -97.1298141479492188 0.0317624025046825409
6.507476806640625 40.293121337890625 15.6564769744873047
-9.46752452850341797 14.349492073059082 11.6823673248291016
8.17697906494140625 -91.97955322265625 -17.5775070190429688
8.77340316772460938 -90.334503173828125 -22.5535202026367188
6.54747390747070312 81.62286376953125 22.0090847015380859
-8.88202857971191406 -95.3441925048828125 -9.9549407958984375
-9.57237815856933594 -22.1328201293945312 -8.64239311218261719
-9.13213729858398438 -36.4495658874511719 9.49127578735351562
-9.30766963958740234 -2.33996152877807617 13.3738994598388672
10.1242904663085938 31.494964599609375 -12.9735441207885742
7.76256561279296875 -35.8372344970703125 0.0480386056005954742
7.17569541931152344 -57.8824424743652344 2.92231297492980957
-9.78791046142578125 3.54318785667419434 -9.82562828063964844
-8.61625862121582031 -64.384429931640625 11.7751283645629883
6.10296344757080078 36.5837974548339844 21.6208763122558594
-9.96832561492919922 100.434440612792969 -0.462347507476806641
-8.27084827423095703 14.3951539993286133 19.1681060791015625
-8.86222553253173828 -58.1068267822265625 -7.43804359436035156
5.73740482330322266 7.27046966552734375 -24.3414230346679688
6.84586811065673828 13.438410758972168 18.7156715393066406
3.90098690986633301 65.7782516479492188 -23.2168712615966797
6.06759738922119141 32.1386833190917969 23.73150634765625
-8.76394557952880859 -78.0222244262695312 -2.31321597099304199
8.89694404602050781 40.1026802062988281 -13.8661088943481445
-8.49983501434326172 -62.1168365478515625 14.6874675750732422
7.8419947624206543 -45.8887939453125 -9.19747257232666016
-9.40896701812744141 13.8910818099975586 13.072291374206543
-8.74997043609619141 -98.8842620849609375 -12.2751522064208984
8.26715850830078125 77.1928024291992188 -2.44656753540039062
-9.86050701141357422 11.589146614074707 -11.0745944976806641
-8.50392532348632812 10.8902435302734375 18.7951507568359375
-10.2078123092651367 62.5550537109375 -8.95028781890869141
-6.78900957107543945 -102.241867065429688 6.30923748016357422
5.8889002799987793 -11.2964963912963867 23.2049007415771484
-9.50142955780029297 3.73984742164611816 4.36892414093017578
2.7828519344329834 77.3271408081054688 26.8803653717041016
8.94658851623535156 39.0535736083984375 -9.7139892578125
6.40899419784545898 56.704925537109375 17.0760002136230469
5.08240604400634766 -95.7628250122070312 -25.8514518737792969
8.86775779724121094 22.2798805236816406 -11.2465219497680664
-4.24841785430908203 -81.2228012084960938 20.2429351806640625
-9.58099269866943359 46.657928466796875 16.3261146545410156
2.00153923034667969 -95.1598358154296875 -24.9708576202392578
