ply
format ascii 1.0
element vertex 784
comment vertices
property float x
property float y
property float z
end_header
9.10436534881591797 32.4431076049804688 -11.1808567047119141
10.6539888381958008 11.0236673355102539 14.8865060806274414
3.80800604820251465 29.6220054626464844 22.7170562744140625
9.06917285919189453 -9.11659526824951172 1.13039505481719971
-4.41045427322387695 -40.655029296875 -19.666748046875
9.53180408477783203 -13.9094314575195312 -12.1022844314575195
9.05834579467773438 34.6373786926269531 15.9251308441162109
-1.37570643424987793 -71.2530975341796875 9.42405796051025391
6.63099479675292969 53.6320991516113281 -11.7579517364501953
-2.92655706405639648 17.8983936309814453 -19.9288825988769531
8.95451927185058594 18.5600776672363281 13.6089859008789062
6.70296192169189453 11.6576013565063477 -21.884490966796875
3.24517941474914551 -17.5001010894775391 23.2471637725830078
-15.9098196029663086 -7.91536426544189453 -3.72201156616210938
10.1147069931030273 27.8253555297851562 -1.03117108345031738
8.70193195343017578 7.73805093765258789 21.3382072448730469
-11.3928203582763672 -61.0384635925292969 -5.93436765670776367
-2.82642483711242676 72.6536788940429688 -8.04627704620361328
-7.38680028915405273 17.7034034729003906 13.2162542343139648
-17.1879730224609375 -26.8784427642822266 -0.461038589477539062
5.58985090255737305 -56.8553276062011719 -6.02049875259399414
-11.205780029296875 3.29712986946105957 12.3570156097412109
-12.9023447036743164 -53.3079338073730469 -8.35279560089111328
-10.6784353256225586 -53.0262718200683594 13.6707973480224609
-2.36399245262145996 35.4288864135742188 -19.1232891082763672
9.03635692596435547 17.2578315734863281 12.3808002471923828
0.897849142551422119 -40.7197303771972656 -21.7035236358642578
-5.84950113296508789 -70.3137054443359375 -3.01481914520263672
9.02799510955810547 17.0612049102783203 5.10730886459350586
8.23728847503662109 25.8354644775390625 7.91089677810668945
1.54398548603057861 45.8747329711914062 21.463958740234375
8.46683025360107422 1.02216935157775879 -16.9826869964599609
8.91222476959228516 -3.81263089179992676 18.4439201354980469
-5.13713264465332031 -47.9379730224609375 -18.7799549102783203
5.90672969818115234 -27.9368820190429688 -20.7709522247314453
-11.6830329895019531 -19.8150157928466797 -14.1122255325317383
8.34906101226806641 -23.8712882995605469 19.8900184631347656
-1.85541379451751709 50.350677490234375 16.798675537109375
-1.51623284816741943 71.2856063842773438 9.29707050323486328
7.05688285827636719 58.0460662841796875 10.2582159042358398
-5.20634174346923828 -17.7155323028564453 20.3705978393554688
-10.5941267013549805 8.96108150482177734 -11.3664464950561523
7.51097440719604492 42.4164581298828125 -10.0674867630004883
7.29903411865234375 -25.2825660705566406 -14.2462701797485352
-4.23520851135253906 49.8862876892089844 6.94872188568115234
0.24019506573677063 74.047576904296875 -3.83790469169616699
-4.88105535507202148 -57.8945655822753906 -17.4658527374267578
5.99395370483398438 57.1836280822753906 -14.9567346572875977
3.61164951324462891 59.0988960266113281 22.4316310882568359
5.76084327697753906 -58.3127822875976562 3.80321478843688965
-3.01854991912841797 49.4397163391113281 -17.2459945678710938
6.35390329360961914 -18.5434894561767578 -20.7803668975830078
8.13318252563476562 -10.3373556137084961 -10.8009214401245117
7.46221351623535156 46.7110595703125 8.30027103424072266
-0.0802177935838699341 -8.67428016662597656 22.4904003143310547
3.87856554985046387 70.777435302734375 -16.1630954742431641
4.35945653915405273 32.006500244140625 -23.2283172607421875
-14.0696201324462891 -33.8064613342285156 -10.5231647491455078
10.8615512847900391 12.748082160949707 11.4869060516357422
9.10564994812011719 -16.7081279754638672 9.30196666717529297
8.06412887573242188 39.29364013671875 21.7541084289550781
-3.17605495452880859 -24.8885097503662109 -20.7280349731445312
-3.63105869293212891 45.7676467895507812 11.8409538269042969
-10.1091527938842773 -65.2220458984375 -1.43464946746826172
7.62031269073486328 16.5975551605224609 -15.3168525695800781
9.21154975891113281 -4.65929603576660156 6.60780954360961914
0.644486367702484131 73.5423812866210938 -1.77344799041748047
-2.78611540794372559 -31.8814105987548828 -20.7617053985595703
7.74688053131103516 -41.6372528076171875 -7.47762823104858398
-0.997382164001464844 15.0027036666870117 -21.4315872192382812
-4.22970056533813477 59.0143013000488281 -9.78772830963134766
3.30149292945861816 66.2076416015625 -22.6958808898925781
3.25495338439941406 61.124908447265625 -23.0521430969238281
-5.55185556411743164 -41.1915779113769531 19.9891796112060547
-3.07302045822143555 12.0396022796630859 19.8520374298095703
10.2485055923461914 -16.2988033294677734 -0.36710125207901001
-11.0141534805297852 -18.0604076385498047 -14.8569622039794922
9.024322509765625 -31.3708972930908203 -12.6631479263305664
5.01178741455078125 -59.809967041015625 14.1843442916870117
10.4381198883056641 -23.5776824951171875 -0.549732387065887451
9.26479816436767578 26.5893707275390625 -13.0297250747680664
-16.2316226959228516 -40.0049209594726562 4.14880752563476562
3.95153665542602539 48.79052734375 22.6245479583740234
4.728729248046875 65.8440475463867188 -17.4987468719482422
8.9922943115234375 -26.7449607849121094 8.72823715209960938
0.771628737449645996 73.079498291015625 13.3083276748657227
-3.16356420516967773 28.4127159118652344 17.0815410614013672
-6.56685590744018555 2.91440892219543457 -18.2366981506347656
-10.4525003433227539 -7.34488201141357422 -15.0015983581542969
6.86205148696899414 -53.0782623291015625 12.1551494598388672
-9.22943210601806641 22.0178070068359375 3.97835946083068848
8.67376232147216797 17.4264316558837891 -3.71772861480712891
1.04430019855499268 68.8756103515625 -20.9249782562255859
-10.4393892288208008 -41.3775787353515625 -14.9209489822387695
0.56654733419418335 51.63671875 20.6591587066650391
8.15052032470703125 -19.644989013671875 22.8821086883544922
-13.4150600433349609 -9.77347946166992188 11.525421142578125
-14.3203277587890625 -0.147405803203582764 -6.23491382598876953
6.45631504058837891 -16.1144790649414062 -20.6451644897460938
7.51432085037231445 -9.97077655792236328 -15.4419059753417969
7.00557994842529297 28.8607215881347656 -19.252685546875
10.6887502670288086 -2.53471684455871582 14.4713802337646484
-9.15757179260253906 17.9706935882568359 -9.95483112335205078
7.04751920700073242 37.4103546142578125 -16.2852134704589844
-12.3834800720214844 -26.7383384704589844 -13.2980184555053711
-7.41913700103759766 30.6634426116943359 0.936197578907012939
3.70319366455078125 71.6380157470703125 -15.6061010360717773
10.161102294921875 25.5563888549804688 3.66364908218383789
8.64555740356445312 48.0308303833007812 15.6584501266479492
-3.48840141296386719 34.4619674682617188 -17.3894882202148438
-6.10830497741699219 -59.9806632995605469 16.7351474761962891
-4.75031375885009766 16.8654537200927734 -18.2313060760498047
-13.3049345016479492 -19.0959663391113281 -11.8898544311523438
-13.5314397811889648 -40.9819221496582031 -10.6629152297973633
9.79039669036865234 -38.1569747924804688 16.8806571960449219
-13.0813074111938477 -47.4165687561035156 11.1277170181274414
-16.5289287567138672 -31.2610092163085938 5.28547382354736328
0.715932130813598633 38.1659202575683594 -22.0582866668701172
8.87051296234130859 32.9684104919433594 -12.7726154327392578
8.90845584869384766 39.3518905639648438 -11.2005157470703125
-2.92605996131896973 73.1144866943359375 2.56097865104675293
-9.51032447814941406 22.0076465606689453 0.980492532253265381
-15.4221916198730469 -0.335671812295913696 -0.441259235143661499
-1.91640198230743408 -42.2379837036132812 -20.7486457824707031
3.35461521148681641 40.6734809875488281 -23.1138267517089844
5.20096540451049805 -42.023284912109375 -20.4808597564697266
8.20122718811035156 -24.7566871643066406 -13.7527008056640625
7.1435236930847168 -52.0494384765625 10.7564334869384766
-11.6460657119750977 6.31785821914672852 -10.4687967300415039
7.33060169219970703 55.163543701171875 13.0414457321166992
-12.09136962890625 -60.8423194885253906 2.34749102592468262
-12.110407829284668 -60.4927444458007812 3.5486915111541748
1.73122882843017578 72.42620849609375 -2.10425877571105957
-16.0440425872802734 -43.7996673583984375 2.35923337936401367
10.8860654830932617 -0.893725752830505371 11.2990818023681641
10.6172399520874023 -20.673004150390625 2.4771723747253418
8.71540546417236328 -23.9927043914794922 17.8365859985351562
-14.7959957122802734 -10.7317371368408203 -8.28415489196777344
-6.23107814788818359 21.5767860412597656 13.8021297454833984
-0.781143426895141602 -35.0557022094726562 -21.4075183868408203
-2.2722010612487793 36.21356201171875 17.2004127502441406
-12.5515842437744141 -55.0805587768554688 8.88721370697021484
3.89089202880859375 34.7568092346191406 22.6918487548828125
8.94507694244384766 20.7390575408935547 11.0450906753540039
-5.18748903274536133 9.22145748138427734 18.4024562835693359
-14.0839405059814453 -34.5638961791992188 -10.4049205780029297
-3.7169501781463623 13.0651121139526367 -19.6939792633056641
7.6330866813659668 39.208984375 23.2426071166992188
3.09895658493041992 44.2108802795410156 -23.0733242034912109
6.39041662216186523 34.147918701171875 23.1023750305175781
-7.32531499862670898 -37.8170204162597656 -17.9358081817626953
0.677308142185211182 66.5254974365234375 -21.5526962280273438
9.03221702575683594 27.2598896026611328 -11.3423185348510742
0.983289778232574463 44.1162376403808594 -22.2780361175537109
9.62211990356445312 34.7769660949707031 14.8630180358886719
-16.2085113525390625 -36.8411865234375 -4.55674934387207031
-6.1492767333984375 32.0340423583984375 -10.7199954986572266
10.5436305999755859 -21.0197696685791016 0.707071900367736816
2.53251838684082031 -41.4650039672851562 -22.0194034576416016
7.08897018432617188 30.4057083129882812 -18.3042831420898438
6.72061443328857422 28.6192359924316406 -21.5897083282470703
6.94470977783203125 58.2587776184082031 2.53408932685852051
0.639144837856292725 -0.398442476987838745 22.5526485443115234
-5.14152908325195312 45.8654518127441406 0.129976123571395874
6.22920989990234375 48.3482742309570312 -19.5842475891113281
8.46011638641357422 30.1244754791259766 22.9539394378662109
6.37529230117797852 -34.1473045349121094 -17.3318347930908203
-14.4807672500610352 2.75012016296386719 3.12038230895996094
0.830053806304931641 42.6331062316894531 20.8855323791503906
-14.7553672790527344 -47.2346954345703125 6.81325292587280273
6.64391517639160156 63.8506584167480469 15.7454309463500977
-10.496821403503418 -59.0154609680175781 -10.3715200424194336
-13.8100032806396484 -54.1666831970214844 -4.43221616744995117
9.76339244842529297 39.9975357055664062 -3.14287304878234863
8.06500816345214844 -32.3821601867675781 -15.4450168609619141
9.041656494140625 0.591813147068023682 -1.88811516761779785
0.0315055139362812042 -72.2813262939453125 -6.89094638824462891
9.52449607849121094 12.1956367492675781 -13.9012765884399414
-14.7523193359375 -35.073486328125 10.0559110641479492
4.69409894943237305 -46.7749290466308594 -20.6269435882568359
-10.7225933074951172 -16.8726940155029297 -15.1582250595092773
-14.0422554016113281 -22.6294345855712891 11.6485652923583984
-2.23007035255432129 -6.97320127487182617 21.6514911651611328
9.32039833068847656 8.18156242370605469 1.21492362022399902
0.329992443323135376 -73.1563796997070312 2.29847884178161621
-16.5149040222167969 -25.0684375762939453 5.71666049957275391
-16.0927181243896484 -44.0553741455078125 0.171291396021842957
9.04214382171630859 16.8239021301269531 12.5017681121826172
10.8944530487060547 2.63901734352111816 3.93577408790588379
2.53393340110778809 -51.0081443786621094 22.6798858642578125
5.97409534454345703 46.6414718627929688 -22.4059238433837891
-1.32006728649139404 32.4369697570800781 19.0407505035400391
-15.6289148330688477 -20.6779613494873047 -7.38235759735107422
-1.07099628448486328 50.3889236450195312 -20.6725616455078125
-10.4448966979980469 -50.6170158386230469 14.6627016067504883
1.23690354824066162 -52.0376930236816406 22.2924251556396484
-3.96825432777404785 49.4221572875976562 -13.919708251953125
-13.0175399780273438 -13.3116054534912109 12.6103525161743164
7.27041816711425781 61.958251953125 -9.91741657257080078
-13.5897579193115234 -53.0617408752441406 -6.44557285308837891
5.53197526931762695 11.9591865539550781 -23.4029655456542969
-10.7710094451904297 -56.7580108642578125 11.9179096221923828
2.4274899959564209 66.6296234130859375 21.2573642730712891
5.20122480392456055 -58.1625595092773438 16.7742767333984375
5.79495954513549805 -55.3054962158203125 17.9980812072753906
5.81775093078613281 56.9026298522949219 -17.0359859466552734
-6.92323827743530273 1.82029581069946289 18.0543231964111328
1.67245030403137207 50.7770805358886719 21.5944499969482422
0.225802063941955566 -40.9237136840820312 -21.5054111480712891
8.32614612579345703 24.6911163330078125 7.08632946014404297
5.19061851501464844 -0.0482317283749580383 23.2566337585449219
7.12971782684326172 29.14422607421875 23.2304286956787109
-6.91010808944702148 32.1835289001464844 3.42718124389648438
-0.39291045069694519 73.8655014038085938 -4.7633824348449707
-11.0926876068115234 12.0259504318237305 -8.34527206420898438
10.7851324081420898 -3.19525718688964844 13.2890214920043945
10.9458703994750977 5.5781865119934082 11.1518869400024414
-4.75878667831420898 44.3774566650390625 6.42478609085083008
6.19575023651123047 -53.7192955017089844 -6.95868444442749023
6.44307470321655273 -36.097412109375 -16.6090717315673828
9.70783805847167969 33.1911277770996094 -5.68882179260253906
-8.01241111755371094 4.70581531524658203 -16.6134109497070312
-9.97895336151123047 -34.6284751892089844 16.7814388275146484
7.43042898178100586 46.5580902099609375 6.95785427093505859
9.16813373565673828 -2.79660582542419434 -8.40697860717773438
8.39677810668945312 46.3647613525390625 14.5643386840820312
9.182830810546875 -23.8529796600341797 -7.23493432998657227
3.27508449554443359 74.7856216430664062 1.867378830909729
-1.58086538314819336 -38.4907493591308594 -21.0253810882568359
-11.3397750854492188 -6.18439769744873047 14.1749334335327148
-7.9446415901184082 -2.89682793617248535 -17.3887042999267578
9.43405532836914062 -3.09801840782165527 18.1543121337890625
8.82535552978515625 -34.6584930419921875 16.7168617248535156
-4.01386022567749023 -2.7704169750213623 20.5896682739257812
-4.52924680709838867 71.9439239501953125 3.5581657886505127
-4.95652294158935547 48.2841529846191406 -5.42324113845825195
10.788517951965332 3.21462011337280273 9.80066776275634766
6.32817173004150391 42.3951339721679688 -21.4450206756591797
5.07535982131958008 -42.8017997741699219 -22.0373992919921875
9.26247310638427734 6.78501319885253906 18.3886756896972656
5.68166494369506836 -54.9540596008300781 19.3885059356689453
6.88959836959838867 53.7208251953125 -8.84539413452148438
-2.93867111206054688 52.2221755981445312 13.4417915344238281
1.31468701362609863 -54.6013755798339844 22.0705661773681641
7.11516761779785156 26.1290531158447266 -18.7529850006103516
-0.571213781833648682 -7.5730738639831543 22.3071498870849609
6.82727956771850586 -48.5291366577148438 -9.17303371429443359
6.87849283218383789 43.1235809326171875 -13.4049959182739258
-12.0713558197021484 -32.5339431762695312 -13.5807008743286133
-8.28043651580810547 6.67332124710083008 -15.7640914916992188
7.75584745407104492 -48.002197265625 11.2689504623413086
2.38561129570007324 18.6986160278320312 22.4659709930419922
-7.60966205596923828 -7.9682774543762207 -17.9084815979003906
4.06572723388671875 41.0736541748046875 22.703125
8.76123619079589844 49.2959480285644531 -3.23991489410400391
8.20296096801757812 21.8075542449951172 -7.99739980697631836
-2.86336135864257812 73.1292037963867188 -5.98396635055541992
9.78824234008789062 -40.1847190856933594 -1.46267485618591309
-0.161799967288970947 -28.5751476287841797 -21.7627105712890625
-12.072296142578125 -58.2592887878417969 7.55832290649414062
-3.81466102600097656 62.0966033935546875 -12.0093622207641602
6.8853912353515625 65.6488494873046875 13.8122091293334961
3.90459156036376953 -37.9483108520507812 -22.7095947265625
-12.0470218658447266 -60.8188133239746094 3.07221436500549316
8.14756298065185547 -42.2587928771972656 14.5755081176757812
-1.29417121410369873 -72.8568267822265625 0.0312866270542144775
-2.46851444244384766 17.2907428741455078 -20.3583354949951172
-17.1278305053710938 -19.01397705078125 0.941393911838531494
-3.95653200149536133 -39.5147514343261719 20.9259395599365234
-4.25746536254882812 59.7009544372558594 -1.68854165077209473
5.04255390167236328 69.60302734375 0.0933461934328079224
-13.4596881866455078 -45.2626113891601562 10.971064567565918
-0.435926198959350586 45.6979484558105469 19.4334964752197266
7.05357217788696289 -7.29044294357299805 -18.6865253448486328
7.10301399230957031 -50.2154426574707031 -4.52996826171875
8.20983600616455078 12.6496677398681641 -16.5783462524414062
-6.40692424774169922 35.4744796752929688 -5.39767599105834961
9.71546459197998047 42.3021163940429688 4.28746175765991211
-5.95096778869628906 26.7537918090820312 -13.9830112457275391
3.35054755210876465 24.6970005035400391 -22.9814052581787109
8.00575923919677734 -0.304066091775894165 -17.0046443939208984
5.13843631744384766 -14.3909797668457031 -23.1594181060791016
5.06810665130615234 43.7250709533691406 -23.5471439361572266
-4.45450258255004883 -65.4911041259765625 15.0492353439331055
-14.8361520767211914 -30.9972457885742188 -9.25641059875488281
-16.8144760131835938 -16.7730560302734375 -1.93638479709625244
8.85513591766357422 -17.3236446380615234 16.1060047149658203
3.6537168025970459 -14.4064569473266602 23.2715873718261719
7.3191075325012207 65.4483795166015625 11.8612747192382812
-5.23779582977294922 -32.8969688415527344 -19.4928474426269531
8.59656620025634766 19.7952976226806641 -3.57729196548461914
8.92093753814697266 19.6656913757324219 15.577265739440918
1.17485201358795166 22.6190948486328125 21.7813644409179688
-15.914423942565918 -29.1133918762207031 -6.72069358825683594
7.06769752502441406 51.7306747436523438 -5.27071285247802734
-1.0722966194152832 24.5475864410400391 20.1006069183349609
-15.113490104675293 -46.1310958862304688 -5.16510486602783203
-15.2761001586914062 -5.40418529510498047 5.77077579498291016
8.60731983184814453 -40.9264106750488281 8.31490135192871094
-16.9447784423828125 -24.5379600524902344 -2.65797185897827148
10.0069732666015625 10.4250688552856445 -9.79317665100097656
6.55240249633789062 -55.5661277770996094 3.66261744499206543
-15.017460823059082 -49.2057609558105469 -3.23965001106262207
-4.73269414901733398 -4.39763641357421875 -19.9288482666015625
1.67860400676727295 2.57836604118347168 22.6726303100585938
9.85249042510986328 21.2615489959716797 1.57937431335449219
-11.465357780456543 8.80328941345214844 -9.31873989105224609
2.77956342697143555 -40.608489990234375 23.0973281860351562
9.20385551452636719 -16.4832687377929688 10.2054643630981445
0.0984670966863632202 67.8128814697265625 -20.7084732055664062
-2.27781534194946289 69.4428329467773438 -14.4899988174438477
-2.29896235466003418 -72.0951004028320312 4.45422792434692383
10.7591428756713867 9.99537086486816406 13.4501791000366211
-3.04237723350524902 66.1229324340820312 -14.6233386993408203
1.92161571979522705 -69.050811767578125 5.68679618835449219
0.0873222798109054565 3.35562515258789062 -22.1400432586669922
1.0305027961730957 37.5730171203613281 21.1470832824707031
9.48149871826171875 47.5166587829589844 11.7866973876953125
-7.3288726806640625 -53.4489212036132812 17.5170040130615234
-0.583801507949829102 20.5067920684814453 -21.4826469421386719
7.16563844680786133 -16.7635631561279297 23.7964534759521484
-1.11186575889587402 10.1298141479492188 -21.5187911987304688
-14.4151906967163086 -7.29133510589599609 -8.53037738800048828
-7.4647369384765625 -26.2053318023681641 19.009124755859375
-16.3317470550537109 -32.5768814086914062 -4.99300098419189453
10.7946624755859375 -4.51962804794311523 15.7968025207519531
-4.32094192504882812 55.5256462097167969 -10.3024148941040039
5.47072362899780273 -59.4046592712402344 8.45431423187255859
8.89894294738769531 -5.40073585510253906 -2.50680351257324219
9.02315139770507812 -8.70434379577636719 15.5821914672851562
-10.2807168960571289 -64.4803695678710938 3.99816203117370605
-16.6498661041259766 -30.5229473114013672 -3.90619707107543945
-0.291293501853942871 40.9149665832519531 19.7413768768310547
8.58684825897216797 -40.0679092407226562 9.24428176879882812
8.49934482574462891 -39.1496315002441406 -13.8261346817016602
9.20034503936767578 -6.85610103607177734 5.68185949325561523
7.29523372650146484 -43.1491203308105469 21.0599346160888672
-16.5290737152099609 -40.0836639404296875 0.840119123458862305
-0.652053356170654297 -51.9512481689453125 21.7067432403564453
-3.52669334411621094 69.1198272705078125 -6.29302120208740234
10.2837486267089844 31.8493804931640625 3.60667800903320312
-8.63811588287353516 -67.3921127319335938 2.77544713020324707
-7.53589057922363281 -63.1968612670898438 -12.3880901336669922
-16.2851428985595703 -14.1733102798461914 5.07204532623291016
8.88554191589355469 17.0834140777587891 0.127872169017791748
4.00609874725341797 -2.8672943115234375 23.1251564025878906
9.41997528076171875 43.1278953552246094 -3.93562102317810059
-14.5543708801269531 -47.8109474182128906 7.18597936630249023
-16.6315746307373047 -28.9802989959716797 -4.12796306610107422
7.21197509765625 -11.0050630569458008 -17.3298511505126953
8.87747287750244141 -39.6259574890136719 -11.0737676620483398
9.46770668029785156 -14.7587966918945312 -12.6575908660888672
8.61012935638427734 -2.83484625816345215 -6.52900886535644531
-2.14305734634399414 -62.3187294006347656 -17.7763862609863281
-4.449066162109375 54.3549079895019531 -8.95032596588134766
6.48297309875488281 -6.54517555236816406 -21.7551536560058594
-13.0267925262451172 -1.06281721591949463 10.3053312301635742
4.14255094528198242 66.056304931640625 -22.5756664276123047
6.36329126358032227 -55.5457344055175781 11.1344528198242188
3.15886759757995605 43.8657264709472656 22.3818016052246094
0.80552363395690918 5.33181047439575195 -22.3299827575683594
-0.692505061626434326 73.7849502563476562 -4.71202993392944336
7.05212020874023438 -52.1851577758789062 0.705966591835021973
-4.19395542144775391 46.0177726745605469 -13.4998025894165039
0.267459958791732788 62.7045249938964844 20.2666950225830078
7.46757078170776367 -50.5903396606445312 0.254511326551437378
6.80697488784790039 18.6277484893798828 -21.5740222930908203
3.07445406913757324 -62.2011909484863281 -11.9011478424072266
-5.22004461288452148 41.0428695678710938 5.8450016975402832
-10.3326778411865234 -37.0186843872070312 -15.3459815979003906
-5.04252195358276367 42.4675865173339844 -10.1104059219360352
7.98335599899291992 -24.5961742401123047 22.6822032928466797
-16.6196327209472656 -18.1738872528076172 4.55340766906738281
-10.2367944717407227 19.3342323303222656 1.03300535678863525
-5.2031712532043457 37.9597663879394531 -11.566960334777832
-16.6341457366943359 -16.2189083099365234 3.89502286911010742
10.0973787307739258 33.1232566833496094 0.209654971957206726
10.3713083267211914 -16.0910358428955078 13.3376197814941406
-8.88672542572021484 -66.8441696166992188 3.86716151237487793
-12.4519472122192383 11.5611343383789062 -1.67876005172729492
6.88264608383178711 11.0298748016357422 -20.7866725921630859
-3.93381118774414062 35.3332023620605469 -16.3744277954101562
9.24396991729736328 39.4441604614257812 15.4509210586547852
-16.7456169128417969 -15.2669830322265625 -1.88316500186920166
10.1552438735961914 -39.505523681640625 4.36391162872314453
5.65764141082763672 -54.7491226196289062 -9.13656234741210938
6.65990400314331055 -0.403733700513839722 -21.5738315582275391
8.53102207183837891 1.4614025354385376 -16.9730587005615234
-7.62421321868896484 21.2226181030273438 10.8739995956420898
9.55245780944824219 -37.2984161376953125 -3.47850751876831055
5.08896780014038086 -59.4129981994628906 -3.37725520133972168
8.45759201049804688 -7.75429773330688477 -7.91208362579345703
-10.4986295700073242 -24.5121040344238281 16.3257598876953125
6.83720302581787109 42.2323150634765625 -17.22265625
7.76850366592407227 -40.5067596435546875 -14.8932590484619141
5.98573446273803711 52.8949699401855469 22.8799476623535156
-11.1676769256591797 -54.8961105346679688 -11.3049678802490234
4.43029260635375977 -43.6472854614257812 -22.3779296875
9.33867645263671875 49.4860877990722656 10.4721145629882812
8.67957401275634766 22.4133872985839844 7.11248540878295898
-5.12205886840820312 68.4218978881835938 1.51575112342834473
-3.85207915306091309 -10.9962892532348633 20.9749603271484375
8.562469482421875 -2.49769020080566406 -16.8406352996826172
-9.18128299713134766 22.3561763763427734 -5.13463449478149414
-10.5192480087280273 6.99550342559814453 12.3077983856201172
6.19858789443969727 -7.16446304321289062 23.2917957305908203
8.47588443756103516 23.7455158233642578 7.23771047592163086
2.89403176307678223 -6.27000141143798828 -22.6049594879150391
-16.9221382141113281 -33.0603599548339844 -1.44834315776824951
-11.4532871246337891 -53.2294158935546875 -11.4659872055053711
6.34410953521728516 -3.86366772651672363 -22.5139446258544922
9.6232147216796875 35.2790641784667969 14.7482929229736328
9.00485324859619141 19.0935382843017578 12.1015033721923828
10.623194694519043 -13.4021749496459961 0.187184438109397888
-10.6542482376098633 -20.4141368865966797 16.0538883209228516
-2.5279548168182373 68.6908798217773438 -14.407435417175293
6.99802255630493164 -52.8596153259277344 10.5725860595703125
9.08113288879394531 10.221257209777832 2.92618799209594727
7.39215660095214844 -48.0873031616210938 -4.98685836791992188
-16.3300590515136719 -28.7947998046875 6.33859395980834961
-0.836662828922271729 -55.7786064147949219 21.1915378570556641
4.06023693084716797 -17.8599281311035156 -22.579498291015625
10.5125360488891602 -23.9478893280029297 3.66530299186706543
7.49766349792480469 52.4506912231445312 5.96706390380859375
-3.15166211128234863 37.8325881958007812 15.1342525482177734
8.71726417541503906 10.0717258453369141 -4.55307483673095703
9.25952434539794922 27.7937049865722656 5.76458883285522461
-6.69804525375366211 12.90313720703125 -16.5891838073730469
5.74475431442260742 64.5369033813476562 -0.129670709371566772
-1.41357898712158203 11.2647829055786133 21.0496120452880859
-5.80588006973266602 19.5469722747802734 15.2890214920043945
-6.28355932235717773 36.2285041809082031 -5.47997570037841797
-15.3164892196655273 -18.0735569000244141 8.76429843902587891
6.42406797409057617 -21.815460205078125 -19.6909751892089844
-14.4800643920898438 -40.4578857421875 -8.87656879425048828
-2.19923567771911621 68.2932281494140625 10.1245632171630859
-5.24698543548583984 43.9165382385253906 -6.83430194854736328
-0.663275241851806641 2.75176858901977539 -21.8368549346923828
8.60093116760253906 12.2256155014038086 -5.86886310577392578
-4.9447321891784668 47.9616775512695312 -6.42966270446777344
4.52498340606689453 67.6157379150390625 -16.3012733459472656
5.37497377395629883 59.3051261901855469 -19.1222705841064453
1.36668622493743896 -21.9713077545166016 22.9810085296630859
-2.25790286064147949 36.1706809997558594 17.2317981719970703
3.17071318626403809 -57.6746253967285156 -17.7735404968261719
7.8145594596862793 19.1859569549560547 -13.5864114761352539
10.4876861572265625 -29.0518550872802734 1.558807373046875
4.12061834335327148 -62.5287017822265625 -3.1481621265411377
-4.18270492553710938 36.7558097839355469 -15.500762939453125
-15.9870834350585938 -38.2020835876464844 -5.07143115997314453
-9.71389293670654297 12.2643442153930664 -11.7746086120605469
-1.96804726123809814 -63.7938079833984375 -17.1844158172607422
10.5170097351074219 31.7415714263916016 2.13364243507385254
-9.37364101409912109 22.5001964569091797 1.03643810749053955
6.00618124008178711 7.29494476318359375 23.2193832397460938
10.3772850036621094 -20.1301651000976562 16.3009452819824219
-9.95471668243408203 -58.8111419677734375 12.2279214859008789
10.5560855865478516 -29.3552532196044922 3.81281876564025879
-5.62735176086425781 -19.2895622253417969 -19.4621944427490234
-4.37585163116455078 57.4507522583007812 -0.0558662340044975281
8.26868820190429688 44.2337150573730469 -6.93624448776245117
-12.2294435501098633 5.69170045852661133 9.24687576293945312
-5.79714822769165039 -28.7211704254150391 20.1130542755126953
-14.2718534469604492 0.973671078681945801 -5.76292610168457031
-13.7144947052001953 -55.4439735412597656 3.48250603675842285
6.76408052444458008 -54.6737213134765625 3.18338894844055176
8.79893398284912109 -9.66337490081787109 -3.58229517936706543
5.87361001968383789 -57.7032012939453125 8.76527881622314453
4.14432477951049805 23.8686046600341797 -23.1018486022949219
-4.70401811599731445 49.4954071044921875 -8.49839401245117188
9.72556591033935547 37.9240341186523438 -3.31686830520629883
8.65109348297119141 -3.19025874137878418 21.9980258941650391
-2.43691039085388184 10.2702732086181641 -20.7691688537597656
9.17605113983154297 -13.3831729888916016 7.55583286285400391
-0.906255960464477539 -66.0899581909179688 17.3001766204833984
7.43987274169921875 -42.8739547729492188 20.1895503997802734
5.06908845901489258 68.0238037109375 -6.20332717895507812
4.30495023727416992 2.79855799674987793 23.1656055450439453
8.85278224945068359 23.9410972595214844 -3.91387677192687988
6.73143148422241211 -45.3676605224609375 -12.0865268707275391
-5.02442502975463867 16.7556629180908203 -17.9553794860839844
-12.1744546890258789 -32.3922042846679688 -13.4404678344726562
6.39946889877319336 63.4298782348632812 19.2141494750976562
1.10991001129150391 74.2747116088867188 5.53627490997314453
3.51893138885498047 -11.3898639678955078 -22.6173324584960938
-11.8620452880859375 -1.38554656505584717 12.5203323364257812
5.66531276702880859 54.6187515258789062 -20.4289627075195312
-4.66230249404907227 48.8661460876464844 -9.45704936981201172
8.84940528869628906 9.86769199371337891 -2.51016592979431152
-5.80841779708862305 30.6436119079589844 10.4036502838134766
1.71418416500091553 42.1961708068847656 -22.6198139190673828
7.0911259651184082 28.6586494445800781 23.1985397338867188
10.1572761535644531 35.9233169555664062 3.86557579040527344
10.3305149078369141 -36.67181396484375 3.54024362564086914
-11.2964248657226562 -5.60627985000610352 14.1560201644897461
-9.40441226959228516 -26.4456253051757812 17.4067592620849609
-13.3168115615844727 -4.24119949340820312 -10.2421474456787109
10.9473981857299805 8.27150726318359375 10.7485160827636719
6.30139589309692383 -18.0875930786132812 23.3299217224121094
10.5826082229614258 -4.54668712615966797 10.6769495010375977
9.59500598907470703 31.6875934600830078 -7.69811391830444336
-16.1890659332275391 -21.3179340362548828 -5.80798864364624023
-11.7428207397460938 14.1107177734375 0.0142416860908269882
6.92432928085327148 54.2327041625976562 -7.77869081497192383
6.69010353088378906 -51.5762786865234375 17.1877517700195312
7.4885563850402832 45.650482177734375 -6.17638015747070312
6.30271100997924805 -51.5870857238769531 -9.31204414367675781
9.1307373046875 7.87192392349243164 9.09916400909423828
-6.31508445739746094 6.21677732467651367 17.7040443420410156
-13.2731704711914062 -2.51969313621520996 -9.91142940521240234
6.31399059295654297 -32.7053565979003906 -18.0110607147216797
0.744449079036712646 -68.737213134765625 -11.6142559051513672
4.05089950561523438 74.0227203369140625 3.31440448760986328
-1.15602421760559082 73.6362380981445312 -6.37385654449462891
-16.6229362487792969 -13.3600912094116211 -1.8865509033203125
8.64217567443847656 16.6870555877685547 -4.47522449493408203
8.15303230285644531 40.2092132568359375 19.0974864959716797
9.16344165802001953 48.2728309631347656 3.0453498363494873
-6.91873359680175781 33.2515716552734375 0.345735609531402588
-5.81548309326171875 -45.4614410400390625 19.5996322631835938
-5.22899198532104492 -63.6457672119140625 -14.783015251159668
8.11371421813964844 -44.5956535339355469 12.3089475631713867
10.073033332824707 10.4643125534057617 9.57033061981201172
8.54801082611083984 25.0224456787109375 22.0528392791748047
-6.58691215515136719 29.9202957153320312 7.92629289627075195
-11.3859586715698242 -34.3411178588867188 -14.327519416809082
-8.80822849273681641 -1.54959762096405029 -16.3943805694580078
7.3321223258972168 65.4339599609375 11.783024787902832
8.46521186828613281 -3.30433487892150879 -7.85119438171386719
3.06138825416564941 57.30438232421875 22.3251743316650391
4.20101451873779297 63.0308876037597656 22.2990264892578125
-14.8478803634643555 0.254784226417541504 4.2960209846496582
10.2432670593261719 -21.6404209136962891 -3.34427118301391602
10.4019050598144531 31.3504924774169922 -0.715884268283843994
-4.80080318450927734 40.7936248779296875 -12.2486371994018555
9.18518543243408203 8.37077617645263672 6.23772287368774414
-2.8024284839630127 -72.1640701293945312 -0.564411401748657227
8.84279823303222656 -34.0522994995117188 10.1100873947143555
9.03193187713623047 14.3025779724121094 3.80658793449401855
2.4899756908416748 34.363677978515625 -22.8702869415283203
-11.6427192687988281 -23.7849369049072266 -14.2108850479125977
2.41840696334838867 -67.9411544799804688 5.00318622589111328
8.37768459320068359 -35.3897933959960938 -10.5683269500732422
10.2615900039672852 1.47324526309967041 3.00798773765563965
9.72034740447998047 9.67997455596923828 -11.6222896575927734
8.20439624786376953 -8.29036235809326172 -10.4473400115966797
6.13139867782592773 46.5605545043945312 22.9458179473876953
9.64190196990966797 -39.6436576843261719 16.9425029754638672
-6.22397089004516602 -67.2010040283203125 -10.1925153732299805
-2.8659675121307373 68.653045654296875 -10.7160720825195312
6.40593385696411133 -1.28527939319610596 -22.1910629272460938
9.30517864227294922 9.68609428405761719 -16.3340930938720703
8.94248008728027344 -9.56068992614746094 16.969451904296875
-13.8865785598754883 -14.7613525390625 11.3557538986206055
-3.99221944808959961 -49.8234710693359375 20.3599071502685547
-2.52933907508850098 65.678466796875 -17.3116168975830078
3.15250158309936523 -24.8053016662597656 23.2774734497070312
6.10446643829345703 -18.1031837463378906 -22.2923355102539062
-2.59841537475585938 -3.79491758346557617 21.3993854522705078
-3.66265606880187988 -56.288818359375 -18.6186885833740234
8.9870758056640625 -14.3398647308349609 -15.8241996765136719
6.74191379547119141 5.9558873176574707 -21.4568576812744141
-6.47174978256225586 23.9712314605712891 12.2122621536254883
-4.72689151763916016 37.6119384765625 10.5210437774658203
5.68044185638427734 -48.9326820373535156 -15.3388671875
7.63286828994750977 62.2435111999511719 6.1667637825012207
5.52948760986328125 68.2153778076171875 5.74981260299682617
-3.33227634429931641 54.4459648132324219 11.4243068695068359
-3.96180891990661621 -59.8158493041992188 -17.5633506774902344
-0.0601151473820209503 16.7969017028808594 -21.856689453125
4.56024980545043945 -61.6463356018066406 -1.20387935638427734
-1.69509255886077881 -36.8593864440917969 -21.0516223907470703
-11.6350812911987305 -5.90364933013916016 -13.3370351791381836
-6.8836674690246582 -39.8076972961425781 -18.1656837463378906
2.87170743942260742 -66.6194534301757812 1.08694076538085938
2.90010595321655273 16.7709426879882812 -22.8472480773925781
10.2227344512939453 -37.2286109924316406 11.5307645797729492
-11.2645807266235352 -48.2979927062988281 -13.0462827682495117
-4.70719623565673828 70.9727783203125 2.65836024284362793
8.35739231109619141 50.860076904296875 3.59775280952453613
10.1165456771850586 -31.1568489074707031 5.73370599746704102
8.88382434844970703 -13.6904439926147461 -16.2120037078857422
8.83654403686523438 -26.4320697784423828 -1.94568443298339844
7.11593151092529297 -12.0010461807250977 23.6061725616455078
3.50680947303771973 -63.5852584838867188 16.5901145935058594
6.47467374801635742 54.2093582153320312 -12.8730363845825195
4.05035543441772461 -60.0853424072265625 20.7522487640380859
3.46889185905456543 1.23603558540344238 23.0755767822265625
7.67278575897216797 64.7594680786132812 10.8056249618530273
3.7474360466003418 -58.0501213073730469 -14.9324235916137695
-16.8070411682128906 -17.5067386627197266 -2.31497335433959961
-0.432303398847579956 59.6641273498535156 -21.5647964477539062
-6.23578262329101562 31.5303382873535156 -10.7026576995849609
5.34580612182617188 -58.88885498046875 -2.40894508361816406
7.38965940475463867 47.226409912109375 6.59659624099731445
10.114959716796875 -39.8834686279296875 1.89635765552520752
10.0269441604614258 23.4203872680664062 9.59692478179931641
-5.06829977035522461 40.5415725708007812 7.18075084686279297
-9.36015605926513672 16.8608055114746094 9.10769176483154297
10.3001394271850586 -29.5533809661865234 14.2109670639038086
-5.11964178085327148 -49.1435470581054688 19.7716541290283203
4.82107305526733398 67.772918701171875 -10.8454160690307617
9.94939231872558594 35.7028121948242188 -4.67489385604858398
10.2565288543701172 -2.52609777450561523 18.112579345703125
-2.70003509521484375 67.218292236328125 -15.5109310150146484
9.61163520812988281 -22.9659290313720703 -10.2037153244018555
6.85490322113037109 59.4427452087402344 16.2068099975585938
-1.89509034156799316 -70.2080459594726562 -10.2004671096801758
-6.96283388137817383 30.2545299530029297 -8.246124267578125
10.1454305648803711 -39.5345802307128906 2.23444318771362305
-6.15092277526855469 20.5123062133789062 -15.554478645324707
1.6530078649520874 73.5225830078125 -1.53325092792510986
-12.5881547927856445 5.70379781723022461 -8.40472507476806641
7.89933347702026367 31.4151554107666016 10.694915771484375
7.41547918319702148 -42.9127426147460938 -9.26976871490478516
-6.24318456649780273 37.4262809753417969 -2.29175686836242676
-1.39506924152374268 71.4019927978515625 9.56303024291992188
9.34171772003173828 20.8193225860595703 2.14782524108886719
-3.96519136428833008 -42.5197563171386719 -19.7969417572021484
8.07578277587890625 -45.736968994140625 0.1335439532995224
-9.81165885925292969 15.4924955368041992 -9.75253677368164062
5.61451244354248047 56.1748390197753906 -19.6364765167236328
9.6659698486328125 37.4210281372070312 14.1229476928710938
-2.80112218856811523 39.0676994323730469 15.7108421325683594
-8.63891983032226562 -47.4907760620117188 17.1884479522705078
-9.45945835113525391 20.412994384765625 -6.43750381469726562
-7.97733163833618164 25.8023757934570312 5.68954801559448242
-8.73674488067626953 -9.61828517913818359 -16.9640312194824219
-7.15950202941894531 -25.1593189239501953 19.1959266662597656
-7.30741357803344727 26.2418880462646484 -10.1775274276733398
-0.953236818313598633 36.6617431640625 19.1551132202148438
-13.053807258605957 -19.3355922698974609 13.0485296249389648
-12.1700248718261719 -40.0547370910644531 13.9566946029663086
0.562556147575378418 -40.7979621887207031 22.6209945678710938
9.82309818267822266 21.237548828125 2.34683847427368164
5.20639801025390625 71.285491943359375 18.8203716278076172
2.49891304969787598 -58.2080535888671875 -19.3927154541015625
6.09583473205566406 -45.1974983215332031 -15.5045070648193359
-16.9019889831542969 -27.0381126403808594 3.84135842323303223
-7.85920906066894531 12.7142429351806641 -15.0115242004394531
9.16186809539794922 -8.11010932922363281 3.92027831077575684
7.03434085845947266 57.4943656921386719 3.22804021835327148
-11.0018386840820312 -23.6366291046142578 15.7807960510253906
8.465667724609375 1.02972722053527832 23.4713249206542969
-14.3530778884887695 -52.9138641357421875 -2.85322308540344238
-5.90217208862304688 -70.2793807983398438 3.45203804969787598
6.99187898635864258 -11.7768735885620117 -18.4613304138183594
-14.5361213684082031 -17.6569194793701172 10.4207639694213867
10.4039640426635742 31.3913764953613281 -0.67835623025894165
-3.47820854187011719 -45.010955810546875 -19.9147281646728516
7.5691990852355957 -7.00625896453857422 -15.4743585586547852
-7.82601261138916016 -13.5595588684082031 -17.8646965026855469
9.756561279296875 -4.39951848983764648 -9.02557945251464844
8.38622760772705078 -42.6722488403320312 10.5709142684936523
-4.02100515365600586 59.5705833435058594 -11.9422826766967773
9.67553615570068359 -1.30707323551177979 -11.4605121612548828
-4.78828811645507812 34.5256881713867188 11.7113838195800781
7.35588836669921875 52.9988327026367188 19.7673988342285156
6.07671785354614258 -26.2716484069824219 -20.3386440277099609
-0.647431910037994385 58.4068222045898438 -21.3814277648925781
-1.70469987392425537 -69.9377517700195312 -10.6370248794555664
9.99553298950195312 28.6660594940185547 -3.10136127471923828
-4.97627782821655273 45.8136863708496094 3.14138436317443848
8.51360130310058594 25.7356529235839844 22.2770462036132812
-10.6882572174072266 -44.6089630126953125 15.3578739166259766
9.67690658569335938 -3.56749415397644043 9.97195816040039062
-7.15875434875488281 -68.8214797973632812 4.77960300445556641
-10.2577018737792969 -33.7725677490234375 16.5353050231933594
1.53204941749572754 55.7190628051757812 21.5468425750732422
6.17044639587402344 -23.2118511199951172 -20.6513290405273438
-10.0310516357421875 -27.1898021697998047 -15.9676141738891602
0.64625096321105957 -37.5053138732910156 -21.7434883117675781
-6.10028171539306641 -59.0846481323242188 17.1257190704345703
9.02601909637451172 19.8562488555908203 7.70913219451904297
-16.2438850402832031 -12.0675268173217773 -3.85015559196472168
9.29448127746582031 0.794173955917358398 3.56865763664245605
-8.11667251586914062 2.48168659210205078 -16.7462692260742188
10.8313474655151367 8.20738697052001953 14.8060665130615234
8.75042724609375 1.60619580745697021 -5.05505800247192383
-2.60916709899902344 69.3576202392578125 -11.9076299667358398
0.602967143058776855 -70.21673583984375 -7.29212522506713867
5.82176303863525391 54.2151832580566406 -19.2742195129394531
-2.43655157089233398 -28.9917335510253906 -20.9698543548583984
9.11052227020263672 -1.44321584701538086 1.44742512702941895
-8.67845726013183594 -18.9478302001953125 -17.2051467895507812
-5.01959609985351562 -70.219635009765625 -6.23172903060913086
-4.30097389221191406 40.8100700378417969 -14.2526655197143555
-2.02730059623718262 65.4078826904296875 14.5125484466552734
-0.88907468318939209 65.15972900390625 -20.5695858001708984
-6.83263969421386719 14.6099424362182617 -16.0271320343017578
9.46112632751464844 -16.4817028045654297 -2.47500085830688477
7.31397485733032227 32.922088623046875 -14.7974061965942383
8.13902759552001953 -16.4272632598876953 -15.9336318969726562
-6.85368728637695312 27.4239082336425781 -11.0173740386962891
7.28304815292358398 1.40402030944824219 -17.7686672210693359
-3.8825678825378418 38.6043243408203125 13.0117034912109375
-0.24558664858341217 -26.6255931854248047 -21.7747611999511719
-17.2421875 -25.0757713317871094 0.410263419151306152
9.01738452911376953 -26.3024425506591797 2.34348750114440918
5.96229410171508789 -56.9015159606933594 -0.810975909233093262
-8.02899265289306641 19.947265625 10.6637630462646484
6.08150148391723633 52.2518348693847656 -18.3747997283935547
-4.72652912139892578 -56.8078994750976562 18.9142246246337891
6.85629367828369141 61.43157958984375 -6.23133230209350586
9.74932479858398438 34.2651290893554688 13.7832984924316406
8.49231052398681641 -17.7226085662841797 -6.37043333053588867
-2.84296798706054688 -62.0184669494628906 18.4977741241455078
5.50915861129760742 62.5810317993164062 22.681915283203125
6.68208551406860352 25.0711154937744141 -22.1124114990234375
9.47554302215576172 45.3968887329101562 0.955965042114257812
-9.86247634887695312 20.1956882476806641 -4.06977367401123047
9.28857421875 -39.2915420532226562 -8.03753185272216797
3.77195930480957031 63.4008827209472656 -23.1105995178222656
-12.2840700149536133 10.6249046325683594 4.37238025665283203
-3.09352421760559082 12.338099479675293 19.7991676330566406
8.40928077697753906 -16.3512134552001953 -7.19405078887939453
7.25665569305419922 55.7771835327148438 13.1083889007568359
-5.79991531372070312 -53.4306449890136719 18.7742443084716797
-0.716433346271514893 -68.3394775390625 15.252838134765625
8.71464729309082031 5.11511898040771484 21.2374401092529297
-6.59722185134887695 -41.0636863708496094 -18.2915363311767578
10.2241935729980469 -38.3139076232910156 2.75943851470947266
-3.00550079345703125 40.9880332946777344 -17.6789283752441406
7.87490701675415039 39.7553939819335938 -15.0188236236572266
8.01924514770507812 28.2040729522705078 8.54513835906982422
8.88432979583740234 14.6093664169311523 -0.447249084711074829
9.95197963714599609 30.3663063049316406 -2.03708457946777344
9.39045143127441406 35.6993598937988281 -8.92131614685058594
-3.04610586166381836 62.2770843505859375 -16.7673912048339844
9.09611988067626953 -24.6600265502929688 1.78760612010955811
3.19095540046691895 -47.4092292785644531 22.9955291748046875
-9.51769638061523438 -63.2409286499023438 -8.71512126922607422
-7.31016254425048828 -66.4253463745117188 9.94275379180908203
7.86184167861938477 51.0824928283691406 3.75131988525390625
8.50555801391601562 -9.36414337158203125 22.5728702545166016
-9.64018344879150391 12.2900838851928711 -11.9241390228271484
-9.7132568359375 -2.27881956100463867 -15.4381189346313477
-14.8311347961425781 1.47165989875793457 3.80627679824829102
0.469452083110809326 -61.0345954895019531 -19.7375965118408203
-8.52696323394775391 23.9264087677001953 5.13153266906738281
6.6560359001159668 42.7121009826660156 -18.5946121215820312
3.55610203742980957 -62.9086189270019531 -7.27571439743041992
8.44586753845214844 13.2084465026855469 23.3984813690185547
-15.7924661636352539 -17.5478477478027344 7.4169917106628418
9.38768959045410156 45.0555267333984375 -2.27507376670837402
1.76926565170288086 -65.9155502319335938 -11.5252904891967773
-9.82790184020996094 13.9553699493408203 9.88507652282714844
-8.99100112915039062 -5.83396434783935547 16.8745994567871094
-13.7880630493164062 5.46863269805908203 -3.96961188316345215
10.4773855209350586 -20.7459964752197266 15.5748319625854492
0.399725973606109619 8.7281341552734375 22.0796279907226562
4.39879608154296875 -62.5449867248535156 10.3200082778930664
9.26310920715332031 1.60475707054138184 8.57352542877197266
5.62949466705322266 -37.9698066711425781 -19.7382526397705078
1.23328351974487305 64.4720840454101562 20.9391937255859375
6.94640970230102539 52.5866928100585938 -13.7035627365112305
1.06761693954467773 -66.5891876220703125 -14.4275178909301758
-11.5841875076293945 -55.0507392883300781 -10.4603977203369141
5.7403569221496582 -58.0144386291503906 10.8664827346801758
9.63082504272460938 24.8290977478027344 4.6430811882019043
6.67503499984741211 28.6251354217529297 -21.9052562713623047
-7.43367958068847656 -56.6369285583496094 -15.6581048965454102
-0.121358223259449005 14.5713281631469727 21.5617847442626953
2.19374275207519531 -22.7338333129882812 23.1362361907958984
-4.77149629592895508 45.7638473510742188 5.29131603240966797
1.63680565357208252 -69.489532470703125 2.2871861457824707
-14.3038043975830078 -40.3956527709960938 -9.29900169372558594
-7.74146890640258789 -68.63153076171875 2.02395367622375488
-9.549468994140625 20.7935867309570312 -5.2802119255065918
-5.65268039703369141 -69.8486785888671875 6.42704296112060547
4.35905313491821289 -58.2730255126953125 -11.647862434387207
7.19086933135986328 53.9779586791992188 -2.45154523849487305
10.8942298889160156 -1.50224220752716064 11.2997636795043945
-5.03406143188476562 -54.74114990234375 19.0989952087402344
7.12512540817260742 24.0134830474853516 -18.8660774230957031
-2.59991645812988281 -44.1524162292480469 21.4016819000244141
-5.8258056640625 10.3624639511108398 17.5693492889404297
7.0455174446105957 -45.3867225646972656 -10.2149648666381836
6.84824323654174805 58.4757347106933594 0.282637625932693481
2.78576111793518066 6.28958559036254883 -22.8049526214599609
8.93111610412597656 -25.5244655609130859 11.4481801986694336
0.959657490253448486 74.1439208984375 -10.176692008972168
6.72472715377807617 64.8850479125976562 -10.1429653167724609
10.7609386444091797 8.29501914978027344 9.694793701171875
