ply
format ascii 1.0
element vertex 784
comment vertices
property float x
property float y
property float z
end_header
-7.49119472503662109 -43.9281730651855469 -20.0364933013916016
-9.70669460296630859 -48.2404060363769531 -11.5401792526245117
-8.79289531707763672 45.2375373840332031 21.2760086059570312
-7.92511510848999023 62.6160659790039062 -16.6301174163818359
4.34641504287719727 27.6764659881591797 24.9898929595947266
-6.16921710968017578 -9.16249179840087891 22.4229011535644531
9.23418521881103516 45.0051078796386719 -14.724085807800293
9.35707378387451172 72.2687149047851562 -10.09881591796875
-10.6274261474609375 -10.795867919921875 1.04399549961090088
10.0371856689453125 1.04818463325500488 4.11038541793823242
7.63143110275268555 39.0205307006835938 15.4361896514892578
-10.8110132217407227 -19.0596103668212891 2.1257779598236084
6.88514375686645508 -6.08307743072509766 21.4748077392578125
8.30292987823486328 -18.8880538940429688 -24.1233501434326172
8.92580890655517578 -1.44538354873657227 -22.0315456390380859
-8.49672412872314453 -80.7773590087890625 -12.2253599166870117
-10.0662107467651367 -78.2087783813476562 -8.09051036834716797
9.54675102233886719 18.0060348510742188 -5.1138005256652832
-3.96269416809082031 -2.12801456451416016 23.2437782287597656
-9.44072532653808594 -42.2455368041992188 -13.5887517929077148
9.39257717132568359 -36.16802978515625 5.8046269416809082
-11.3019466400146484 24.7444992065429688 11.6890201568603516
5.87592267990112305 58.088165283203125 16.8652591705322266
9.83603382110595703 -40.5509262084960938 0.0169718768447637558
3.39000654220581055 69.424835205078125 -22.6350078582763672
4.75590801239013672 60.4946441650390625 13.2250556945800781
10.6866664886474609 -19.9158897399902344 -12.7685441970825195
-11.6897506713867188 -77.3193511962890625 10.0801811218261719
-9.52628421783447266 -7.06871795654296875 -10.671574592590332
5.73069334030151367 -85.4595718383789062 -19.8185005187988281
6.03273534774780273 41.8144569396972656 3.66997671127319336
8.49444007873535156 28.4103927612304688 14.4253816604614258
-10.7148218154907227 -12.2302713394165039 1.83792519569396973
7.70811843872070312 73.756439208984375 12.6976556777954102
-6.88275289535522461 -84.4105148315429688 2.85866785049438477
5.63649797439575195 64.1594009399414062 -10.138239860534668
9.26257896423339844 33.3468894958496094 -15.220576286315918
9.6220855712890625 -9.62399578094482422 -19.0785121917724609
-0.177504837512969971 87.4095993041992188 -11.0301313400268555
7.52658462524414062 32.9502296447753906 16.4899234771728516
6.62366247177124023 47.192962646484375 21.7355537414550781
-11.8383169174194336 -72.3049087524414062 14.1920232772827148
-11.0096664428710938 54.9976730346679688 8.36269664764404297
-9.39664173126220703 -12.0778903961181641 -12.2978172302246094
4.90283966064453125 64.6624374389648438 5.85587930679321289
5.44891834259033203 47.6580162048339844 -23.2888984680175781
-10.9294509887695312 5.13380336761474609 5.68644189834594727
-11.6340217590332031 -44.3082962036132812 15.0214643478393555
-10.7487316131591797 -56.3280754089355469 18.0444774627685547
10.0670843124389648 -59.4960899353027344 -4.05614709854125977
6.37317895889282227 34.1214942932128906 -23.8882942199707031
-7.76617860794067383 -26.5473423004150391 21.4391841888427734
-10.5744009017944336 43.5338325500488281 3.19831681251525879
10.2601699829101562 -6.24152135848999023 -15.1733932495117188
5.44371700286865234 64.7783279418945312 -6.60056877136230469
9.33988666534423828 -8.59834861755371094 7.35433864593505859
2.43115973472595215 -87.8202590942382812 7.89771318435668945
-4.69190740585327148 40.9185905456542969 23.5973415374755859
-10.9536027908325195 -19.8905754089355469 3.55213093757629395
-6.88817167282104492 61.85235595703125 -18.6362419128417969
-6.27635383605957031 -18.246734619140625 -20.9146652221679688
9.43314552307128906 -74.384735107421875 5.62245273590087891
1.42608404159545898 -81.9257659912109375 -20.9537162780761719
-9.40549278259277344 55.7859687805175781 -9.12367916107177734
-5.8569035530090332 63.9347572326660156 -19.8565139770507812
9.92613506317138672 -37.2925186157226562 -17.4611873626708984
9.63460540771484375 -60.2496719360351562 -21.7498149871826172
-6.58725070953369141 -32.3484153747558594 -20.8737010955810547
1.02932357788085938 12.9105014801025391 -23.3719291687011719
2.78279495239257812 34.5769577026367188 -23.2238788604736328
0.222673371434211731 -6.15315151214599609 24.0477657318115234
-9.2425994873046875 -32.965576171875 20.1183376312255859
8.61628055572509766 79.1045379638671875 3.8137059211730957
7.7528080940246582 72.5932083129882812 -1.92560482025146484
-10.8434352874755859 -33.2610435485839844 2.90923595428466797
9.71228599548339844 6.84130334854125977 -11.8311548233032227
-7.64087438583374023 -82.9047698974609375 -8.31697940826416016
9.43743896484375 10.500575065612793 -17.8310546875
-1.58110678195953369 42.3824119567871094 24.2908763885498047
-5.37488222122192383 14.940098762512207 23.0164394378662109
4.73659324645996094 -38.3184852600097656 -24.7080802917480469
8.91388034820556641 26.4788322448730469 -20.1405849456787109
-3.16687893867492676 -12.9800920486450195 23.3256683349609375
5.81286287307739258 86.7778091430664062 -14.4159126281738281
4.49404668807983398 -88.2173919677734375 9.48369884490966797
5.37970542907714844 61.4608726501464844 -3.68579268455505371
-11.5539474487304688 -36.7206268310546875 10.4269437789916992
-11.2390546798706055 16.0096435546875 14.7241001129150391
-4.83840703964233398 86.2673110961914062 12.8704404830932617
-10.7978620529174805 -61.246612548828125 -3.18098926544189453
-11.0541162490844727 72.1048660278320312 10.9158086776733398
10.123042106628418 -69.9922637939453125 -5.47204065322875977
-7.61089420318603516 75.1547470092773438 21.9678993225097656
0.70985865592956543 -20.5747737884521484 -23.9969062805175781
5.13713169097900391 58.1861724853515625 3.24710440635681152
6.85746526718139648 62.8341064453125 20.3338890075683594
10.5713796615600586 -2.60546231269836426 -7.24793100357055664
-6.92342615127563477 -39.70947265625 21.8349876403808594
10.1157369613647461 -36.3143463134765625 -11.0399961471557617
-3.37048172950744629 -65.0001144409179688 -23.6920280456542969
0.755079925060272217 49.6619987487792969 24.8617305755615234
5.404083251953125 51.0689163208007812 -7.25795316696166992
2.11169242858886719 56.8068733215332031 25.1811256408691406
-2.779327392578125 -83.8659744262695312 -16.8244152069091797
-7.21718072891235352 -74.9172134399414062 20.6567592620849609
-10.4062728881835938 48.0787200927734375 18.7864151000976562
-9.69718170166015625 -65.9653244018554688 19.440460205078125
-11.792851448059082 -45.4524688720703125 11.6983537673950195
6.58235454559326172 26.9622097015380859 21.8693790435791016
8.70178604125976562 82.8300704956054688 -7.71153736114501953
9.92216014862060547 -31.6735324859619141 -1.71881341934204102
-7.00157785415649414 -82.4142608642578125 -13.2054586410522461
9.74764060974121094 -55.5664482116699219 1.616982102394104
8.69540119171142578 11.9606504440307617 13.5717334747314453
9.49843502044677734 -5.37996435165405273 8.18246078491210938
6.74301433563232422 -48.5483283996582031 21.5875835418701172
-11.2352294921875 -49.1118011474609375 5.12982845306396484
-10.811772346496582 19.2724742889404297 5.3241114616394043
-10.5138969421386719 -63.4809036254882812 -6.62609243392944336
7.18309974670410156 -0.656306207180023193 -24.2476787567138672
-9.53289031982421875 40.6660270690917969 -8.51347064971923828
-7.97613239288330078 -22.527801513671875 -18.4511051177978516
2.77019548416137695 77.2787704467773438 24.7604846954345703
-11.1976852416992188 10.7140951156616211 15.3661403656005859
-10.8564510345458984 1.92172932624816895 4.60831165313720703
8.52073001861572266 -80.3590469360351562 12.6236486434936523
8.15566253662109375 7.69873809814453125 14.2321500778198242
-11.3489742279052734 15.5963964462280273 12.7769813537597656
-6.61609554290771484 -60.4981880187988281 21.8018169403076172
8.11527156829833984 -81.2828216552734375 14.5884227752685547
-10.760136604309082 -76.683807373046875 -3.34082436561584473
10.177311897277832 -79.7694015502929688 -7.18883657455444336
-6.54161214828491211 26.3588333129882812 -19.6546535491943359
-6.25726127624511719 31.2460727691650391 -19.9610099792480469
-11.5539073944091797 -11.7245893478393555 11.8384847640991211
-6.59306716918945312 -32.2056617736816406 22.0995998382568359
9.16921424865722656 -28.7251758575439453 8.43675899505615234
-9.34090900421142578 65.7246780395507812 -8.82386207580566406
-10.7425355911254883 15.6293725967407227 4.35503911972045898
9.23010540008544922 -12.7117013931274414 -21.8065624237060547
9.4677734375 9.92765331268310547 -17.5298919677734375
4.72197628021240234 52.5779151916503906 8.49718761444091797
5.91919994354248047 41.6246223449707031 -0.448896020650863647
4.32791805267333984 1.55831575393676758 24.6218776702880859
3.90947508811950684 -10.6955928802490234 -24.0889835357666016
2.68114233016967773 -87.5862503051757812 -6.89490127563476562
-10.7878131866455078 54.9276275634765625 5.81837940216064453
9.91024398803710938 -82.7031097412109375 -6.33388137817382812
6.0050806999206543 58.1241073608398438 23.4708538055419922
-9.87529659271240234 30.8687572479248047 19.6370315551757812
-4.05035781860351562 -54.8083000183105469 -23.2649765014648438
9.16086387634277344 49.4701004028320312 -17.2225322723388672
-10.2317638397216797 17.3367748260498047 -1.02064895629882812
3.95845508575439453 37.7136573791503906 25.2562427520751953
9.23565292358398438 46.5388031005859375 -15.6465654373168945
-0.240961030125617981 -84.2278823852539062 -17.7909984588623047
9.42261314392089844 -83.3225936889648438 -17.7598476409912109
5.83978462219238281 75.6714859008789062 23.0442771911621094
-11.9143075942993164 -60.8569602966308594 13.63311767578125
9.36834430694580078 -32.5651702880859375 -21.9841232299804688
-4.68333053588867188 86.364410400390625 12.7315797805786133
8.32559776306152344 35.6667556762695312 10.0910272598266602
10.1022005081176758 -76.2666244506835938 -17.5372943878173828
9.17685031890869141 52.9900894165039062 -14.2456836700439453
8.84893608093261719 65.4714279174804688 -18.6366062164306641
7.12801837921142578 49.72650146484375 18.4486312866210938
5.92744922637939453 72.6638641357421875 -22.6318340301513672
9.43759918212890625 -15.1511135101318359 8.86607074737548828
10.0215272903442383 -29.8153915405273438 -14.6616935729980469
8.11979007720947266 79.1832351684570312 9.19307327270507812
6.99568796157836914 2.58118438720703125 20.9510993957519531
9.6688232421875 -80.6277313232421875 2.50917172431945801
-9.56671237945556641 1.70956242084503174 -9.48247241973876953
9.90417385101318359 -34.4112319946289062 -1.43034005165100098
5.27691793441772461 86.0516738891601562 16.4298000335693359
6.20662117004394531 -7.62835597991943359 -24.4285259246826172
-8.67649269104003906 18.1847209930419922 20.9164066314697266
8.05977058410644531 27.1199417114257812 16.4208316802978516
-10.5291252136230469 54.5530166625976562 3.07990193367004395
-10.1560506820678711 -34.1359024047851562 -4.52555370330810547
7.67673254013061523 -61.2217788696289062 18.0754280090332031
-4.67505884170532227 38.5780372619628906 -21.2799720764160156
5.52664756774902344 70.7678451538085938 -5.05157470703125
-11.2620811462402344 -64.7750930786132812 16.8352890014648438
-9.68651676177978516 75.6586074829101562 -4.08181476593017578
-11.2137928009033203 60.8922233581542969 11.4145307540893555
-7.93500089645385742 -80.7878189086914062 -14.2967796325683594
8.36410236358642578 -5.58729743957519531 15.7862138748168945
-10.5227441787719727 29.8271713256835938 18.292816162109375
5.41797304153442383 43.284912109375 -6.76354026794433594
-11.5185451507568359 -37.0510826110839844 9.98724651336669922
-9.92399692535400391 14.8065671920776367 19.2085227966308594
-9.11079502105712891 77.1414718627929688 -8.99241447448730469
-9.51218986511230469 -81.9698562622070312 2.2427678108215332
-4.53053808212280273 1.11449134349822998 -21.941986083984375
-11.9053068161010742 -57.6455879211425781 13.5134449005126953
10.7265214920043945 -21.4612388610839844 -11.8278312683105469
-11.5246858596801758 -77.5989151000976562 6.97623586654663086
-8.83714199066162109 -77.6877288818359375 -15.770625114440918
-10.4920969009399414 43.0053443908691406 2.21518540382385254
-5.26648902893066406 86.0568771362304688 -1.60933828353881836
10.388178825378418 -21.26715087890625 -2.33751463890075684
-6.72834682464599609 -27.0728683471679688 -20.5889167785644531
3.82069659233093262 -14.4017934799194336 24.3893203735351562
9.53076362609863281 -33.3652000427246094 4.15225601196289062
6.42620944976806641 18.2727317810058594 22.6282215118408203
-10.430109977722168 16.9034061431884766 1.13633501529693604
5.87584352493286133 -16.5818023681640625 23.5841541290283203
1.00101900100708008 66.6268997192382812 25.0812816619873047
-9.79079914093017578 68.5315475463867188 20.0640048980712891
9.33253860473632812 -68.0629425048828125 6.42360448837280273
-11.0250873565673828 17.8932533264160156 7.59997701644897461
8.2145233154296875 -36.85968017578125 -24.6409492492675781
5.33868980407714844 63.674957275390625 -22.9404239654541016
-6.76462411880493164 -30.3718414306640625 -20.6070652008056641
9.62103080749511719 -7.89947891235351562 -18.7722492218017578
8.568450927734375 -52.1076202392578125 -24.5238418579101562
-3.07263803482055664 0.917559623718261719 23.5439929962158203
-3.06892561912536621 -51.9958305358886719 22.72027587890625
4.22300910949707031 29.6814289093017578 24.989044189453125
9.04521560668945312 -1.37581503391265869 -21.5740261077880859
-4.89718818664550781 -51.9851722717285156 -22.7053718566894531
-9.81507778167724609 51.8720321655273438 -4.92702198028564453
5.38550281524658203 63.0955085754394531 -3.76902651786804199
10.1333694458007812 -43.7875175476074219 -8.49475860595703125
5.32794713973999023 88.35089111328125 -7.57583475112915039
9.40956211090087891 21.5914211273193359 -1.87549948692321777
0.506383061408996582 51.0376014709472656 -22.8228721618652344
-9.56812095642089844 -32.9457473754882812 -10.9320802688598633
6.25047683715820312 80.4659347534179688 20.350067138671875
0.392945766448974609 58.3858566284179688 -22.6981773376464844
9.16851425170898438 -37.1800346374511719 7.85297441482543945
8.99323844909667969 70.831207275390625 -15.1591691970825195
-6.31322956085205078 2.74832510948181152 22.5398731231689453
4.88165426254272461 52.3369674682617188 16.3452720642089844
-11.2420845031738281 2.41101241111755371 15.3617639541625977
1.53623974323272705 -36.6585655212402344 -24.2725849151611328
-11.1861858367919922 -72.0895233154296875 -0.431875377893447876
9.53997230529785156 -16.1165180206298828 3.88546061515808105
9.52283573150634766 -75.1911468505859375 4.77743101119995117
-7.37218189239501953 -60.7206344604492188 -20.5975685119628906
-11.0742311477661133 28.9164180755615234 7.83260822296142578
-10.0862693786621094 -10.1585445404052734 -4.71880340576171875
-8.40190887451171875 -83.62042236328125 7.29113578796386719
-8.160736083984375 15.6905202865600586 21.4340248107910156
10.2286357879638672 12.7404308319091797 -11.2877120971679688
-10.6871194839477539 17.9235115051269531 17.5484390258789062
-0.339414685964584351 -0.584075212478637695 23.9274406433105469
-11.3915548324584961 -78.463592529296875 10.8385992050170898
3.69968891143798828 17.6352996826171875 24.8882904052734375
-11.1546440124511719 5.29827976226806641 15.8500804901123047
-4.34990739822387695 86.7022781372070312 -0.22428421676158905
0.643574118614196777 40.1399269104003906 -23.0079364776611328
-8.28599166870117188 61.6344757080078125 -15.5906991958618164
-10.5141830444335938 11.7594137191772461 1.72306299209594727
10.0006008148193359 -37.7581024169921875 -3.52441692352294922
8.22973442077636719 -67.6704635620117188 14.9669666290283203
7.27713680267333984 -7.717864990234375 20.0957412719726562
-3.76106739044189453 -68.3734588623046875 -23.5838165283203125
6.02985048294067383 79.6642608642578125 21.3207454681396484
5.79554319381713867 49.0728416442871094 -12.4384574890136719
8.99252796173095703 -10.2467746734619141 -22.3868427276611328
-10.9133291244506836 -37.86419677734375 2.59819555282592773
6.07306909561157227 9.03124618530273438 -24.1188526153564453
9.61834049224853516 -2.06736660003662109 -17.5488147735595703
-0.923367202281951904 -41.7292518615722656 23.2787342071533203
8.44538021087646484 -62.4853935241699219 -24.9876003265380859
9.19455146789550781 11.6497316360473633 -19.9626350402832031
-11.3156137466430664 21.5483932495117188 12.771336555480957
-9.95706748962402344 -27.7596530914306641 -6.001495361328125
-4.56264400482177734 69.7314910888671875 23.9674224853515625
-9.13169670104980469 -39.4836845397949219 -15.7185697555541992
7.85344648361206055 68.7139358520507812 -21.7474880218505859
7.44435548782348633 86.48541259765625 -5.42691421508789062
-6.99591588973999023 11.4620189666748047 -19.3480262756347656
-10.4885282516479492 -69.4712295532226562 -7.89205551147460938
7.21091651916503906 51.68914794921875 18.0334815979003906
2.95917439460754395 70.8315582275390625 -22.57366943359375
6.8928837776184082 71.9778900146484375 10.5150508880615234
9.90123939514160156 -29.4424686431884766 -17.4736557006835938
-11.374180793762207 -28.3005847930908203 9.59979057312011719
-4.39592313766479492 86.7416152954101562 1.52436196804046631
6.24266767501831055 18.4878501892089844 22.9949245452880859
8.94434928894042969 16.9918861389160156 6.55253410339355469
9.00534248352050781 -64.8292007446289062 -24.2703952789306641
-4.61070728302001953 20.3817119598388672 -21.5126762390136719
7.95324563980102539 -76.1639556884765625 16.3720035552978516
-4.26749324798583984 74.1907119750976562 -20.6586933135986328
-5.19109869003295898 -61.7752952575683594 22.2327976226806641
8.35959815979003906 72.5714340209960938 -7.97900104522705078
-0.331390142440795898 23.1445999145507812 -23.1954002380371094
-7.58286905288696289 12.2450504302978516 -18.2794513702392578
-7.02491188049316406 59.4114112854003906 -18.5375404357910156
5.04523897171020508 86.7037277221679688 -14.8503398895263672
8.63236236572265625 -82.8086013793945312 10.5240440368652344
6.86443901062011719 34.8947792053222656 20.554595947265625
8.96070384979248047 -17.5774765014648438 -22.7826042175292969
-9.48125267028808594 58.7049751281738281 -8.04549694061279297
1.85261476039886475 11.7670211791992188 -23.4680805206298828
-8.67283725738525391 53.8042182922363281 -14.3565025329589844
-3.30212855339050293 -57.7574081420898438 22.7224159240722656
-2.63528227806091309 87.5633087158203125 9.24853515625
-11.5560846328735352 -33.7022590637207031 14.9486703872680664
8.4319000244140625 -24.7124671936035156 14.1238994598388672
0.7930641770362854 -66.5623855590820312 -24.6421146392822266
-2.39127588272094727 -85.9789657592773438 -9.84023094177246094
-11.0333271026611328 21.9744815826416016 16.0912208557128906
9.04150485992431641 76.5174942016601562 -7.53525304794311523
-11.6677389144897461 -65.4467315673828125 5.67669773101806641
7.76245594024658203 34.0597877502441406 14.7092037200927734
-0.056217927485704422 85.6533660888671875 18.4983272552490234
-11.2372913360595703 -59.3035545349121094 2.0906226634979248
5.63545942306518555 -79.9139633178710938 21.3983497619628906
7.65242528915405273 41.5746803283691406 11.5232267379760742
2.02595877647399902 18.8073616027832031 -23.4813385009765625
-7.0425257682800293 46.4821624755859375 22.6907539367675781
10.6253681182861328 -13.2403249740600586 -10.9104394912719727
2.73663115501403809 25.2006130218505859 25.0147819519042969
9.80349922180175781 4.57350015640258789 2.41981387138366699
4.8367462158203125 87.34228515625 13.7442998886108398
-9.55726146697998047 -56.542724609375 -14.6014890670776367
-2.20509839057922363 87.6064224243164062 -3.38318085670471191
9.20536613464355469 39.93310546875 -16.3072299957275391
5.94565820693969727 79.8504257202148438 21.4406528472900391
8.02400302886962891 -50.73211669921875 16.2890033721923828
6.99133729934692383 60.8237838745117188 19.5755481719970703
9.70555210113525391 10.3087148666381836 -14.2067031860351562
3.41447186470031738 68.6564102172851562 -22.6332721710205078
-9.77324867248535156 -17.8591156005859375 -9.07762813568115234
6.05723333358764648 41.5812530517578125 -2.71803188323974609
-10.7076597213745117 28.1567306518554688 3.94539427757263184
9.64811992645263672 11.8078098297119141 -5.94467973709106445
-10.8382444381713867 -75.36322021484375 -3.76862835884094238
-4.29031181335449219 -13.270472526550293 23.0635337829589844
-5.68322992324829102 50.7663841247558594 23.3668308258056641
-8.42552661895751953 34.7192916870117188 21.3990592956542969
7.5602264404296875 -6.30295181274414062 18.7547245025634766
-4.8530726432800293 54.2179603576660156 -20.9163913726806641
7.96387529373168945 52.3768043518066406 -22.2904644012451172
9.94618415832519531 -16.20111083984375 -3.13423323631286621
8.82382392883300781 72.2218780517578125 -17.7983303070068359
3.66210126876831055 8.30258750915527344 24.8337860107421875
8.60735988616943359 21.2069301605224609 9.10077476501464844
8.24322128295898438 -2.41351103782653809 -23.6520061492919922
-10.3394870758056641 35.25927734375 -0.377273827791213989
-7.65381669998168945 0.979768872261047363 21.7591552734375
9.04214000701904297 14.5697002410888672 9.22656631469726562
-9.56069374084472656 -32.9489250183105469 -11.0088062286376953
7.54213571548461914 41.5975265502929688 15.9560337066650391
-7.28644752502441406 56.1169242858886719 22.6643657684326172
5.27931976318359375 55.5303573608398438 -1.02164649963378906
5.29885721206665039 58.3746681213378906 0.130621358752250671
6.28507757186889648 -28.4402217864990234 22.8027839660644531
8.35842132568359375 -22.5958423614501953 15.0302820205688477
-11.1988506317138672 67.4395599365234375 14.5885438919067383
-10.2015190124511719 76.4374313354492188 1.97040474414825439
8.2067718505859375 64.966552734375 -13.546961784362793
9.71674346923828125 -61.9662399291992188 2.64005589485168457
-11.1864070892333984 38.4043655395507812 15.618372917175293
-7.15508222579956055 54.7730979919433594 22.7385215759277344
-7.43581914901733398 -12.6388988494873047 -19.2195987701416016
-11.3234014511108398 -12.0636739730834961 15.4778575897216797
9.29804420471191406 36.6037101745605469 -11.1854476928710938
8.95160579681396484 -37.5528068542480469 9.84232425689697266
10.0585880279541016 -28.9616565704345703 -0.216792955994606018
-8.05076408386230469 42.1897163391113281 21.8819084167480469
-8.83507728576660156 31.5042552947998047 21.0031318664550781
0.567718923091888428 -86.9403610229492188 -7.37195253372192383
7.85541439056396484 10.9727058410644531 16.6490364074707031
-10.8282499313354492 -18.0585880279541016 17.4455223083496094
4.81488466262817383 47.838531494140625 -23.1511802673339844
7.39426279067993164 -2.05464553833007812 19.3296546936035156
-9.09844779968261719 40.0680999755859375 -12.4267053604125977
7.78532314300537109 -40.8717575073242188 17.6459197998046875
6.26561355590820312 51.7721366882324219 16.5736885070800781
-11.9289617538452148 -65.0770492553710938 13.9661197662353516
-8.62868022918701172 -18.7002658843994141 20.7800579071044922
-11.1842880249023438 43.6097145080566406 9.76604747772216797
1.38180923461914062 19.0054264068603516 -23.4361019134521484
-9.81302261352539062 -48.8168144226074219 -10.396331787109375
7.17761373519897461 -23.9121837615966797 20.7214756011962891
4.86716365814208984 65.3011550903320312 6.91095113754272461
9.43470859527587891 -84.4378433227539062 -14.0893173217773438
9.02013874053955078 -41.0591773986816406 9.35276699066162109
9.26170158386230469 -27.1376132965087891 -22.2409877777099609
10.1462421417236328 -49.4998245239257812 -11.8192787170410156
5.30293750762939453 11.0320672988891602 -23.9334831237792969
-2.62598466873168945 82.0645675659179688 -18.6282787322998047
9.66101169586181641 4.25429534912109375 -15.0628280639648438
-9.28648471832275391 -48.8159141540527344 -15.4816503524780273
10.1648092269897461 -77.1434402465820312 -5.23473405838012695
6.9882359504699707 12.0589237213134766 20.7189006805419922
5.71479272842407227 43.8815994262695312 -10.3282241821289062
0.308920592069625854 82.311187744140625 22.1546497344970703
10.1203145980834961 -37.7877998352050781 -10.9871206283569336
6.53268003463745117 -2.51713371276855469 22.4325084686279297
9.03448486328125 20.0987453460693359 4.64079093933105469
-10.9660758972167969 26.3048744201660156 7.44740915298461914
5.24684906005859375 63.2662773132324219 1.32510232925415039
8.07953262329101562 52.1530303955078125 -22.02655029296875
-2.0533299446105957 26.0533695220947266 24.0935993194580078
6.92072963714599609 7.6642918586730957 21.0931777954101562
8.95376873016357422 -13.7870693206787109 14.6129741668701172
8.24824428558349609 31.8127803802490234 -22.2586402893066406
-11.4447031021118164 -8.26876640319824219 14.3564386367797852
8.55613613128662109 72.1048965454101562 -19.5451507568359375
-7.02581644058227539 24.5781078338623047 22.3598461151123047
4.83030366897583008 29.3258495330810547 -23.5755195617675781
8.96749019622802734 -36.4029121398925781 9.80321788787841797
5.70325469970703125 72.1190414428710938 6.91065120697021484
5.16557025909423828 67.584716796875 0.938995122909545898
-8.64143753051757812 54.5034103393554688 21.5144691467285156
8.80482006072998047 -33.3357810974121094 11.0223064422607422
10.1476850509643555 -43.803436279296875 -9.62040233612060547
3.77896904945373535 -41.7133712768554688 -24.5150985717773438
-10.822810173034668 77.29278564453125 13.8495883941650391
6.83588790893554688 86.9592208862304688 -1.21772730350494385
9.41481876373291016 -84.5988311767578125 -5.28673839569091797
-2.14265966415405273 26.4974460601806641 24.0898284912109375
-2.55791378021240234 77.19976806640625 -20.9202613830566406
-8.85220718383789062 -19.0668926239013672 -15.7703866958618164
6.34169483184814453 -54.4256134033203125 22.3291835784912109
-9.87071895599365234 69.0923385620117188 -3.01977825164794922
-4.34077692031860352 -78.7598037719726562 20.59417724609375
-9.62458133697509766 75.915374755859375 -4.63664770126342773
10.7082347869873047 -15.4076347351074219 -13.6121931076049805
-0.0707552284002304077 24.5346469879150391 -23.1934680938720703
-9.10792446136474609 -69.0906906127929688 -17.3648643493652344
-7.12492036819458008 77.0597076416015625 -16.9226799011230469
9.91692924499511719 -81.3523025512695312 -1.84920668601989746
7.97639179229736328 41.708831787109375 5.53463363647460938
-6.22130346298217773 -57.0589561462402344 22.0542926788330078
10.0554571151733398 -20.4915618896484375 1.29181754589080811
-11.3258028030395508 18.5317039489746094 13.2058792114257812
-2.22087001800537109 30.03106689453125 -22.5938148498535156
-11.3230094909667969 20.4410438537597656 12.7892818450927734
-8.9906005859375 -37.4933662414550781 -16.2729015350341797
-7.51867818832397461 13.6604862213134766 -18.4506607055664062
-12.0551328659057617 -68.1261672973632812 12.5761003494262695
9.45543861389160156 22.4008159637451172 -4.17015409469604492
-10.7641878128051758 23.3023700714111328 4.95995283126831055
-9.55757713317871094 53.6584625244140625 -7.76961708068847656
5.70297908782958984 8.65485668182373047 -24.0622615814208984
0.0538228228688240051 56.0565414428710938 -22.698272705078125
-8.36536884307861328 -2.42668366432189941 -16.7638740539550781
8.69451999664306641 -80.8721084594726562 11.4299421310424805
-9.75439262390136719 15.1998577117919922 19.4876804351806641
-7.69030475616455078 -47.5480232238769531 -19.8307151794433594
10.2245912551879883 -70.7608718872070312 -11.4908933639526367
9.62486362457275391 -20.8844413757324219 -20.1408023834228516
-10.20269775390625 48.8855209350585938 -0.844605624675750732
4.28389310836791992 -31.4774703979492188 -24.4858970642089844
-3.79714560508728027 77.5734481811523438 23.5713768005371094
5.90975761413574219 65.8402099609375 -12.1557865142822266
-8.99551963806152344 -28.7096004486083984 -15.6788606643676758
-10.883056640625 -32.898406982421875 3.32148003578186035
8.8214569091796875 17.5699996948242188 10.4366121292114258
2.07630014419555664 15.31170654296875 -23.4953536987304688
-9.80793666839599609 9.93364334106445312 -6.15714693069458008
-10.7334833145141602 -73.9845199584960938 -5.39566707611083984
9.87506675720214844 -46.3952484130859375 -19.0395851135253906
7.28296279907226562 22.1017246246337891 18.7586269378662109
-11.2303352355957031 -71.6028289794921875 0.106617651879787445
-0.194436356425285339 43.8230857849121094 -22.9187183380126953
0.514161527156829834 58.5623359680175781 24.9229011535644531
-11.3863945007324219 8.6488494873046875 11.7949047088623047
-6.49726390838623047 71.7562408447265625 -18.7980499267578125
-3.72220778465270996 46.19775390625 -21.7270832061767578
-9.43560123443603516 10.2776079177856445 -10.2228927612304688
9.76341629028320312 -63.2781181335449219 1.9083716869354248
-6.73770570755004883 43.138519287109375 -19.2768917083740234
4.76953458786010742 43.5911407470703125 -23.3439140319824219
-5.74903106689453125 28.602813720703125 -20.504241943359375
4.27867794036865234 -38.5336380004882812 -24.5984611511230469
-10.1539793014526367 6.49242401123046875 -2.67645478248596191
-10.4840669631958008 9.76175117492675781 1.24396359920501709
4.34479904174804688 -86.7069015502929688 -15.2807722091674805
-9.51521778106689453 -1.45742595195770264 -10.2794351577758789
5.07190942764282227 88.4190750122070312 -7.11829757690429688
5.10271406173706055 52.6320419311523438 2.69237875938415527
-6.69977378845214844 -8.24570369720458984 -20.1766109466552734
3.3391425609588623 -74.6630477905273438 -24.568878173828125
0.115420475602149963 77.7511138916015625 24.0648021697998047
-11.46685791015625 -35.7488441467285156 9.70052814483642578
10.6654767990112305 -13.7577981948852539 -11.0651960372924805
-11.1915798187255859 68.9625473022460938 14.1105613708496094
9.91154384613037109 -66.6364898681640625 -0.582042932510375977
-9.34986114501953125 51.3485336303710938 20.6547431945800781
-8.09593963623046875 -30.4072208404541016 -18.4954929351806641
7.14624738693237305 77.0364151000976562 17.0366439819335938
9.52608871459960938 -12.7326278686523438 0.37393265962600708
5.59925746917724609 -26.4258842468261719 23.6371402740478516
-10.8339681625366211 75.6201095581054688 8.94320583343505859
5.31484174728393555 87.9117355346679688 -10.9630279541015625
9.80438518524169922 17.2536067962646484 0.704676508903503418
-4.44418716430664062 -50.2470207214355469 22.5267219543457031
5.75988149642944336 -15.1626682281494141 23.6428756713867188
4.68370485305786133 57.3876228332519531 11.0753469467163086
8.84510421752929688 76.0405426025390625 -15.8519392013549805
-10.4648113250732422 48.029205322265625 2.13588571548461914
-1.57501351833343506 -83.8864364624023438 -3.62294483184814453
-11.1702547073364258 -39.8855628967285156 5.71286439895629883
4.86069059371948242 65.8499755859375 15.9939031600952148
8.02235221862792969 14.732295036315918 16.6755580902099609
-9.28600120544433594 23.4267482757568359 -11.1354494094848633
1.34306681156158447 7.99349069595336914 24.4414749145507812
9.58059883117675781 -31.0413684844970703 3.63680815696716309
-10.9230718612670898 45.9171524047851562 6.94952630996704102
8.97626495361328125 77.3836669921875 -11.9658308029174805
10.073237419128418 -49.2928428649902344 -15.2086238861083984
-8.81985855102539062 -73.2441177368164062 -17.8422031402587891
8.83697319030761719 -57.420074462890625 10.7898597717285156
-7.50898027420043945 -73.718048095703125 -20.2004184722900391
-10.7932243347167969 62.6179351806640625 6.45168066024780273
6.8771061897277832 -31.162261962890625 21.4007949829101562
9.60901832580566406 8.76500797271728516 -15.0326271057128906
-2.55655121803283691 29.2255096435546875 23.9977397918701172
-10.4558877944946289 55.5132904052734375 2.1627194881439209
8.50278186798095703 62.2473297119140625 -20.4391269683837891
-9.90136909484863281 -59.4151268005371094 -12.6381826400756836
-11.0187473297119141 56.4234809875488281 8.50449562072753906
4.94031238555908203 87.83795166015625 9.54713249206542969
5.10309553146362305 -88.5107879638671875 7.06662130355834961
9.50335025787353516 -42.69683837890625 -21.8760204315185547
-11.3645410537719727 -49.6765975952148438 6.06860208511352539
10.0895843505859375 -36.2943878173828125 -6.89914417266845703
9.904083251953125 -80.5194168090820312 -0.929468691349029541
-1.45211756229400635 80.9784927368164062 22.7059841156005859
7.53435087203979492 -83.2723159790039062 15.5785408020019531
-8.62381076812744141 72.8510208129882812 -13.4919881820678711
5.40558242797851562 -54.2820205688476562 -25.1268844604492188
-10.4202032089233398 -71.2918243408203125 -8.90154552459716797
-9.75689411163330078 -7.58361959457397461 -8.21587085723876953
-10.3772850036621094 -24.6851730346679688 -0.51535409688949585
8.27538394927978516 9.22757244110107422 -23.0675373077392578
-10.4433345794677734 -62.4936370849609375 -7.25554513931274414
-11.3145685195922852 50.3533477783203125 13.2227621078491211
-1.30865931510925293 -1.55975282192230225 23.7763080596923828
-0.355711609125137329 33.1735649108886719 24.4970855712890625
8.24978351593017578 32.0143241882324219 -22.2503547668457031
-1.58893191814422607 -86.7568511962890625 6.44010829925537109
10.1123590469360352 -30.8316078186035156 -9.66702747344970703
5.38983583450317383 69.8500213623046875 -3.93821215629577637
7.15471887588500977 -56.2116241455078125 20.3092670440673828
9.09874343872070312 68.0390548706054688 -14.9566431045532227
-11.4327249526977539 -3.39411759376525879 14.0371217727661133
-5.34303951263427734 54.0783348083496094 23.6170883178710938
-4.50928354263305664 77.9738998413085938 23.2189044952392578
-9.57722091674804688 -39.5956153869628906 -11.5544109344482422
9.96862697601318359 -80.0001144409179688 -1.61464738845825195
9.787017822265625 -8.48920536041259766 -3.08989596366882324
10.0091686248779297 -38.1333122253417969 -15.9347190856933594
-11.0698156356811523 4.18079996109008789 7.08051156997680664
-9.66634464263916016 -71.2868118286132812 -15.0765008926391602
-1.00034451484680176 45.7026023864746094 24.3483772277832031
-11.2133073806762695 -1.09755456447601318 15.7279481887817383
-4.57620143890380859 -31.0236167907714844 -22.57574462890625
-9.76031398773193359 -14.7856998443603516 -8.84962844848632812
-10.2591285705566406 -77.2986984252929688 -7.89133644104003906
-10.515559196472168 16.6428127288818359 2.02756381034851074
-9.09330654144287109 81.462371826171875 -0.0648294016718864441
3.50097155570983887 6.10545825958251953 -23.6765766143798828
5.34731864929199219 -56.59332275390625 23.2793388366699219
-6.28886127471923828 -85.1249008178710938 8.53880500793457031
5.38553285598754883 27.9108600616455078 24.2990531921386719
0.240391910076141357 88.2590484619140625 5.95731782913208008
-4.65428066253662109 -13.8995208740234375 -22.1759986877441406
-10.5150375366210938 -12.0407733917236328 -0.18516857922077179
10.0995559692382812 -50.4104270935058594 -6.09183979034423828
-7.56568002700805664 71.7209930419921875 -17.0666103363037109
3.2396399974822998 -18.7251110076904297 24.2468719482421875
9.01859474182128906 44.8887519836425781 -18.9246006011962891
6.90176868438720703 -41.6157417297363281 21.3139667510986328
-2.85197949409484863 -0.815961003303527832 23.5217742919921875
-5.38961553573608398 -19.9408931732177734 -21.7431716918945312
-4.54961442947387695 -20.6491222381591797 22.9463615417480469
-1.75408804416656494 -86.166900634765625 -9.81048583984375
-10.1005468368530273 -68.7545394897460938 -11.9118432998657227
-10.506749153137207 -57.880828857421875 -5.22925376892089844
9.93262767791748047 -54.1566238403320312 -1.10947334766387939
4.67291975021362305 -25.8325939178466797 -24.5307884216308594
6.99675559997558594 -87.9954376220703125 0.470989614725112915
3.5415804386138916 7.57300329208374023 -23.7155323028564453
9.83828639984130859 -46.3094978332519531 0.149813711643218994
8.17273330688476562 -71.8351974487304688 15.4003210067749023
-5.72335910797119141 69.0545730590820312 -19.8580799102783203
-1.69744288921356201 17.6070652008056641 -22.9572105407714844
-11.5734519958496094 -44.6761512756347656 15.4523820877075195
-10.5063266754150391 73.602203369140625 4.51538181304931641
-9.20500278472900391 51.3187789916992188 20.8399085998535156
-2.90016841888427734 -49.9958000183105469 -23.6430377960205078
7.10138845443725586 -2.50577187538146973 20.6764488220214844
6.93227863311767578 43.7113609313964844 20.2987899780273438
-10.888580322265625 56.729644775390625 17.2874832153320312
2.73813438415527344 -55.6833915710449219 -24.6597404479980469
10.0671825408935547 -56.0152091979980469 -4.11939620971679688
-10.6214561462402344 -43.3438873291015625 -0.574743926525115967
5.31706428527832031 -53.8819847106933594 -25.1320247650146484
-10.4743204116821289 59.1202125549316406 2.66144680976867676
-10.5239620208740234 -79.6394729614257812 1.16224956512451172
7.80123758316040039 8.67457485198974609 -23.784576416015625
-10.8250675201416016 58.3787651062011719 6.46798467636108398
9.68305015563964844 29.3665657043457031 1.61223971843719482
9.61890888214111328 -13.412755012512207 -19.4256515502929688
-10.7912473678588867 10.7722444534301758 4.54173660278320312
1.30537104606628418 -14.3347110748291016 -23.8657302856445312
9.96391582489013672 -60.1665992736816406 -18.7332248687744141
8.43512630462646484 84.1958770751953125 -6.61902809143066406
9.5625762939453125 -12.717137336730957 -0.223795056343078613
-1.66903460025787354 -85.5362319946289062 -13.9582176208496094
-10.7276430130004883 32.0639686584472656 3.40069079399108887
4.80185651779174805 -88.3178176879882812 -5.72590398788452148
6.66594982147216797 -60.3443222045898438 21.5692520141601562
6.92029619216918945 87.2474746704101562 -7.88950061798095703
-7.59262275695800781 83.699493408203125 -3.79962730407714844
-10.3846883773803711 -6.96095895767211914 18.4087734222412109
-1.0101318359375 -33.6498146057128906 -23.9979991912841797
-9.70613670349121094 64.7128372192382812 -5.16671323776245117
-10.3617334365844727 28.059814453125 0.415599286556243896
9.51981067657470703 -34.2099952697753906 4.32094478607177734
7.67841720581054688 72.943023681640625 12.0364170074462891
-10.3780174255371094 -2.50573205947875977 -0.869516372680664062
2.21637892723083496 64.3754806518554688 25.4093227386474609
-11.2944879531860352 22.1015796661376953 11.6651554107666016
5.81260299682617188 47.7273979187011719 -12.4608249664306641
-0.427393078804016113 -62.2348747253417969 -24.5500755310058594
5.05640506744384766 -37.9277191162109375 -24.8021068572998047
-10.3703479766845703 -14.8314733505249023 -2.12612628936767578
9.990234375 -37.8083419799804688 -3.14826774597167969
6.66089487075805664 77.7296981811523438 19.7222537994384766
-10.7584981918334961 76.5224380493164062 8.59713840484619141
-1.48553156852722168 -0.796711504459381104 23.772674560546875
-10.2534523010253906 -51.2957191467285156 -5.98343420028686523
8.64142894744873047 82.8436050415039062 -10.6775808334350586
8.80727577209472656 24.7805595397949219 9.6475830078125
9.7980804443359375 -19.073974609375 -18.0880508422851562
10.0994205474853516 -32.1368370056152344 -7.36306571960449219
5.11923980712890625 88.173583984375 -9.95149707794189453
3.24640727043151855 -14.6723804473876953 24.3372402191162109
10.4680643081665039 -27.3790702819824219 -4.85683202743530273
-9.63166141510009766 -49.9045906066894531 -12.2173995971679688
10.2029867172241211 -66.5968780517578125 -12.402348518371582
-9.97460842132568359 4.60138893127441406 -4.68614578247070312
-11.4248161315917969 -5.94338560104370117 14.4687957763671875
8.85673904418945312 -15.5793743133544922 14.865534782409668
9.73403453826904297 -71.039276123046875 2.09648871421813965
6.72973823547363281 63.6111946105957031 21.0755481719970703
9.20961475372314453 42.7893295288085938 -16.5838394165039062
-3.2775425910949707 41.95050048828125 23.9977855682373047
0.322427064180374146 86.1968231201171875 -15.0568885803222656
-11.496190071105957 -34.2922515869140625 10.0230226516723633
6.40569448471069336 66.5865936279296875 -13.5170726776123047
-9.41647529602050781 -34.762786865234375 -12.8824443817138672
-11.223231315612793 -62.5096282958984375 16.8935070037841797
-9.37831878662109375 -25.4958744049072266 -12.0376157760620117
5.13933753967285156 -25.6549644470214844 23.9039802551269531
6.61467504501342773 84.2750701904296875 15.1250953674316406
9.21679306030273438 -15.7731485366821289 13.4489984512329102
9.36118412017822266 -30.8294486999511719 6.16953611373901367
8.81883621215820312 -38.6144638061523438 -23.74932861328125
-1.86700952053070068 87.7294158935546875 9.49201202392578125
-7.79235219955444336 0.162494421005249023 -18.1750507354736328
1.31894218921661377 -87.151641845703125 -6.22630119323730469
-9.49315738677978516 -28.432708740234375 -11.0473213195800781
-11.2220621109008789 62.1471672058105469 14.5830650329589844
0.235148876905441284 -84.07940673828125 -18.2348289489746094
7.10579013824462891 72.4235076904296875 -4.53123044967651367
-11.5102777481079102 -74.68450927734375 3.39237093925476074
-6.91465997695922852 64.8538131713867188 -18.5120773315429688
10.0879707336425781 -36.3022842407226562 -6.8002772331237793
8.50036716461181641 31.9049663543701172 9.28943157196044922
5.51076173782348633 54.25537109375 -7.88862085342407227
6.95857858657836914 63.9553985595703125 17.8614406585693359
9.36416244506835938 1.63762843608856201 -19.9141750335693359
9.35329914093017578 -84.8771133422851562 -12.5595369338989258
-10.9504718780517578 37.1789398193359375 6.65626287460327148
-0.624362826347351074 48.6579475402832031 -22.7457866668701172
10.0560703277587891 16.5518054962158203 -9.29682350158691406
8.90890598297119141 16.7333965301513672 -20.9665145874023438
-11.5643768310546875 -65.20281982421875 4.60307884216308594
-10.5297403335571289 56.8067779541015625 3.17495131492614746
-6.29887247085571289 -83.6616668701171875 0.144360378384590149
-4.84542369842529297 -73.5223007202148438 -22.6642837524414062
-11.0725870132446289 48.3046531677246094 8.65932941436767578
-10.4951305389404297 33.5287971496582031 0.953880250453948975
7.15858936309814453 -45.5585784912109375 20.3612422943115234
-11.469085693359375 -1.40955138206481934 12.6775436401367188
-9.84116935729980469 -13.5560665130615234 -7.81276416778564453
9.70941352844238281 7.54583454132080078 -7.06928920745849609
10.1800146102905273 -3.58846521377563477 -3.60543560981750488
6.25411748886108398 -75.5119705200195312 -25.1407356262207031
-10.9542007446289062 27.1784744262695312 16.6094646453857422
-1.40166163444519043 -30.7673320770263672 23.3326568603515625
7.5604705810546875 15.7882347106933594 -23.7136516571044922
-9.60049819946289062 42.4307022094726562 20.2270069122314453
9.78493785858154297 3.55397891998291016 -11.6656045913696289
10.8264350891113281 -21.0931930541992188 -11.1331462860107422
2.91146945953369141 -58.0618743896484375 -24.6698093414306641
-9.51574897766113281 40.6895713806152344 -8.68235588073730469
7.94516277313232422 -18.5901374816894531 17.2722187042236328
1.98677599430084229 83.8854904174804688 21.1348247528076172
-3.5233919620513916 39.6273841857910156 23.8677787780761719
0.795599758625030518 -2.51059889793395996 -23.6579265594482422
9.50540733337402344 -58.4433517456054688 4.76201772689819336
-10.4598197937011719 65.856475830078125 3.1078648567199707
5.82787847518920898 53.7652320861816406 23.7253475189208984
-5.35719919204711914 5.14563751220703125 22.9896697998046875
4.76916122436523438 59.4794883728027344 -22.9118270874023438
7.32419681549072266 72.3908233642578125 -5.18778705596923828
8.28404617309570312 -33.8804855346679688 14.7389059066772461
-8.85352706909179688 72.1536865234375 -12.339015007019043
-10.7158851623535156 -76.8741912841796875 -3.52139163017272949
-9.25942897796630859 75.7385406494140625 -8.25133037567138672
6.32938098907470703 51.0443687438964844 -13.9680967330932617
0.465729951858520508 -22.6510658264160156 -23.993560791015625
10.0590066909790039 -77.7035598754882812 -2.52533245086669922
-4.05072784423828125 -11.3271455764770508 -22.4649734497070312
-10.9119291305541992 74.3668441772460938 9.31970500946044922
0.587900340557098389 -65.1429519653320312 23.2157783508300781
8.95703506469726562 5.06611394882202148 -21.5230598449707031
-10.1421442031860352 45.4189529418945312 -1.58809900283813477
-3.4057316780090332 -67.0169296264648438 -23.7453670501708984
2.0480659008026123 41.5282783508300781 -23.0525264739990234
9.53100967407226562 19.1517677307128906 -1.63254201412200928
-11.8353042602539062 -45.5713272094726562 12.4383935928344727
6.71779918670654297 83.8777389526367188 15.2798681259155273
-11.2969684600830078 14.74127197265625 10.7900581359863281
-2.92274999618530273 -50.379608154296875 22.8900985717773438
-10.1297540664672852 -65.7335052490234375 -11.2707014083862305
-0.560928046703338623 -85.6766738891601562 -4.13453912734985352
7.63981723785400391 85.1279067993164062 3.35169768333435059
8.57464599609375 -86.3445510864257812 -12.8921918869018555
-7.08672094345092773 -70.4290847778320312 -21.0710239410400391
9.83237838745117188 3.1930854320526123 -11.0458955764770508
9.90725421905517578 -25.61749267578125 -17.0899639129638672
-8.55343818664550781 48.1631088256835938 -14.9762411117553711
-8.25338363647460938 -49.5064964294433594 -18.9019622802734375
-11.1214256286621094 -57.8946571350097656 1.63934969902038574
-11.0343189239501953 51.4070281982421875 8.38146018981933594
9.26599788665771484 41.3418846130371094 -10.2604799270629883
-0.0756218284368515015 68.7222213745117188 24.8561305999755859
0.000576022546738386154 -87.0161972045898438 9.60250282287597656
5.97319412231445312 71.0235595703125 23.3043899536132812
-10.9586362838745117 -33.0646018981933594 4.28692626953125
3.38153600692749023 -42.8957176208496094 23.8366489410400391
-12.0775651931762695 -70.8782272338867188 11.6295967102050781
5.03333282470703125 -0.938152432441711426 24.3836116790771484
8.87931060791015625 26.3601455688476562 7.00674581527709961
-4.51412343978881836 -84.888458251953125 -7.5832819938659668
-7.19728183746337891 -5.04709005355834961 21.9571418762207031
-10.3628902435302734 -67.3933029174804688 -8.97556304931640625
6.04076385498046875 -29.3456687927246094 -24.8009052276611328
2.63544964790344238 65.5358200073242188 -22.6076889038085938
8.72027492523193359 33.6425743103027344 6.09940481185913086
-7.0223240852355957 83.6502151489257812 16.6890697479248047
3.29528331756591797 -34.1690292358398438 -24.3371696472167969
-2.86255168914794922 37.4800987243652344 24.0092735290527344
9.98635292053222656 -21.1457843780517578 -15.8364877700805664
8.83374786376953125 25.3272228240966797 11.716461181640625
-10.3782615661621094 -33.7519760131835938 -2.34243512153625488
10.6658239364624023 -4.36212444305419922 -11.5725421905517578
4.71994352340698242 67.9009780883789062 9.4286346435546875
8.96121120452880859 74.310791015625 -2.72066545486450195
6.48092794418334961 -67.1564254760742188 21.840606689453125
-2.36836957931518555 -1.52694880962371826 23.5841941833496094
8.13631153106689453 -3.99355173110961914 16.0825614929199219
-2.63989782333374023 -5.04310178756713867 23.4211196899414062
8.19343852996826172 78.40899658203125 -19.1788501739501953
5.44580316543579102 56.4868659973144531 -6.87933444976806641
9.65410423278808594 0.867225527763366699 -16.3326683044433594
-4.62899875640869141 0.836364567279815674 -21.9028472900390625
5.2577214241027832 56.4103584289550781 0.739374339580535889
9.96191692352294922 -55.4129524230957031 -1.60720241069793701
4.75547218322753906 -88.4444351196289062 -4.47640848159790039
4.04811382293701172 -24.7814502716064453 24.1495285034179688
9.57390117645263672 -72.6746139526367188 4.15886068344116211
4.90860128402709961 62.6558685302734375 6.31395053863525391
6.44903421401977539 49.7375411987304688 22.3462257385253906
-9.47697067260742188 -13.721527099609375 19.8787860870361328
4.70748996734619141 58.2773208618164062 10.9840364456176758
-6.81310892105102539 61.3116645812988281 23.0363674163818359
-1.04256033897399902 -1.77174615859985352 23.8027572631835938
5.24055910110473633 42.091583251953125 1.06670892238616943
-9.70472145080566406 -3.99521613121032715 -8.507293701171875
