ply
format ascii 1.0
element vertex 781
comment vertices
property float x
property float y
property float z
end_header
-37.8098716735839844 -16.8784027099609375 3.77001500129699707
10.0678396224975586 -21.3394451141357422 -29.8243923187255859
19.1825218200683594 -6.53277444839477539 31.5219135284423828
-9.72195148468017578 34.0296249389648438 12.2462587356567383
-20.7532176971435547 31.7729721069335938 -4.82449483871459961
-19.9131488800048828 18.6150264739990234 -27.6650257110595703
-24.2301158905029297 29.6405105590820312 -4.93833160400390625
16.2100715637207031 23.0497169494628906 -22.2745075225830078
3.78217148780822754 15.839838981628418 33.9972038269042969
17.1047077178955078 16.7794113159179688 27.7633914947509766
19.233001708984375 -3.28189253807067871 -31.0922355651855469
20.674285888671875 -24.8155918121337891 19.9431800842285156
-24.6136322021484375 -27.5988006591796875 17.7161006927490234
31.455902099609375 -11.3192214965820312 15.3317546844482422
-22.5746040344238281 -34.3346672058105469 1.52572512626647949
-36.8955230712890625 -19.1629199981689453 0.531583547592163086
-38.9908065795898438 -6.29509925842285156 -12.4078464508056641
6.52766275405883789 26.2764701843261719 -24.5098934173583984
16.2985134124755859 -32.0196075439453125 13.9599704742431641
-2.58546090126037598 22.7917346954345703 -29.4139575958251953
13.2953033447265625 33.4116172790527344 0.971564531326293945
-36.7252426147460938 -8.73135471343994141 -16.8781242370605469
-21.3942947387695312 20.813507080078125 24.623687744140625
-15.9610376358032227 3.52208948135375977 -35.6756401062011719
-18.7835502624511719 -20.3740901947021484 29.2067661285400391
-34.25872802734375 -23.0465869903564453 3.22621297836303711
19.4655742645263672 -29.4992904663085938 14.4216623306274414
-4.40931606292724609 8.0078887939453125 37.0629310607910156
-0.316248804330825806 11.4679346084594727 36.3587150573730469
21.8799953460693359 -2.62943172454833984 29.8974170684814453
-4.99179983139038086 9.16423702239990234 36.6960830688476562
-27.1460685729980469 24.4276523590087891 -13.6775178909301758
12.2292146682739258 -17.7804412841796875 -30.8700618743896484
-6.01242351531982422 8.60495376586914062 -36.8455848693847656
-9.58153438568115234 0.273563742637634277 -37.7731361389160156
-6.79077577590942383 -18.1122283935546875 -34.4526939392089844
-11.8705320358276367 21.0383396148681641 29.4595623016357422
-18.7269458770751953 24.3067588806152344 -23.2513980865478516
-4.71753120422363281 30.0544281005859375 -21.4954109191894531
-39.6826286315917969 0.756234407424926758 9.871002197265625
11.7759675979614258 24.6779804229736328 -23.6732902526855469
35.7852935791015625 -3.63634896278381348 4.36332893371582031
-14.8902177810668945 1.72298717498779297 -36.2488784790039062
23.4134197235107422 -21.5374908447265625 -19.5288753509521484
-2.5029761791229248 21.9262905120849609 30.4063282012939453
12.1117744445800781 31.5974884033203125 13.1014690399169922
-0.0391797535121440887 -38.478729248046875 -9.76360416412353516
-12.8487262725830078 34.0304679870605469 -9.87214851379394531
25.6598682403564453 11.4175844192504883 -22.0756397247314453
15.971226692199707 -33.953521728515625 8.935394287109375
7.15598058700561523 34.4065170288085938 -8.62973976135253906
-13.6429376602172852 29.8350391387939453 18.7917900085449219
-19.0084037780761719 23.1006507873535156 -24.3325576782226562
-32.0442276000976562 -25.3798179626464844 -7.10943841934204102
-20.7736072540283203 32.0246086120605469 3.07433581352233887
-23.1799659729003906 -8.93977928161621094 -31.7978324890136719
33.4962310791015625 -13.0979671478271484 -6.71243715286254883
2.97247529029846191 2.94570302963256836 38.0315780639648438
-40.4914970397949219 -7.62586641311645508 -4.42908525466918945
-2.64489102363586426 -39.0478591918945312 -7.40070819854736328
-4.85423612594604492 -10.7822933197021484 37.5370101928710938
-1.73402392864227295 -34.4571571350097656 -19.3449115753173828
-17.6367855072021484 7.37022066116333008 34.0047760009765625
26.2638568878173828 5.70768451690673828 24.7292804718017578
-18.6997108459472656 32.5594711303710938 -6.11371994018554688
5.69599151611328125 -37.1506690979003906 12.0626754760742188
-9.28388023376464844 36.0030860900878906 2.83880233764648438
-36.58245849609375 -0.314889013767242432 -18.0790309906005859
-35.3883132934570312 -21.0349273681640625 4.65260887145996094
7.41728067398071289 18.8992233276367188 -30.5014209747314453
25.7595367431640625 21.5398845672607422 -11.1993246078491211
8.39369010925292969 28.9587745666503906 -20.3323688507080078
-16.7080326080322266 14.4722995758056641 31.7236690521240234
11.9734487533569336 28.8233470916748047 -18.0992851257324219
-30.3106536865234375 -21.6584129333496094 -17.7904682159423828
-8.20380592346191406 -39.02862548828125 -6.54810810089111328
31.3675270080566406 -1.05780136585235596 -17.5843391418457031
-10.4625406265258789 -19.4584751129150391 -33.2626991271972656
-33.3624229431152344 -14.3272762298583984 19.2575111389160156
-7.37496376037597656 -36.9643783569335938 -14.239933967590332
32.2352828979492188 0.245899111032485962 -15.8218011856079102
26.8590106964111328 -24.4601860046386719 9.08601951599121094
-27.1629524230957031 6.28888750076293945 28.2089500427246094
-37.1116409301757812 9.30895900726318359 -12.4634037017822266
25.6352081298828125 24.2656764984130859 -2.59723043441772461
-33.7290878295898438 -15.1884193420410156 -18.2338428497314453
-40.1069984436035156 4.0710906982421875 -7.30157852172851562
-10.8313264846801758 -37.7095794677734375 10.4636964797973633
2.48175263404846191 -39.4185638427734375 4.16425418853759766
-30.5104293823242188 8.56591987609863281 -24.4730472564697266
-4.52202033996582031 33.1729354858398438 16.0594062805175781
-36.2875823974609375 -2.7183687686920166 18.4388675689697266
20.4439449310302734 -1.44222104549407959 31.0857887268066406
-40.5953483581542969 -2.91291260719299316 6.72515773773193359
-14.7067222595214844 -15.9856157302856445 -33.6328392028808594
8.73855113983154297 0.409901320934295654 -36.2807540893554688
-19.3207263946533203 -23.8282451629638672 -26.6903038024902344
-1.88437652587890625 -5.72557783126831055 -38.2052955627441406
-5.15427017211914062 -13.1015815734863281 36.8289947509765625
-28.4751071929931641 13.7061853408813477 23.7191886901855469
-6.59758329391479492 28.7307052612304688 23.1662273406982422
22.3878746032714844 25.0722064971923828 12.306614875793457
-33.0761604309082031 4.40429925918579102 -22.7951126098632812
-11.1661272048950195 -38.306121826171875 -7.58888578414916992
-25.4262638092041016 -28.1738681793212891 15.8410778045654297
9.72391510009765625 -15.12469482421875 -33.1731605529785156
11.5562257766723633 17.4357986450195312 -29.8028507232666016
-14.4063653945922852 34.4664497375488281 -5.71584320068359375
20.1477108001708984 17.2806282043457031 -24.0690059661865234
-8.43414306640625 6.22261190414428711 37.018402099609375
32.2587623596191406 14.0597419738769531 4.7779078483581543
25.0661334991455078 14.3652009963989258 21.8386917114257812
-40.9013099670410156 0.961578309535980225 3.59875798225402832
-31.5285835266113281 -19.4959754943847656 17.7384395599365234
-17.9196052551269531 -28.3927955627441406 22.9104995727539062
26.7669200897216797 -21.6716365814208984 -13.9334545135498047
3.70894217491149902 -11.7621984481811523 -36.1361351013183594
12.7489585876464844 18.4487514495849609 -28.4573268890380859
4.43130922317504883 -21.3399734497070312 -31.784332275390625
-25.0100975036621094 6.82939291000366211 -30.1046142578125
-5.22989654541015625 10.2245378494262695 -36.3775138854980469
-29.3256664276123047 -26.5286750793457031 11.9230794906616211
-38.1790542602539062 4.77308893203735352 13.0688753128051758
-36.7410430908203125 -14.0228395462036133 -13.2324562072753906
-17.974853515625 32.1404571533203125 9.19641208648681641
-10.1326675415039062 -11.032435417175293 36.4463882446289062
14.8283824920654297 32.6197662353515625 3.15292739868164062
-31.4285449981689453 -24.1293487548828125 -12.0323381423950195
31.1633052825927734 1.5846332311630249 18.5505294799804688
7.4385075569152832 4.29013919830322266 36.9427680969238281
-33.495513916015625 -1.87660408020019531 22.7663822174072266
35.3743972778320312 0.180894032120704651 7.54915285110473633
29.2157268524169922 19.9092922210693359 -1.54861569404602051
30.7393989562988281 -16.4432392120361328 -11.4722566604614258
-17.0514049530029297 10.7906332015991211 -33.3741188049316406
-12.5538120269775391 -5.48988676071166992 36.8459739685058594
19.7287693023681641 27.8158550262451172 11.1540231704711914
3.48701381683349609 36.0916328430175781 -3.39490723609924316
-41.1953048706054688 -3.17628264427185059 -0.909983336925506592
-20.1291389465332031 -23.3748779296875 -26.5040035247802734
-18.7653255462646484 32.1298027038574219 7.90149831771850586
18.4048080444335938 -31.9310512542724609 -9.41145896911621094
25.5590953826904297 -12.2810268402099609 -23.1909084320068359
18.5119705200195312 -33.0699005126953125 5.52747774124145508
12.1401500701904297 13.6537141799926758 -31.6319713592529297
14.9077091217041016 -7.27167177200317383 34.0028038024902344
-26.9818382263183594 -7.76001691818237305 28.8766002655029297
-29.7377281188964844 24.9874668121337891 -5.18418359756469727
-5.58503961563110352 -23.8557567596435547 31.3852062225341797
-40.3419723510742188 -0.89369124174118042 7.56690692901611328
-18.703155517578125 -14.534541130065918 -32.5379371643066406
10.3980808258056641 -36.5086936950683594 -7.96258974075317383
-23.9130744934082031 -2.00566768646240234 -32.1021919250488281
-15.6991481781005859 32.4447288513183594 11.4860973358154297
-33.6185150146484375 -15.2470321655273438 -18.3827857971191406
-24.0293292999267578 7.8914031982421875 -30.5071392059326172
-4.52488994598388672 36.1924324035644531 6.13266181945800781
1.05489432811737061 -39.6841812133789062 2.68643951416015625
5.27279186248779297 -32.0695915222167969 -21.3759231567382812
20.4999923706054688 -22.90362548828125 -21.4422225952148438
19.1500568389892578 23.3675174713134766 19.85205078125
-15.3315181732177734 -15.9767436981201172 33.1753807067871094
-14.0108480453491211 27.6419582366943359 -21.9880714416503906
-30.7507896423339844 1.30591654777526855 -26.2214698791503906
24.6675701141357422 13.8751096725463867 -21.7765007019042969
1.82815694808959961 22.1655464172363281 -29.4284420013427734
19.1870384216308594 -32.5607261657714844 5.85943984985351562
-23.2174644470214844 11.7779722213745117 29.3280506134033203
19.0721759796142578 12.5703964233398438 -27.8584060668945312
-17.1411914825439453 -37.1472663879394531 2.34495949745178223
9.7125244140625 11.0974569320678711 34.3943901062011719
-8.11568737030029297 1.99439072608947754 -37.9144477844238281
-26.6592998504638672 28.0834426879882812 -2.0468904972076416
-12.2464437484741211 30.8628196716308594 17.9022617340087891
-28.5120582580566406 -19.5060062408447266 -22.1293010711669922
34.8977203369140625 -8.21803092956542969 7.09378385543823242
-4.191070556640625 -33.6475906372070312 -21.0866203308105469
30.2889003753662109 9.74819374084472656 16.8502292633056641
16.287506103515625 -31.6906242370605469 -13.5221939086914062
-22.5214042663574219 30.7878837585449219 4.57441520690917969
-40.2344398498535156 -8.88736534118652344 -4.61719703674316406
-16.7050533294677734 -1.46367549896240234 -35.7610931396484375
-25.2784671783447266 -8.23525142669677734 -30.4360504150390625
5.79257631301879883 33.4937095642089844 -12.9969568252563477
-36.65887451171875 0.524444878101348877 17.5547752380371094
-13.4937191009521484 29.4143276214599609 19.547393798828125
-17.3734169006347656 27.3760356903076172 -20.3008594512939453
-29.9748630523681641 18.3157329559326172 -18.1388645172119141
-38.0502052307128906 -1.35416913032531738 14.8956499099731445
26.7455215454101562 -21.3176593780517578 -14.4484949111938477
20.2185783386230469 -31.7809047698974609 6.14787769317626953
-28.8982334136962891 -18.95281982421875 21.8568878173828125
-13.017268180847168 34.9575309753417969 -5.23316383361816406
-13.7322702407836914 -38.0307884216308594 -5.90604257583618164
-17.0799274444580078 8.08562469482421875 -34.2222747802734375
26.0008926391601562 18.8737125396728516 15.7433967590332031
29.5179405212402344 9.30003738403320312 18.5537300109863281
34.26702880859375 -10.4603719711303711 -6.55428934097290039
31.1629619598388672 12.6633005142211914 -11.294377326965332
2.48161864280700684 2.73200511932373047 38.127593994140625
-16.0133819580078125 6.43659353256225586 -35.0827560424804688
28.4093074798583984 11.2684268951416016 19.1275482177734375
-21.4207801818847656 -26.8821296691894531 21.8926315307617188
-14.2095298767089844 -17.5607891082763672 32.8675270080566406
-33.5090217590332031 -18.9749679565429688 -15.196080207824707
-9.37201023101806641 25.8815078735351562 25.8733654022216797
13.3349819183349609 25.9334526062011719 21.9661483764648438
16.3403434753417969 -0.312736839056015015 33.6832237243652344
-8.28576850891113281 21.5203151702880859 -30.1117000579833984
34.1608924865722656 -10.1631574630737305 8.05812454223632812
12.9622516632080078 -34.1216545104980469 13.3532772064208984
-25.9785480499267578 28.1073246002197266 5.972412109375
-32.6565818786621094 2.57813811302185059 23.3374557495117188
-15.7280855178833008 -16.3565845489501953 -33.08111572265625
10.8420801162719727 29.1389789581298828 19.2657127380371094
-21.6751289367675781 -34.2810707092285156 -6.82146692276000977
-29.3890018463134766 24.8520336151123047 -7.41411781311035156
-36.9000282287597656 -16.8803386688232422 -8.93297481536865234
28.033599853515625 -3.65186595916748047 23.5543670654296875
-36.2221260070800781 -20.2478199005126953 -2.55595612525939941
15.8966360092163086 32.0583038330078125 2.95671892166137695
32.7676544189453125 -14.1094303131103516 -7.87142229080200195
34.1927337646484375 5.29413270950317383 9.43244647979736328
-22.8398265838623047 -3.66733765602111816 32.4786338806152344
4.81353330612182617 20.0323238372802734 31.2358875274658203
3.25461077690124512 -15.1995143890380859 -35.0946540832519531
-37.24261474609375 2.62267780303955078 16.0919837951660156
8.76562309265136719 16.3115959167480469 -31.6126613616943359
-0.587350249290466309 34.1811408996582031 14.1886911392211914
-2.18295764923095703 -39.8759651184082031 2.27353429794311523
-33.03839111328125 -9.45602607727050781 -22.2500476837158203
2.9628899097442627 35.3279075622558594 9.81559658050537109
14.9548368453979492 -10.5400247573852539 33.2844276428222656
19.5390186309814453 -26.2389011383056641 19.4317855834960938
-32.9262123107910156 10.9574317932128906 -19.9736385345458984
0.00257282238453626633 36.2569007873535156 -4.47204351425170898
12.8110218048095703 1.96064078807830811 -34.5828361511230469
1.58292841911315918 32.7991256713867188 17.1551532745361328
-13.0711164474487305 -5.08893203735351562 36.7388114929199219
-5.72955608367919922 27.3175220489501953 25.0327663421630859
17.3466510772705078 -26.9399795532226562 20.9270687103271484
-12.1039228439331055 29.0014266967773438 20.9570140838623047
19.9406242370605469 -31.9973869323730469 -4.67455673217773438
-13.8592939376831055 -8.61536598205566406 -36.1651115417480469
-33.4596176147460938 19.3239288330078125 -9.4718780517578125
28.5158519744873047 -13.5137119293212891 -18.4752120971679688
-7.29034709930419922 36.1049880981445312 -5.02449178695678711
16.0836009979248047 13.8065567016601562 30.0979671478271484
-22.5540828704833984 -34.4511489868164062 0.0760911256074905396
9.46601772308349609 -14.7499847412109375 -33.4324874877929688
10.028656005859375 6.32576322555541992 35.7190055847167969
-16.6885166168212891 -36.8937416076660156 6.24386692047119141
24.2358818054199219 0.985624313354492188 -26.7987003326416016
28.5040912628173828 13.2570104598999023 17.4480609893798828
31.5327243804931641 -19.0721263885498047 -1.13952112197875977
25.0249538421630859 15.0139045715332031 21.3837528228759766
17.9335556030273438 -32.2698326110839844 10.4433059692382812
9.11294937133789062 -10.8360891342163086 35.7057876586914062
33.3353652954101562 8.70361995697021484 -8.64637279510498047
-34.6744346618652344 7.64258384704589844 18.7588882446289062
-3.80096220970153809 -31.2209262847900391 24.6959590911865234
1.84624922275543213 17.944091796875 33.1217117309570312
-9.90094375610351562 -37.5613021850585938 -11.2727041244506836
15.3546133041381836 -29.8630828857421875 18.8540935516357422
35.26239013671875 2.17656350135803223 -5.50257444381713867
-23.7425613403320312 -12.6412391662597656 30.017333984375
-23.411041259765625 -33.943328857421875 -0.496981441974639893
27.6796226501464844 -24.5541858673095703 -4.9251866340637207
-30.8740653991699219 14.7596340179443359 -20.1648502349853516
-38.2957839965820312 3.23731803894042969 13.4435691833496094
-36.0536460876464844 -18.6558322906494141 8.22439479827880859
19.6185550689697266 25.2207469940185547 -15.5647668838500977
-20.5135669708251953 31.7878341674804688 -5.5435795783996582
1.52768456935882568 -24.5822296142578125 -30.1786727905273438
9.35402202606201172 7.27174615859985352 -35.0507698059082031
-24.0880603790283203 -30.2075691223144531 -14.0781192779541016
-13.970550537109375 -38.0833930969238281 -4.99234199523925781
25.7774314880371094 -25.8899879455566406 8.75791454315185547
-28.8846683502197266 18.3193454742431641 19.4061832427978516
34.0328750610351562 2.97550320625305176 11.1421375274658203
28.0344257354736328 4.15953779220581055 -21.9121494293212891
28.1715297698974609 20.8860073089599609 5.33597755432128906
-4.3558659553527832 12.8829431533813477 35.4296722412109375
16.4239864349365234 -1.89797794818878174 -32.8209457397460938
14.6832504272460938 32.6881980895996094 3.09191513061523438
20.0609893798828125 26.0556850433349609 14.5096635818481445
9.63445568084716797 -13.3981857299804688 34.7342185974121094
19.6659660339355469 -32.5710639953613281 -0.539969563484191895
28.5752334594726562 20.1835994720458984 5.88759803771972656
18.3413791656494141 28.3787593841552734 12.2663736343383789
24.1787166595458984 -7.05691957473754883 -26.4626674652099609
-38.2762565612792969 -13.2214746475219727 -9.36588573455810547
-19.6374645233154297 -31.4345626831054688 17.0986862182617188
0.371854126453399658 22.3359775543212891 -29.6830024719238281
20.0167312622070312 -29.7564277648925781 12.9615087509155273
31.5980377197265625 -9.33443832397460938 16.1656265258789062
-32.3382911682128906 13.6364650726318359 -18.9261112213134766
-11.2092866897583008 -24.8893890380859375 29.2658519744873047
-24.2017650604248047 5.51128911972045898 -31.0231361389160156
-35.4409713745117188 -11.4962539672851562 17.4459342956542969
14.4838762283325195 -26.9142208099365234 -22.4141254425048828
7.75082540512084961 -2.23022794723510742 -36.6822433471679688
33.2227897644042969 -10.029545783996582 11.3703670501708984
21.7597999572753906 19.0836410522460938 21.7922420501708984
7.08120822906494141 26.6743183135986328 24.505615234375
10.8694696426391602 30.6381378173828125 16.5562267303466797
30.0171585083007812 18.7033367156982422 0.286394745111465454
31.4405441284179688 -15.5046672821044922 -10.7599124908447266
-1.87680172920227051 9.86299514770507812 -36.6016883850097656
11.1958684921264648 18.9373435974121094 29.7128658294677734
29.6555461883544922 -22.0023479461669922 4.80652761459350586
-41.1317710876464844 -1.20096051692962646 -1.98944282531738281
27.0340518951416016 -12.7597322463989258 -21.118133544921875
-39.9198265075683594 -10.0358190536499023 -5.38100671768188477
5.50370121002197266 -14.7305850982666016 -34.7826576232910156
-0.975667774677276611 -38.2272682189941406 -10.9034595489501953
-21.6752548217773438 -22.8345756530761719 25.6390399932861328
33.8608207702636719 -11.4950971603393555 -6.81683588027954102
-31.6859054565429688 -26.055084228515625 6.05039358139038086
-39.0334587097167969 4.37120342254638672 -11.0971202850341797
-34.1899375915527344 -8.33590316772460938 20.8293972015380859
-23.6618385314941406 -28.2615795135498047 -17.99591064453125
-5.04198122024536133 35.1317291259765625 -10.5717611312866211
-24.1871337890625 -6.14019536972045898 31.3121318817138672
-38.0407867431640625 -16.5957851409912109 2.94001889228820801
4.5171961784362793 -34.1637039184570312 19.3219795227050781
9.51595973968505859 11.1239070892333984 34.4635734558105469
-3.21663236618041992 23.5552101135253906 -28.7570152282714844
-40.6677093505859375 -3.08334994316101074 6.30874252319335938
23.8741970062255859 15.0970640182495117 22.7610702514648438
19.4797706604003906 -31.2167682647705078 -9.18871402740478516
-11.2001008987426758 -14.6586112976074219 35.0761795043945312
17.5702838897705078 -33.4999580383300781 -5.57677888870239258
17.5429019927978516 -31.6430416107177734 12.8836698532104492
6.35562992095947266 35.2451705932617188 6.83461618423461914
35.58868408203125 -0.327721238136291504 -4.54784917831420898
-39.1443023681640625 -13.9407634735107422 -2.65505433082580566
-25.3630275726318359 -32.2862510681152344 -4.46207380294799805
-36.7171058654785156 -9.75463581085205078 15.7402782440185547
8.09592056274414062 18.8007984161376953 31.1103343963623047
9.40168190002441406 -37.5668563842773438 5.89797306060791016
6.59106731414794922 -38.802093505859375 0.51721036434173584
-37.8183021545410156 12.0607843399047852 6.89611101150512695
-1.46781551837921143 36.6097679138183594 -1.91734004020690918
-31.8046207427978516 -9.61865615844726562 -23.7583999633789062
-19.2485618591308594 -5.12063741683959961 34.3336944580078125
32.1250457763671875 -2.84020161628723145 16.9425735473632812
-32.1282501220703125 -25.8732662200927734 4.10522174835205078
-25.0741481781005859 -26.8318252563476562 18.2512989044189453
-38.7414398193359375 11.5811300277709961 -0.52406841516494751
-2.6098334789276123 26.5347671508789062 26.1126880645751953
14.6659088134765625 3.14256787300109863 34.2635078430175781
8.50354957580566406 -29.2787437438964844 24.3797588348388672
27.6959152221679688 -24.5407028198242188 5.46350002288818359
6.58893775939941406 -34.4385337829589844 -16.9989891052246094
-25.2195053100585938 -32.239288330078125 5.58143949508666992
-15.8248176574707031 -36.7686920166015625 8.53213787078857422
-7.69854450225830078 -23.55413818359375 31.1199245452880859
-14.476872444152832 -36.2517318725585938 12.0091638565063477
-36.8771781921386719 -6.34810495376586914 -17.3041915893554688
19.3455963134765625 -16.1339015960693359 -27.4393520355224609
7.06348991394042969 -33.9205131530761719 18.5557155609130859
11.3801107406616211 -36.4212989807128906 -6.66763877868652344
13.6013431549072266 -15.1562118530273438 -31.5676097869873047
26.5626239776611328 -21.7863121032714844 -14.1852893829345703
17.0047225952148438 -32.5861740112304688 -10.2746448516845703
-4.46909284591674805 -39.8586273193359375 1.34032523632049561
33.3421134948730469 10.5601816177368164 6.80028581619262695
16.9236965179443359 18.5406856536865234 26.6198654174804688
-24.3812351226806641 -13.0092296600341797 29.4270725250244141
15.9802112579345703 23.0663032531738281 23.1700916290283203
-7.85437154769897461 27.1286048889160156 -25.0224246978759766
-27.1602649688720703 27.6596546173095703 -2.18509840965270996
-24.4892997741699219 -5.00233316421508789 31.2534561157226562
15.8355131149291992 31.4565296173095703 -6.16798830032348633
18.2006282806396484 30.2531261444091797 6.35571146011352539
2.25721979141235352 2.96700382232666016 38.1289749145507812
-10.5233097076416016 15.395359992980957 -33.5082283020019531
-34.3819007873535156 -19.9376277923583984 -11.9158172607421875
24.3058834075927734 23.6097488403320312 -10.3701744079589844
1.77159059047698975 -27.8056201934814453 27.9748706817626953
-8.61858654022216797 6.44173288345336914 36.9377899169921875
-2.35892724990844727 32.9655227661132812 16.6977634429931641
-36.3078842163085938 -14.2759799957275391 13.5485458374023438
14.1142234802246094 20.4480686187744141 27.0146446228027344
15.6628217697143555 -21.1983509063720703 -26.7697849273681641
21.0568332672119141 -9.29067802429199219 -28.7754878997802734
-0.775708854198455811 36.5218963623046875 -2.60171866416931152
31.9510784149169922 -3.6680152416229248 -16.3774337768554688
28.7785511016845703 -13.0779962539672852 19.2919559478759766
35.6671676635742188 -4.24938344955444336 -4.15222883224487305
-22.2229480743408203 -32.0759162902832031 -12.8901615142822266
-32.7722930908203125 -16.925750732421875 -18.4015178680419922
29.7789058685302734 9.94494915008544922 -16.6814441680908203
7.79802656173706055 34.7356719970703125 7.61000585556030273
-17.6201839447021484 -34.7193832397460938 -12.6591091156005859
-27.0421009063720703 10.2642707824707031 26.8692150115966797
-12.3953886032104492 -38.4889335632324219 5.08235359191894531
-8.45867633819580078 -4.25417709350585938 -37.9478569030761719
15.5044898986816406 32.3682937622070312 -0.742032885551452637
19.8527050018310547 -31.4891910552978516 8.576141357421875
9.25291919708251953 -7.59797525405883789 -35.7839164733886719
-2.56221890449523926 -24.6699867248535156 -30.3743953704833984
22.8712253570556641 -15.0818061828613281 -24.8873481750488281
-34.0417213439941406 2.28113818168640137 -21.9726505279541016
18.0523223876953125 -33.6105728149414062 3.83677172660827637
10.5148534774780273 31.0979728698730469 15.852421760559082
4.23826360702514648 35.9642295837402344 -3.29911541938781738
18.3085193634033203 27.0527725219726562 15.1460123062133789
-6.20724153518676758 -39.7145500183105469 -4.05810213088989258
12.6120615005493164 27.8596515655517578 -19.1574077606201172
22.153228759765625 -25.8906345367431641 16.3899250030517578
-15.9824848175048828 -36.1141395568847656 -10.5392541885375977
-37.13995361328125 14.2906837463378906 -5.2654109001159668
14.7646217346191406 -27.5955142974853516 22.4441337585449219
-9.03154373168945312 11.8794670104980469 35.2044410705566406
-39.6569252014160156 -4.04254865646362305 10.1699752807617188
13.6202249526977539 -21.8397579193115234 28.525054931640625
-17.7344837188720703 23.1729679107666016 -25.0358390808105469
22.7972049713134766 12.1814785003662109 -24.8603763580322266
-5.56167411804199219 1.04360544681549072 38.196014404296875
-35.4248809814453125 -13.4679374694824219 -16.5764522552490234
-12.7679529190063477 -34.943878173828125 16.4127197265625
14.2703256607055664 -32.6978988647460938 -14.0723419189453125
25.7361545562744141 22.4601516723632812 10.057032585144043
-15.009892463684082 18.2662792205810547 -30.4243087768554688
-1.66912972927093506 36.0588607788085938 7.34937763214111328
16.6664905548095703 3.95104432106018066 33.015411376953125
-25.1685466766357422 -32.4055938720703125 4.50424623489379883
-28.3740806579589844 20.2995510101318359 -18.0816974639892578
11.2952966690063477 -19.1222629547119141 31.4304294586181641
13.8319568634033203 33.0872459411621094 -2.16359901428222656
-32.7756233215332031 -24.1506710052490234 -8.06711292266845703
6.98891496658325195 -34.1541557312011719 -17.2822113037109375
1.62419998645782471 -16.4207324981689453 35.3923912048339844
7.10033559799194336 -25.4748783111572266 -27.9896602630615234
-34.2549705505371094 4.93691444396972656 20.4706859588623047
3.40759181976318359 24.7472076416015625 -26.9819278717041016
-20.7862052917480469 31.3137454986572266 -7.0547938346862793
-3.1989891529083252 36.4424209594726562 4.42376565933227539
-27.7065353393554688 7.57221174240112305 -27.6443119049072266
25.8419399261474609 -9.94279193878173828 -23.9205818176269531
-6.86725807189941406 -22.3452301025390625 32.0276222229003906
36.0240097045898438 -3.27629351615905762 1.20785307884216309
-40.100311279296875 -9.726318359375 -3.99227333068847656
-24.5374908447265625 -20.9736957550048828 -24.9821147918701172
6.38313436508178711 -32.2060432434082031 -20.6869316101074219
-0.145155474543571472 -27.3760318756103516 -27.9340915679931641
-18.707489013671875 27.9323940277099609 -18.4286365509033203
12.3115253448486328 -12.2984762191772461 -33.2966270446777344
32.280364990234375 -14.6806058883666992 9.87485313415527344
32.9110260009765625 0.138142675161361694 14.9263591766357422
20.20208740234375 11.6022243499755859 -27.4380149841308594
21.1713676452636719 -8.84027004241943359 -28.8053550720214844
-14.1808071136474609 0.330793440341949463 36.4575004577636719
-5.75825119018554688 10.4594564437866211 -36.2697219848632812
15.6691904067993164 -25.6438636779785156 -22.9151935577392578
-13.6383218765258789 19.9786262512207031 -29.76800537109375
-6.01732635498046875 -39.9020652770996094 2.7665259838104248
9.42866611480712891 33.6982650756835938 -8.95299053192138672
-2.48578262329101562 -39.2578277587890625 -6.30202913284301758
9.51880645751953125 -21.2078609466552734 30.8778705596923828
34.4374656677246094 -12.0129070281982422 -1.29608118534088135
-15.1459970474243164 -17.7800960540771484 32.4153175354003906
-30.5947799682617188 -27.7275791168212891 -3.95559000968933105
29.0985603332519531 -23.2555408477783203 0.837341189384460449
-40.0578193664550781 -6.09964704513549805 8.37974357604980469
-21.2373008728027344 -21.88507080078125 26.6933135986328125
-28.9120197296142578 16.2649345397949219 -21.5916042327880859
-11.1976909637451172 -38.2519302368164062 7.96908998489379883
17.7438125610351562 -33.9083137512207031 2.55928611755371094
7.62894821166992188 14.8091316223144531 -32.808746337890625
-38.7255363464355469 5.34553432464599609 -11.4526634216308594
-2.18199682235717773 -36.747955322265625 15.6924200057983398
28.8794116973876953 20.2029476165771484 -3.19198727607727051
22.9012184143066406 26.1178627014160156 -6.54062938690185547
-7.4965672492980957 9.67842006683349609 -36.3904151916503906
25.3284664154052734 13.9028177261352539 -20.9689712524414062
-37.4971122741699219 -3.65726709365844727 -16.4151859283447266
30.6128978729248047 9.20322704315185547 -15.6328716278076172
-11.3880195617675781 -35.5045242309570312 16.0146560668945312
-25.9539127349853516 5.59310007095336914 -29.6589527130126953
10.7587499618530273 26.5785541534423828 -22.2042083740234375
-20.2930583953857422 -20.0226249694824219 -28.8663158416748047
18.7816009521484375 27.9958705902099609 12.4523849487304688
-1.05297255516052246 -33.37884521484375 21.8201522827148438
8.58238697052001953 30.3981990814208984 -17.7879219055175781
-30.3876857757568359 -11.1947498321533203 -24.8385753631591797
-11.9126720428466797 -27.2868556976318359 27.0100479125976562
8.15895652770996094 21.71533203125 -28.1163063049316406
25.0856781005859375 1.40322184562683105 -25.9217662811279297
-36.3047637939453125 7.97557353973388672 -15.8449115753173828
-0.832399666309356689 10.4646596908569336 -36.3911514282226562
11.6686067581176758 23.2118091583251953 26.0151844024658203
-22.9997310638427734 21.2171974182128906 -23.2375030517578125
-5.37040185928344727 14.0604457855224609 34.8524894714355469
32.2280654907226562 14.4463348388671875 -2.93328118324279785
-39.4588394165039062 1.33195853233337402 -11.024907112121582
-15.5542106628417969 34.4627571105957031 -1.66109240055084229
-30.0265522003173828 -8.55856513977050781 25.8410625457763672
-13.4513015747070312 31.2543926239013672 -16.4481792449951172
8.15574359893798828 28.2537288665771484 22.1435985565185547
-30.0394458770751953 -3.87044262886047363 -26.8081626892089844
12.0193796157836914 23.57781982421875 25.4589424133300781
-40.0409317016601562 -2.71662998199462891 8.59251213073730469
7.98372602462768555 -32.3131904602050781 20.6801586151123047
9.70545196533203125 -26.0758705139160156 -26.3508262634277344
-41.1464347839355469 0.807362556457519531 -1.7398827075958252
-38.3705940246582031 12.4042530059814453 -0.283120065927505493
35.6077499389648438 -1.28022944927215576 6.44943475723266602
-31.5076484680175781 23.3922367095947266 -0.947181582450866699
6.66194534301757812 29.5153331756591797 -20.3202686309814453
0.371318280696868896 -39.0958099365234375 -6.80639886856079102
6.77794551849365234 26.8491706848144531 -23.7850704193115234
28.8754081726074219 -17.6645851135253906 15.2854280471801758
20.6423530578613281 27.4537315368652344 10.2058372497558594
11.8257045745849609 10.8759088516235352 -32.9597434997558594
23.3449840545654297 10.8214492797851562 -25.0206146240234375
6.58573341369628906 13.1192951202392578 -33.9055557250976562
-38.5764007568359375 -0.155718982219696045 13.5269374847412109
-40.0276336669921875 -11.089385986328125 -2.63600468635559082
3.05587553977966309 28.2158985137939453 23.9353065490722656
2.7591097354888916 -23.4529170989990234 31.3640937805175781
-25.6422653198242188 -18.9952259063720703 -25.4771327972412109
-24.4233951568603516 -25.9104194641113281 20.1747207641601562
-20.9511337280273438 3.0612030029296875 33.2702789306640625
17.3374385833740234 31.0470867156982422 -3.34271621704101562
27.0018196105957031 -20.0314884185791016 16.1681900024414062
-15.2432098388671875 33.1770133972167969 9.62769031524658203
-16.6437950134277344 -31.1484909057617188 20.1707763671875
18.2098255157470703 2.71464180946350098 32.3378829956054688
-29.9018592834472656 -1.20893609523773193 -27.1068096160888672
10.5830898284912109 -35.106689453125 13.5282669067382812
35.1916847229003906 -8.46907329559326172 -4.10323476791381836
-12.537938117980957 35.3801689147949219 -1.94724500179290771
-37.5172996520996094 -15.7338161468505859 8.17938232421875
-20.1206073760986328 28.3766212463378906 -16.3735103607177734
18.1470680236816406 -4.18796968460083008 32.5322494506835938
15.223480224609375 19.3034458160400391 27.2370414733886719
18.0557231903076172 11.0281953811645508 30.0909500122070312
19.3449382781982422 -27.2119789123535156 -17.6547393798828125
-23.408447265625 29.66912841796875 -7.49108171463012695
-41.1363410949707031 -1.75221848487854004 -3.44933009147644043
34.7882156372070312 -4.08553838729858398 9.77422237396240234
21.7842254638671875 -28.9680290222167969 11.2500457763671875
-30.6889438629150391 -12.4641485214233398 23.774871826171875
-15.8254108428955078 -37.5664558410644531 3.86266660690307617
-29.9310588836669922 -17.9343357086181641 21.3861827850341797
-0.916066229343414307 27.3972969055175781 25.6774787902832031
-37.9882698059082031 -15.8400716781616211 -6.0547947883605957
24.6031074523925781 -19.3197917938232422 20.8040409088134766
19.2231922149658203 -28.9965610504150391 -14.8353357315063477
-24.5270557403564453 1.62400329113006592 -31.4059162139892578
21.9084949493408203 -2.68932461738586426 29.8737640380859375
-10.4847488403320312 23.3433780670166016 -28.1581630706787109
34.4172706604003906 8.64163112640380859 -0.684725344181060791
18.0092449188232422 -32.3714828491210938 9.93279647827148438
-4.0724339485168457 -37.3632240295410156 14.0251483917236328
-20.3871746063232422 -33.1468696594238281 -12.9410295486450195
-24.73480224609375 27.3160648345947266 -11.7357234954833984
-36.8174705505371094 4.93976068496704102 -16.4408683776855469
-24.2124042510986328 -21.0019493103027344 25.0727615356445312
11.3244590759277344 -2.94588208198547363 36.0461921691894531
29.0428886413574219 -17.1525764465332031 -14.7421197891235352
-10.2266073226928711 28.2523345947265625 22.7819557189941406
-38.4940185546875 -11.6404628753662109 -10.4490518569946289
35.1417160034179688 -9.17412185668945312 3.71946239471435547
-19.7650108337402344 -11.0849618911743164 32.86895751953125
0.858058452606201172 9.87646865844726562 -36.2054214477539062
-11.2959270477294922 34.7703208923339844 8.178680419921875
-20.6825847625732422 27.1107978820800781 17.6957759857177734
22.2681674957275391 -30.5916309356689453 1.58964800834655762
21.449737548828125 16.6796474456787109 24.1773834228515625
23.4068603515625 -13.3377017974853516 -25.2132415771484375
-6.74403285980224609 -32.5838165283203125 -22.2549610137939453
7.68737697601318359 -38.4830551147460938 1.63102233409881592
-12.9036130905151367 -9.19117546081542969 -36.3426284790039062
16.9456691741943359 -27.1119117736816406 21.1226291656494141
-40.2186927795410156 -10.4510374069213867 1.47010624408721924
29.8392715454101562 -18.3580989837646484 12.2405977249145508
-24.5051803588867188 -14.0203084945678711 -29.1380081176757812
14.6791133880615234 -35.6747283935546875 2.88569450378417969
29.1059017181396484 19.9950618743896484 2.81130123138427734
-31.1889514923095703 23.7052249908447266 2.77372431755065918
6.72778940200805664 34.1847915649414062 11.132441520690918
-25.6989879608154297 -14.2649154663085938 27.820037841796875
26.5849456787109375 22.8201446533203125 -4.54691457748413086
-20.1581516265869141 30.6922721862792969 10.5315704345703125
8.23782157897949219 27.7827243804931641 22.7222976684570312
-6.78349924087524414 -36.9495964050292969 14.7702455520629883
23.7714252471923828 -23.4294357299804688 -16.7160434722900391
-6.38538837432861328 -30.788848876953125 24.8677082061767578
11.4502420425415039 -5.16976547241210938 35.8572769165039062
19.3317661285400391 4.50187349319458008 31.2786636352539062
5.01899337768554688 22.9957981109619141 -28.0945644378662109
31.8249301910400391 -15.5531597137451172 -9.46518516540527344
1.21548855304718018 4.71510171890258789 37.981781005859375
-35.6304779052734375 2.98874068260192871 -19.2343673706054688
33.4225883483886719 -14.2362279891967773 5.10611152648925781
6.03312397003173828 -22.8644447326660156 -30.3278388977050781
-18.9990463256835938 18.7480049133300781 27.9241523742675781
-33.4923095703125 -19.4276885986328125 -14.7318277359008789
-27.5753574371337891 27.2205562591552734 3.56492900848388672
33.7540702819824219 1.89192092418670654 12.6659393310546875
0.138954132795333862 32.1799507141113281 -17.8658618927001953
2.61094141006469727 35.9030647277832031 7.50936985015869141
15.4560623168945312 -24.0608844757080078 -24.6100521087646484
-22.9963302612304688 -21.4886283874511719 25.6910343170166016
-1.92570459842681885 12.5352840423583984 36.0373191833496094
-12.442439079284668 -8.29191112518310547 -36.6353340148925781
-25.497039794921875 -22.4850368499755859 -22.8615226745605469
10.719151496887207 -15.9700994491577148 -32.4247360229492188
-1.25483417510986328 10.6706733703613281 36.6662330627441406
-16.5567073822021484 -34.4679374694824219 -14.4242534637451172
-18.9636173248291016 18.2855567932128906 -28.4715080261230469
-9.23811817169189453 27.2890338897705078 -24.4736385345458984
26.3531951904296875 -12.9344978332519531 -21.9058990478515625
12.9364891052246094 -17.2444019317626953 -30.8464641571044922
18.7453804016113281 -24.7780895233154297 22.110015869140625
34.3818130493164062 5.0568242073059082 8.41840553283691406
0.737766265869140625 -2.00187230110168457 -37.9438896179199219
-35.467559814453125 -15.8550519943237305 14.0177726745605469
17.0817604064941406 14.1500644683837891 29.3034381866455078
23.8576412200927734 25.1755275726318359 -6.85084009170532227
-22.4195652008056641 30.5410327911376953 6.4832158088684082
17.2915973663330078 30.2910709381103516 8.71237373352050781
-33.5726966857910156 20.9052181243896484 0.937596321105957031
-14.6939496994018555 -20.5972499847412109 -31.2918148040771484
1.35028469562530518 -14.5057849884033203 36.1870346069335938
-36.0693550109863281 -10.7310667037963867 -17.1769275665283203
-28.0072288513183594 -28.8109893798828125 9.59453105926513672
31.0190105438232422 6.76535749435424805 -16.3469066619873047
-16.4927654266357422 -20.9984931945800781 -30.2659416198730469
28.9828281402587891 19.8750896453857422 4.57678079605102539
34.2021408081054688 4.84923028945922852 -8.80165958404541016
3.65861701965332031 -24.2894477844238281 -29.9438018798828125
-23.5132312774658203 -17.4069633483886719 27.9591941833496094
14.8020467758178711 8.07254695892333984 -32.4004745483398438
-25.2735862731933594 -24.89263916015625 -20.6679363250732422
4.71263217926025391 15.0861415863037109 34.2132682800292969
11.4693698883056641 -26.0051193237304688 -25.4731369018554688
-3.6619880199432373 9.52641582489013672 -36.6357192993164062
34.7496376037597656 -6.96219062805175781 -7.62353801727294922
4.75246047973632812 -2.82995724678039551 -37.4587059020996094
9.98250293731689453 -34.3729782104492188 15.7560892105102539
-28.8384799957275391 -27.5312290191650391 -11.0189037322998047
20.2285003662109375 -28.6443576812744141 -14.0018815994262695
8.17325687408447266 14.2297420501708984 -32.9428024291992188
21.5399112701416016 -29.2846088409423828 -9.99433422088623047
-21.8749179840087891 21.2348842620849609 23.8682060241699219
16.3396968841552734 27.7883110046386719 -15.4102191925048828
-30.7417716979980469 -26.8278388977050781 -7.26643514633178711
19.7736778259277344 -1.89749395847320557 31.5784721374511719
-16.5218505859375 -24.8629932403564453 -27.3755226135253906
-38.8628807067871094 -1.42892038822174072 -13.3440876007080078
-8.05521106719970703 -34.4230270385742188 -19.1367282867431641
29.0594425201416016 -16.6843090057373047 -15.1996212005615234
29.7595863342285156 -6.34855842590332031 -19.7519340515136719
-35.3851165771484375 15.8758726119995117 9.30970573425292969
-0.563721954822540283 -38.2493820190429688 11.2021675109863281
-9.61998653411865234 9.02560234069824219 -36.2677192687988281
30.6622371673583984 14.2427797317504883 11.5660829544067383
-20.4858322143554688 -0.235328808426856995 -33.969757080078125
-3.70992159843444824 -38.7645378112792969 -8.59371280670166016
-34.0586929321289062 -11.8452463150024414 19.6019115447998047
8.31580924987792969 17.4937629699707031 31.8575839996337891
-30.1393527984619141 -20.0707321166992188 -19.6132888793945312
17.9556770324707031 -27.6843605041503906 19.2816791534423828
-20.7895584106445312 -10.9340858459472656 32.3781204223632812
-0.866803109645843506 -39.8472900390625 1.55562925338745117
29.5745391845703125 9.40978240966796875 18.3910427093505859
-39.1019821166992188 -1.72238922119140625 12.0100364685058594
23.0241527557373047 -18.0971050262451172 -22.9323348999023438
9.15750598907470703 -2.23983550071716309 36.8379325866699219
8.59967803955078125 -2.56264877319335938 -36.394287109375
35.8150634765625 1.95318186283111572 1.54768192768096924
5.08894062042236328 -8.92831707000732422 -36.4846572875976562
-33.4992408752441406 20.6282939910888672 -4.48099803924560547
-10.428070068359375 12.3800725936889648 -34.9324378967285156
5.66642665863037109 34.1733932495117188 -11.0500555038452148
-5.32935571670532227 -38.1236419677734375 -11.7854108810424805
-31.8450546264648438 -11.4383735656738281 22.8245277404785156
-18.1934738159179688 9.98846530914306641 32.9235076904296875
15.7542810440063477 20.8286857604980469 -24.7883129119873047
16.1802558898925781 19.4706974029541016 26.4347286224365234
4.61379623413085938 -2.17582225799560547 -37.5059318542480469
-12.9786272048950195 30.5254039764404297 -18.1235332489013672
12.0943450927734375 -19.8632640838623047 -29.7835350036621094
21.1000385284423828 25.5902290344238281 13.7173538208007812
2.6225128173828125 6.80919408798217773 -36.839813232421875
-34.266143798828125 18.2643909454345703 8.47742176055908203
25.8638572692871094 -26.3906822204589844 -6.17473554611206055
0.0816374719142913818 9.04773902893066406 37.0926971435546875
30.3466014862060547 -20.1704025268554688 -5.95336627960205078
8.80490875244140625 11.4195117950439453 -33.9497337341308594
13.1160554885864258 -30.0475139617919922 20.5215950012207031
-19.3560924530029297 13.6858444213867188 -31.0709495544433594
-6.687652587890625 22.4798069000244141 29.6095352172851562
17.1103363037109375 13.4542980194091797 29.6290302276611328
19.4086647033691406 -30.1108875274658203 13.2569370269775391
9.75494766235351562 22.4680767059326172 27.6550426483154297
-35.8431892395019531 5.13310909271240234 -18.2364501953125
15.6661710739135742 9.54691219329833984 32.1389236450195312
19.362762451171875 -14.3803796768188477 -28.3199939727783203
12.3312416076660156 33.7154693603515625 2.88568305969238281
20.9735889434814453 -28.7172050476074219 -12.6046199798583984
-18.0203495025634766 5.21966075897216797 34.3405494689941406
-30.1552066802978516 -27.5867176055908203 6.39075183868408203
-22.7488117218017578 2.6030585765838623 -32.4370155334472656
-23.1112155914306641 22.4115276336669922 -21.8884792327880859
-22.1776485443115234 12.7995882034301758 29.5550346374511719
-27.3015975952148438 -20.7828388214111328 -22.4627418518066406
27.1537876129150391 13.4887609481811523 19.5147552490234375
-18.2966079711914062 8.36929225921630859 -33.6102790832519531
-16.2690620422363281 2.41338181495666504 35.5188674926757812
10.8373603820800781 -19.6428794860839844 31.3292331695556641
29.7363471984863281 13.2560806274414062 14.9919357299804688
-17.7670764923095703 32.2954864501953125 -9.71741867065429688
-27.7490348815917969 -29.6700401306152344 7.79266548156738281
35.5379219055175781 -4.28459501266479492 5.73288345336914062
-2.600494384765625 -35.546112060546875 -17.3854007720947266
19.2152690887451172 16.3445606231689453 26.5235881805419922
-30.3696498870849609 13.8539237976074219 21.369781494140625
35.6693572998046875 -6.22433233261108398 -1.92684364318847656
15.5863771438598633 26.2525959014892578 -18.7317752838134766
10.6306352615356445 18.7601566314697266 -29.3650016784667969
-29.4580669403076172 23.4585742950439453 -11.1541051864624023
-34.8729438781738281 17.3638172149658203 8.19939231872558594
16.2467212677001953 -26.9603557586669922 -21.0231113433837891
-35.973480224609375 -14.6930351257324219 13.963068962097168
-36.672943115234375 -18.9702110290527344 4.16603374481201172
5.74739742279052734 -33.46136474609375 -19.0060386657714844
14.9789896011352539 24.9462661743164062 21.8779582977294922
-11.2914752960205078 -29.2042865753173828 -25.3675308227539062
-6.9652409553527832 34.6170539855957031 11.8824462890625
-10.87493896484375 -38.3422813415527344 7.84170818328857422
16.0797080993652344 -33.6247711181640625 -8.8695526123046875
-38.959442138671875 -1.60774993896484375 12.522334098815918
30.1814594268798828 16.1696815490722656 -8.53110408782958984
16.5831279754638672 -34.6826057434082031 1.18926429748535156
-18.1763458251953125 33.4181861877441406 1.51454722881317139
-21.9038562774658203 21.3760452270507812 23.7012901306152344
-7.83810710906982422 32.6239585876464844 -16.5172843933105469
35.1320075988769531 1.19012391567230225 8.32071781158447266
-31.1223182678222656 7.70321083068847656 23.6741008758544922
-39.4542083740234375 -12.5206470489501953 3.92834734916687012
-20.4776744842529297 -32.3703689575195312 -14.6122322082519531
-2.69643878936767578 15.2688941955566406 34.8980140686035156
-40.2375221252441406 -10.3129253387451172 0.848214566707611084
-5.40388965606689453 35.6167259216308594 -8.58471870422363281
-36.2239646911621094 13.5574502944946289 10.60809326171875
4.91203117370605469 30.2040672302246094 -20.0120887756347656
24.0424842834472656 -23.2825565338134766 -16.4840621948242188
34.2202987670898438 9.4881591796875 -1.24772024154663086
22.0422134399414062 -25.85028076171875 -15.8739662170410156
-22.0533428192138672 16.5202255249023438 27.5003910064697266
-5.13352203369140625 -21.9114112854003906 32.7027168273925781
22.176666259765625 17.5133342742919922 22.768585205078125
9.91174983978271484 -25.9803028106689453 -26.3489055633544922
16.0830421447753906 2.34805464744567871 -32.8742218017578125
25.1212596893310547 22.3860054016113281 11.8883695602416992
35.8904685974121094 1.19696736335754395 1.62330865859985352
-18.0998516082763672 -10.3101110458374023 33.9133377075195312
-1.78463363647460938 14.7860298156738281 -34.5585861206054688
-11.9599504470825195 -37.2605705261230469 11.1001567840576172
-28.0293769836425781 27.0199947357177734 1.11370575428009033
-2.26540637016296387 -10.5952539443969727 -37.4430694580078125
13.3745174407958984 6.84896135330200195 -33.4863777160644531
-13.63665771484375 -24.0238876342773438 -29.3461818695068359
-16.6737346649169922 31.4154472351074219 -13.5747137069702148
2.94710683822631836 -13.6898279190063477 -35.6862258911132812
24.174713134765625 -21.7245101928710938 -18.2374153137207031
-30.2117710113525391 -18.7675952911376953 -20.6227321624755859
29.1895313262939453 -0.092661149799823761 21.9758358001708984
-30.6296176910400391 23.3376407623291016 7.26485776901245117
30.8318805694580078 17.1215667724609375 -2.68650293350219727
-21.3313789367675781 19.2236080169677734 -26.2607040405273438
30.3709487915039062 13.2896966934204102 13.5492334365844727
13.4495353698730469 -3.34013557434082031 -34.3337783813476562
30.4461402893066406 -13.4483671188354492 16.0857429504394531
28.3134193420410156 -22.4509677886962891 9.09498214721679688
