ply
format ascii 1.0
element vertex 778
comment vertices
property float x
property float y
property float z
end_header
-3.5648951530456543 -16.452117919921875 -17.3929424285888672
1.89926791191101074 17.5600166320800781 2.51030325889587402
1.24588775634765625 -65.9288864135742188 17.9017696380615234
-4.22237205505371094 -32.5171051025390625 -27.0310516357421875
-5.31912040710449219 -25.5016860961914062 -1.57163739204406738
-4.55493688583374023 -44.9985733032226562 27.8973026275634766
-4.71551752090454102 -59.3581809997558594 -14.0996980667114258
3.69426250457763672 -18.1530399322509766 2.98739075660705566
-5.78188467025756836 -62.5822563171386719 18.9630012512207031
-4.01265716552734375 1.03582704067230225 3.88683342933654785
3.85505557060241699 85.0704116821289062 3.62379193305969238
2.57269716262817383 43.90985107421875 6.50579261779785156
-3.81703662872314453 -52.9571571350097656 -26.2328300476074219
2.77821111679077148 25.844451904296875 -3.51985645294189453
-4.61102581024169922 -10.9772329330444336 -3.28113651275634766
-0.317590177059173584 65.2323837280273438 -1.54404580593109131
-1.45581662654876709 -22.4505138397216797 -24.077880859375
-2.47083878517150879 -24.7965011596679688 -25.4446258544921875
-0.42760053277015686 48.1300430297851562 -4.00037717819213867
0.740409016609191895 -46.9837150573730469 27.8763751983642578
0.362013041973114014 -62.809844970703125 12.9023323059082031
-0.51510775089263916 -60.1941337585449219 19.5846672058105469
2.03695249557495117 -30.5202121734619141 30.3240280151367188
-2.02273893356323242 -52.67999267578125 -26.4456863403320312
-6.59120988845825195 -28.2708263397216797 27.7968826293945312
1.99446713924407959 -44.2418212890625 30.5503597259521484
-5.26927995681762695 -16.255584716796875 0.890808701515197754
-5.11678266525268555 -64.2330169677734375 20.7291622161865234
-4.5748143196105957 -4.43269681930541992 -1.00720858573913574
-1.57703185081481934 -61.0503273010253906 -14.164668083190918
1.6142575740814209 -36.1843833923339844 -25.4311294555664062
-1.46884310245513916 31.582275390625 7.42145252227783203
-1.93022894859313965 -66.9268264770507812 -5.00859260559082031
2.79731392860412598 26.3344631195068359 5.82690191268920898
0.82584691047668457 -42.0941543579101562 -24.814056396484375
-2.70274877548217773 -39.0054931640625 28.0074596405029297
1.61110115051269531 -17.2515392303466797 -11.6638860702514648
-4.08203125 -18.8461685180664062 11.9246978759765625
-4.11583471298217773 -20.4024505615234375 10.4341211318969727
-6.16998529434204102 -12.4327402114868164 8.66130447387695312
-1.52665472030639648 -44.1827850341796875 31.8306827545166016
2.18022251129150391 -39.3058586120605469 30.2919788360595703
4.05348491668701172 -4.00207853317260742 -10.4096059799194336
3.82532358169555664 1.15684163570404053 -0.460626572370529175
-0.549134492874145508 53.6450462341308594 1.59969687461853027
1.58904695510864258 -62.4634437561035156 -4.10717439651489258
1.34163033962249756 -24.9326000213623047 -21.0853557586669922
-4.18470621109008789 -1.08330428600311279 -3.21098470687866211
0.49264603853225708 44.3069343566894531 5.339263916015625
-0.624182820320129395 13.3468227386474609 -1.03111910820007324
5.07440662384033203 -1.3661201000213623 -5.65866899490356445
1.08226299285888672 30.44586181640625 -6.13138961791992188
-1.25586771965026855 -25.3066768646240234 -25.6686916351318359
2.84713363647460938 36.9479866027832031 -2.73289775848388672
3.00189733505249023 42.4299278259277344 -2.51458096504211426
-3.32535862922668457 9.84975337982177734 5.36635541915893555
-0.339460879564285278 3.73165988922119141 12.5428247451782227
3.23324441909790039 -27.3180065155029297 1.4314807653427124
0.977682173252105713 -63.5093536376953125 -1.10150039196014404
-1.78784453868865967 -40.0556793212890625 -29.064056396484375
-0.544300556182861328 70.7878036499023438 1.05119597911834717
-1.44552791118621826 -12.6746053695678711 21.2149314880371094
-2.40819692611694336 -31.80242919921875 26.5827102661132812
-3.15204024314880371 -17.3990325927734375 -20.2514457702636719
-2.14844965934753418 16.2672233581542969 8.61333465576171875
1.33458030223846436 -19.9499607086181641 -16.9140796661376953
2.43695306777954102 -44.4395980834960938 1.05803775787353516
0.81686699390411377 66.9893798828125 -5.23549938201904297
-5.76279973983764648 -32.49139404296875 27.6736183166503906
-1.09866034984588623 57.0823593139648438 -3.82335400581359863
-5.37837886810302734 -55.0792312622070312 -23.5057907104492188
-4.51363182067871094 -8.0783538818359375 -5.11692237854003906
-2.2825472354888916 78.070770263671875 -3.36547374725341797
-2.6945655345916748 -18.8808975219726562 24.4637432098388672
3.08289813995361328 64.3224563598632812 6.06740951538085938
-1.36105859279632568 81.5311431884765625 -3.43249797821044922
-5.16485214233398438 -38.081939697265625 2.30456376075744629
-4.75572538375854492 -39.983856201171875 -28.5797500610351562
-0.324456244707107544 -67.0114974975585938 -5.28699064254760742
0.573394119739532471 48.608489990234375 7.52940130233764648
0.0420989282429218292 -13.8076639175415039 -17.8238792419433594
0.828630805015563965 -49.0566787719726562 -4.30166149139404297
2.52298092842102051 44.547637939453125 5.22019863128662109
2.32348465919494629 22.1561431884765625 3.79107880592346191
-4.26240158081054688 -50.5182380676269531 -22.0119113922119141
-2.14754414558410645 -64.0560531616210938 4.35273551940917969
1.88017797470092773 17.9501209259033203 4.20247888565063477
0.927076458930969238 -35.2228507995605469 28.2684955596923828
-1.3006436824798584 -0.529230117797851562 13.5343399047851562
-5.49122095108032227 -51.3004150390625 6.04253864288330078
4.40382671356201172 -17.8771438598632812 -2.76765632629394531
3.79577851295471191 4.12935018539428711 8.41720962524414062
0.220649793744087219 -35.9232864379882812 -5.21138763427734375
-0.159973770380020142 55.8786735534667969 5.73667001724243164
4.13961887359619141 -4.88385391235351562 7.95875120162963867
-1.71508634090423584 33.8206634521484375 -5.99885463714599609
2.6234433650970459 44.1306076049804688 -2.18806862831115723
-4.27312040328979492 -22.7675094604492188 27.1103420257568359
0.347261726856231689 -22.9680366516113281 8.91452407836914062
2.68859601020812988 20.3362827301025391 -4.15992212295532227
-2.1458427906036377 -63.0160903930664062 -19.6250076293945312
2.13727355003356934 9.31643390655517578 9.43671035766601562
-5.6116795539855957 -57.0567169189453125 -23.0182132720947266
-1.84768164157867432 -66.9497528076171875 13.1720075607299805
0.0777671113610267639 -26.8058433532714844 29.3565521240234375
-5.707305908203125 -24.8872814178466797 23.2972984313964844
2.53238177299499512 -39.917724609375 -27.9513893127441406
1.30291581153869629 -56.6858596801757812 6.98529672622680664
-5.09920215606689453 -29.8638381958007812 2.30518364906311035
3.86481928825378418 -3.92895698547363281 6.92179965972900391
-2.61770534515380859 -38.167724609375 9.15090751647949219
-3.8798985481262207 -28.2255687713623047 -24.7198448181152344
0.9750022292137146 -28.9641685485839844 30.18914794921875
-5.1459345817565918 -38.2513618469238281 2.63982725143432617
-5.45112848281860352 -48.5958366394042969 30.2348537445068359
0.554827988147735596 -54.1247482299804688 -21.4263858795166016
0.239648759365081787 -47.0085067749023438 27.5625801086425781
-0.508655428886413574 -40.2712860107421875 32.2003097534179688
1.77295136451721191 -59.7680473327636719 6.58130359649658203
-2.71895170211791992 -58.3572273254394531 -15.4790010452270508
0.942625284194946289 43.7824172973632812 5.71503496170043945
-5.67384910583496094 -29.1027870178222656 4.31657648086547852
-0.168501004576683044 32.03289794921875 -6.19629287719726562
-4.02656269073486328 -9.42858219146728516 -8.4298858642578125
3.08947348594665527 -11.4665746688842773 0.86412501335144043
2.57900619506835938 26.1644535064697266 -4.62692594528198242
-1.18906164169311523 -62.287841796875 23.6973342895507812
0.146362721920013428 -33.2381248474121094 8.90750026702880859
1.65033316612243652 -66.001434326171875 -7.89383363723754883
3.51998138427734375 86.574005126953125 -0.681192636489868164
3.6528167724609375 5.53723287582397461 6.15695476531982422
-2.93717575073242188 4.93814897537231445 2.8584742546081543
-3.07172656059265137 81.4407958984375 -5.55454063415527344
-0.972282171249389648 34.7996597290039062 3.78577303886413574
1.80261695384979248 -16.4516983032226562 22.5632076263427734
-0.844810187816619873 26.0752735137939453 9.11034107208251953
-5.49186944961547852 -24.5527400970458984 3.88048553466796875
-4.47573280334472656 -47.1677665710449219 -26.1413593292236328
-1.98389554023742676 -27.6537723541259766 29.7814006805419922
-1.96041727066040039 19.2041797637939453 8.86321067810058594
-2.31489849090576172 30.5872783660888672 -0.739226341247558594
1.84588205814361572 17.8763160705566406 5.37132072448730469
-4.28835582733154297 -11.8717775344848633 -4.69445323944091797
-2.00070333480834961 -44.216064453125 -5.22145843505859375
-4.87230348587036133 5.92608499526977539 9.84903812408447266
-1.38776159286499023 22.3430252075195312 -5.80475378036499023
2.19437694549560547 -20.5215396881103516 -17.9843730926513672
4.49984836578369141 -11.186431884765625 -6.58774852752685547
-4.47986173629760742 -66.7386550903320312 -8.11055088043212891
3.49635434150695801 -24.7836170196533203 -24.2596149444580078
0.0585986338555812836 62.8056526184082031 3.21960067749023438
-0.18930208683013916 14.3901529312133789 8.8100433349609375
0.767690896987915039 -55.8899765014648438 24.4487743377685547
-4.52404165267944336 -19.5683250427246094 -3.04468655586242676
3.80512714385986328 -9.77514362335205078 3.55661606788635254
-2.65525031089782715 29.1543197631835938 -0.894475102424621582
-2.53667211532592773 -39.5002021789550781 -5.2537379264831543
4.48537635803222656 -15.1795072555541992 -16.1339321136474609
1.07790970802307129 93.7566604614257812 1.20688056945800781
-0.418255060911178589 44.8086776733398438 -5.47837972640991211
-3.9042656421661377 -63.697662353515625 14.8565216064453125
-1.84379637241363525 -41.0003433227539062 8.80247974395751953
-4.11035728454589844 -53.3500099182128906 -20.0353431701660156
0.920504212379455566 -16.0906009674072266 -19.4721202850341797
1.23878157138824463 44.3588752746582031 -5.39492559432983398
-4.06057500839233398 -8.10640621185302734 -13.4770822525024414
3.84345841407775879 -10.7893877029418945 14.402836799621582
-6.03830480575561523 -4.59950876235961914 4.73778533935546875
0.355257928371429443 -55.4516677856445312 -25.0536022186279297
2.753692626953125 -18.5355644226074219 19.9776439666748047
0.307185709476470947 88.424774169921875 0.332563281059265137
2.75668168067932129 -55.0966339111328125 4.03014421463012695
2.90502285957336426 57.6918449401855469 5.30607271194458008
-4.28140974044799805 -64.3301162719726562 -3.6346592903137207
-1.20966947078704834 75.812347412109375 -4.9625239372253418
3.07684111595153809 60.7632675170898438 1.96535134315490723
4.11632108688354492 -9.01991558074951172 9.43886756896972656
-2.85981941223144531 -23.7124366760253906 21.7953529357910156
-0.795077741146087646 20.7502021789550781 -5.26860380172729492
-1.47106659412384033 -49.4540939331054688 30.6950473785400391
-5.08335304260253906 -50.2753639221191406 3.81142497062683105
-3.49982619285583496 -66.9682846069335938 -6.52126502990722656
-0.860462784767150879 13.7005023956298828 -6.34303474426269531
-2.77088022232055664 -36.6036605834960938 -5.10269260406494141
-3.85206985473632812 -56.0783882141113281 22.1479682922363281
-4.39305591583251953 -64.1134567260742188 21.0500946044921875
-4.29539918899536133 -2.05475473403930664 -4.97112512588500977
2.57548880577087402 45.1454048156738281 6.95006227493286133
-3.19471502304077148 9.24566745758056641 3.93792390823364258
-0.939308702945709229 18.0946903228759766 -2.91289806365966797
-0.818509936332702637 43.9475784301757812 4.24213218688964844
1.93233466148376465 -17.2533893585205078 23.1137142181396484
3.6156163215637207 25.99053955078125 3.04480886459350586
-2.5834660530090332 29.4723625183105469 -1.08030641078948975
-0.995303869247436523 -22.7095527648925781 -19.8909206390380859
2.44085597991943359 37.8858489990234375 2.07339286804199219
3.90974640846252441 86.9823455810546875 1.6068798303604126
-2.6493229866027832 -56.4997062683105469 -24.6249160766601562
2.90714120864868164 -51.57073974609375 -0.960598528385162354
-0.938130557537078857 52.2623291015625 -1.41799890995025635
2.08546710014343262 -26.5779953002929688 25.8136024475097656
-1.71367955207824707 89.5286026000976562 -2.87569975852966309
-6.07676076889038086 -64.6956329345703125 17.1397418975830078
3.23846435546875 -16.9637832641601562 1.94800317287445068
-5.48452043533325195 -38.6788711547851562 6.43730497360229492
-1.19531595706939697 49.3980522155761719 -5.83322620391845703
2.76095962524414062 -28.8347339630126953 6.85878705978393555
1.31808257102966309 7.49752998352050781 5.66923809051513672
1.01373422145843506 98.6329116821289062 -1.78874731063842773
2.95640873908996582 59.6545753479003906 2.26866984367370605
-2.72054791450500488 -51.6609153747558594 24.9124851226806641
2.95392799377441406 -52.2218284606933594 3.99183082580566406
-4.80838298797607422 -33.6257820129394531 27.5458011627197266
-4.7330780029296875 -45.7542686462402344 -28.0665435791015625
-5.41823244094848633 -25.0197048187255859 -1.09959471225738525
-2.14255261421203613 -50.0293807983398438 -5.02765703201293945
-2.68548011779785156 -61.0089225769042969 -6.81699943542480469
-5.55375385284423828 -11.3431978225708008 1.69717931747436523
-0.370342671871185303 70.184967041015625 1.92929756641387939
-1.97340619564056396 32.438995361328125 -5.62660026550292969
4.5667414665222168 -14.6671772003173828 -1.4356529712677002
-4.5135955810546875 -59.2049713134765625 10.7540979385375977
-4.46926164627075195 -57.7647590637207031 20.9430713653564453
-0.261947840452194214 49.5996589660644531 5.53134584426879883
5.2693171501159668 -3.3705756664276123 -6.49522686004638672
1.54673027992248535 8.55706882476806641 -0.834945261478424072
-5.13073396682739258 -17.3675823211669922 12.3499279022216797
2.52810215950012207 40.286285400390625 1.1536715030670166
-2.08347034454345703 -61.492340087890625 -21.1901969909667969
-4.36737442016601562 -11.181675910949707 -13.7575368881225586
-0.828443467617034912 -40.2271232604980469 8.45571994781494141
-6.45868825912475586 -1.6853020191192627 8.02345085144042969
-5.62795162200927734 -1.68335807323455811 5.41587018966674805
3.58548402786254883 25.0032005310058594 3.63092684745788574
-3.51329612731933594 -65.8447036743164062 15.413142204284668
-4.18267679214477539 -53.4082603454589844 -3.03135776519775391
3.29043793678283691 42.5981826782226562 1.79112505912780762
-1.54982089996337891 28.9997711181640625 5.41298532485961914
-0.544790565967559814 -48.628387451171875 -27.7366867065429688
2.45788741111755371 65.5919418334960938 -3.84589457511901855
-2.39803338050842285 89.3726882934570312 -3.62120795249938965
2.62212181091308594 48.2656478881835938 -2.72768712043762207
-2.66251802444458008 -41.5478591918945312 -28.9403762817382812
-3.01101970672607422 6.98025083541870117 -1.7595895528793335
-2.45323705673217773 8.92490863800048828 -0.895621716976165771
-0.163374274969100952 84.7645034790039062 -1.98937451839447021
1.1707223653793335 -28.74908447265625 -23.163330078125
-5.85830116271972656 -43.8124504089355469 -0.104738205671310425
1.12331056594848633 -60.5421180725097656 24.787933349609375
2.14455008506774902 -49.07623291015625 -26.4590015411376953
3.35666060447692871 -29.4144172668457031 -3.51648235321044922
2.88635444641113281 50.8588981628417969 0.696782588958740234
-4.40907049179077148 -3.05605387687683105 -5.77030563354492188
-5.36573123931884766 -59.1785774230957031 25.5674533843994141
-0.511899709701538086 -3.77918243408203125 14.6037683486938477
0.176147013902664185 -8.96576595306396484 17.1874256134033203
3.27957749366760254 -9.40429210662841797 2.44943976402282715
-3.97280383110046387 -53.2511978149414062 8.45074176788330078
-0.925184845924377441 19.5423469543457031 -2.54434561729431152
-1.27858543395996094 -28.3803272247314453 -5.69236421585083008
0.723513364791870117 -53.3207893371582031 -22.1261825561523438
1.94493937492370605 -58.4937057495117188 -2.25654172897338867
1.34919977188110352 -22.5524444580078125 -19.3792266845703125
-1.84745621681213379 -33.2571830749511719 -28.4803924560546875
3.1657869815826416 -17.6265087127685547 -15.5705671310424805
3.99823260307312012 -15.7318058013916016 -0.101397305727005005
-4.38252973556518555 74.5699844360351562 -4.17921161651611328
-2.71233177185058594 29.5611152648925781 -1.79467618465423584
2.74590826034545898 50.675201416015625 -2.52072501182556152
-3.33223438262939453 -23.9092597961425781 -24.8799076080322266
2.08655333518981934 32.0710334777832031 -5.34286689758300781
-1.03180480003356934 6.56651639938354492 2.46921563148498535
-0.790585935115814209 -21.45306396484375 -18.7681789398193359
-0.594261050224304199 44.4356269836425781 0.564892768859863281
-1.77014148235321045 -42.901702880859375 8.70573902130126953
-2.31559395790100098 -18.2645587921142578 -17.6360740661621094
4.17893314361572266 -7.20783758163452148 8.66271686553955078
-1.40168166160583496 -0.414613991975784302 13.4871654510498047
3.97178363800048828 -30.7829608917236328 -2.11822223663330078
-5.44118070602416992 -23.7916641235351562 6.11901330947875977
-4.08246374130249023 -53.7223167419433594 29.0477523803710938
-0.163661032915115356 -22.9000930786132812 -6.17823886871337891
-0.417013585567474365 48.2404136657714844 -4.07085895538330078
2.43610835075378418 -26.4032726287841797 -22.6447372436523438
2.8970646858215332 -35.8480644226074219 2.09340739250183105
3.86617541313171387 -25.0106487274169922 0.0977210849523544312
1.65577685832977295 -31.2263507843017578 30.7416267395019531
-0.996084094047546387 56.2923774719238281 -4.04169273376464844
3.3163304328918457 64.752166748046875 -0.762272953987121582
2.31358575820922852 -59.0792694091796875 5.21047067642211914
-5.02364015579223633 -6.6131596565246582 0.858203768730163574
-4.08691167831420898 6.40671157836914062 5.21045064926147461
-1.52597308158874512 76.9112091064453125 -4.88471555709838867
2.64959883689880371 35.9595260620117188 6.25592756271362305
-2.59284520149230957 6.99396610260009766 2.22101521492004395
-0.707743704319000244 -56.4897270202636719 27.9053134918212891
3.51834273338317871 -0.948073327541351318 7.35800075531005859
-1.93032145500183105 24.6394062042236328 8.55935955047607422
0.273970484733581543 -34.05560302734375 -28.5520210266113281
-3.22943735122680664 7.43352127075195312 11.4701175689697266
2.53142428398132324 -47.2650184631347656 6.21367549896240234
2.66308093070983887 -55.6344108581542969 4.58603191375732422
-3.93309187889099121 1.68849539756774902 -2.69647026062011719
-6.5345306396484375 -5.08831930160522461 6.0319666862487793
-0.895454049110412598 -52.3353767395019531 25.2969627380371094
-4.96543741226196289 -42.1172828674316406 -27.8695583343505859
-4.81745433807373047 -26.2510356903076172 -2.65965890884399414
-5.75084400177001953 -5.84439563751220703 13.2828540802001953
1.90023458003997803 38.5541152954101562 -4.63788270950317383
-2.49607396125793457 30.6518726348876953 -3.17472004890441895
-3.84059834480285645 -56.25885009765625 -24.6679191589355469
-4.46816349029541016 -44.9966697692871094 -26.8103141784667969
-0.575987458229064941 39.7008857727050781 -5.83207845687866211
-0.144564032554626465 75.37158203125 1.86498343944549561
-5.35184907913208008 -33.8036994934082031 3.9077451229095459
-4.96128416061401367 -63.6200141906738281 -18.5284671783447266
3.84225559234619141 -17.9135189056396484 -17.2950630187988281
-0.560330331325531006 -22.9193687438964844 21.6717433929443359
1.79160034656524658 65.4316558837890625 -4.63380765914916992
-0.345218390226364136 65.4315414428710938 -1.47899925708770752
-5.73467779159545898 -44.08709716796875 -0.678216278553009033
-0.439760148525238037 55.5742912292480469 1.28885054588317871
-0.429986000061035156 56.0714683532714844 -0.314760059118270874
-1.03442943096160889 -38.7463035583496094 -23.7676315307617188
-3.83570456504821777 -62.23968505859375 -10.6303243637084961
-4.92016696929931641 -54.4080696105957031 -21.2256698608398438
2.82557845115661621 19.5904712677001953 -3.03105425834655762
-2.50827193260192871 -21.6073455810546875 9.73790264129638672
-5.65113162994384766 -49.0487403869628906 5.03586101531982422
-1.75450980663299561 -48.2960243225097656 26.5325832366943359
-0.4706401526927948 66.9883956909179688 1.01961112022399902
-0.147281944751739502 -4.42370891571044922 -12.3473091125488281
0.839129209518432617 8.79036331176757812 11.8002471923828125
-2.70599460601806641 -34.5891151428222656 -28.7511634826660156
3.47847247123718262 -17.0444049835205078 21.5069808959960938
1.88733839988708496 0.304872721433639526 3.24071884155273438
2.95198273658752441 41.7211532592773438 0.611701250076293945
4.23172950744628906 -7.3126225471496582 7.54198598861694336
-0.657510280609130859 74.9954376220703125 -3.76236391067504883
-5.21870708465576172 -56.1094093322753906 2.1525871753692627
-2.89875125885009766 84.3871231079101562 -4.64912605285644531
-4.9456024169921875 -64.26324462890625 20.7822971343994141
4.52619791030883789 -8.26104736328125 -1.67085981369018555
-0.920512676239013672 -31.4472160339355469 -28.0643939971923828
1.06662416458129883 -23.5469989776611328 -19.9884510040283203
-5.39618396759033203 -63.8685684204101562 -12.8881492614746094
-5.30828475952148438 -21.5504970550537109 22.7087974548339844
3.90697193145751953 -35.4134445190429688 -0.465795397758483887
-4.22134685516357422 -26.799102783203125 -24.9985942840576172
3.30130720138549805 85.3596420288085938 -1.18896818161010742
-2.15162491798400879 -34.5334396362304688 -24.1556110382080078
3.14368748664855957 74.7836456298828125 5.70572757720947266
3.25640225410461426 -2.00244975090026855 12.57391357421875
-3.71753191947937012 -5.93498516082763672 15.276153564453125
0.00760631449520587921 53.6827163696289062 -5.75194168090820312
-0.820616185665130615 -42.5494842529296875 27.893951416015625
-0.261944741010665894 -58.4683799743652344 -23.4180335998535156
0.642709434032440186 47.9360389709472656 -5.74830818176269531
-1.87900137901306152 -52.2013435363769531 -19.6845703125
-4.73791408538818359 -40.5626106262207031 7.58262491226196289
-1.19528079032897949 82.7670211791992188 -3.62351655960083008
-5.59872055053710938 -38.5337066650390625 4.30697298049926758
0.196499034762382507 -2.51006817817687988 -11.7927017211914062
0.774443089962005615 0.760639429092407227 -10.6258134841918945
3.65930318832397461 80.1333389282226562 4.69800090789794922
-4.26071691513061523 -11.1129770278930664 -15.5980806350708008
-2.57199001312255859 -13.5369501113891602 -9.23438644409179688
-5.4607696533203125 -53.6655387878417969 -0.739099025726318359
3.28969216346740723 -30.9241256713867188 2.45488905906677246
-3.83160853385925293 -28.7463245391845703 29.9318752288818359
3.60622692108154297 -15.5272989273071289 18.2599945068359375
-1.95014917850494385 -46.9719276428222656 -28.1711215972900391
1.87634921073913574 9.30351543426513672 9.27354526519775391
-0.980765640735626221 -65.85528564453125 18.0789947509765625
1.26143336296081543 -45.5932044982910156 31.2811279296875
-4.56634712219238281 -46.0693778991699219 7.85242652893066406
-4.14896440505981445 -44.2467613220214844 -28.4885692596435547
0.679663717746734619 91.5903778076171875 -0.98578566312789917
1.48932373523712158 -48.5725250244140625 28.3232212066650391
2.38936161994934082 -16.5931968688964844 10.7154932022094727
4.73905706405639648 -0.792564868927001953 -7.50581836700439453
-0.245257511734962463 -62.7156944274902344 14.7771940231323242
-5.64233064651489258 -37.3976173400878906 4.40316438674926758
-3.0952913761138916 75.4933242797851562 -3.38023185729980469
-3.98141121864318848 -52.0453987121582031 -26.5391635894775391
-2.09849810600280762 -61.9542274475097656 16.4475631713867188
3.13988494873046875 -45.2266502380371094 5.19178152084350586
2.15871787071228027 48.9973678588867188 7.58153247833251953
-3.51404070854187012 -39.3611602783203125 31.4298744201660156
-4.57992696762084961 -42.0080146789550781 -27.5417709350585938
-4.18590688705444336 -28.0976505279541016 -25.5108928680419922
-3.71290063858032227 -46.2260055541992188 -28.1670722961425781
0.698195695877075195 89.5642776489257812 5.18631935119628906
3.83488941192626953 -21.6445808410644531 3.27271676063537598
1.28516578674316406 46.7703132629394531 6.03967618942260742
-4.13788080215454102 -2.22475981712341309 -0.921503424644470215
1.78099656105041504 14.9356479644775391 4.67352724075317383
4.16141366958618164 -7.9780573844909668 6.46020317077636719
-1.32706034183502197 44.6460494995117188 -6.15338945388793945
-5.68685483932495117 -58.9906120300292969 -21.3080692291259766
-0.367462396621704102 -11.1448221206665039 19.4513149261474609
0.151715576648712158 -65.0667037963867188 -2.20112967491149902
1.06767356395721436 -60.242584228515625 21.1967601776123047
-1.95560002326965332 31.2871627807617188 -4.65202188491821289
2.9741661548614502 97.7842483520507812 -0.143428400158882141
2.91144585609436035 21.6245918273925781 3.06639266014099121
-1.83507835865020752 18.5275325775146484 8.96419429779052734
-3.14191031455993652 -23.6777477264404297 -21.9660549163818359
-3.87174057960510254 -42.5240325927734375 8.58747386932373047
-4.61067628860473633 -19.0196323394775391 11.2772960662841797
-5.41904163360595703 -58.5869140625 6.77878999710083008
-0.443069726228713989 74.1706085205078125 4.80009031295776367
2.17482781410217285 83.669677734375 -2.62277960777282715
1.29837846755981445 -66.062469482421875 7.12336492538452148
-3.51686334609985352 6.39182806015014648 11.5424737930297852
1.70785641670227051 9.92708969116210938 -6.74411582946777344
-2.64527201652526855 -52.745574951171875 -19.3825016021728516
-4.3964080810546875 -12.5501804351806641 -15.0332803726196289
0.920799970626831055 55.9815864562988281 4.5678706169128418
2.71057820320129395 39.4147872924804688 -3.58394503593444824
-0.959767639636993408 20.5529994964599609 -5.83958530426025391
1.92366158962249756 19.0493755340576172 2.26436710357666016
-0.86810225248336792 -16.8798542022705078 23.4574737548828125
-0.0920539200305938721 -62.112274169921875 12.3055562973022461
4.17750310897827148 -12.4401817321777344 -15.1052331924438477
-5.56970357894897461 -17.0346317291259766 11.5843429565429688
3.96893882751464844 -30.1703128814697266 3.9594423770904541
4.20251321792602539 -15.5143976211547852 -4.43600082397460938
-1.60085368156433105 8.02552032470703125 -6.84019279479980469
1.53042876720428467 -18.0388584136962891 17.4334850311279297
-2.7815392017364502 -9.48933029174804688 17.7874851226806641
-2.56994938850402832 73.47784423828125 -4.73049497604370117
-1.86472511291503906 30.8323936462402344 1.97091388702392578
3.16586470603942871 -18.9791336059570312 1.31298828125
-5.13612937927246094 -53.98480224609375 27.4604778289794922
-2.58886480331420898 8.84582710266113281 -2.90690326690673828
-3.84019303321838379 -4.84794139862060547 -11.7906465530395508
2.69222617149353027 -40.6378860473632812 6.47716999053955078
-0.336155712604522705 10.6182088851928711 -6.51424074172973633
3.46356654167175293 74.5281829833984375 5.13060426712036133
-0.711114287376403809 -23.1341037750244141 9.125030517578125
-5.53022384643554688 -1.9020310640335083 11.939910888671875
-4.15168619155883789 -14.466212272644043 22.3603420257568359
-0.862091422080993652 20.8688545227050781 -5.7680206298828125
-0.975567758083343506 13.9288520812988281 3.73492550849914551
-5.52321767807006836 -27.7732181549072266 5.71304082870483398
-4.23158979415893555 -32.1600532531738281 -26.4949378967285156
1.52420651912689209 -41.6533012390136719 7.55236196517944336
-5.57734441757202148 -52.7944221496582031 -0.482913821935653687
-0.929997503757476807 11.6593294143676758 3.28574895858764648
-1.26276051998138428 73.955780029296875 4.09001779556274414
3.51464486122131348 -43.3603363037109375 -0.496464431285858154
1.87999641895294189 -65.476043701171875 8.78768253326416016
-4.97484016418457031 -63.7313117980957031 16.0523147583007812
-0.440234065055847168 -62.4824447631835938 -10.7773828506469727
1.81417548656463623 -62.2462654113769531 7.37165927886962891
-2.32859158515930176 -38.3807449340820312 -5.31234121322631836
-5.10693979263305664 -59.0353507995605469 24.4369602203369141
-0.261034697294235229 46.4961662292480469 6.72298955917358398
-0.30855908989906311 -57.4539527893066406 -4.53568601608276367
2.77388429641723633 27.5651168823242188 6.06315279006958008
-1.66469037532806396 -54.9329948425292969 28.6676597595214844
2.43027281761169434 75.0124130249023438 -3.59542942047119141
1.1970900297164917 35.1986618041992188 8.2499237060546875
-5.13576412200927734 2.89152383804321289 10.762507438659668
-0.131393268704414368 -44.7289085388183594 -28.5423297882080078
-6.27323055267333984 -8.33371067047119141 4.11759281158447266
0.533927023410797119 55.01531982421875 -5.54578161239624023
-4.98033666610717773 -57.6442031860351562 -21.1931381225585938
-3.14085721969604492 83.2688522338867188 -4.80341148376464844
3.95374178886413574 -11.3973236083984375 4.09713983535766602
-5.08552265167236328 -30.7137336730957031 2.23150920867919922
-6.30657243728637695 -1.52151691913604736 7.36680316925048828
0.601837873458862305 -31.1146106719970703 30.8798942565917969
-0.435107916593551636 56.6860389709472656 -1.37163746356964111
-1.83424651622772217 12.541834831237793 7.16222953796386719
-5.17352390289306641 -18.9498214721679688 10.6814823150634766
-3.09143424034118652 10.4402294158935547 5.71519994735717773
-1.07975423336029053 32.8756217956542969 1.96938979625701904
-3.53480172157287598 -33.7551841735839844 -28.5270519256591797
-0.921216130256652832 -13.9410314559936523 -17.9237403869628906
-2.83901333808898926 28.2858467102050781 -1.14166343212127686
4.15556049346923828 -7.95431041717529297 -0.47011256217956543
0.588901758193969727 -20.9184684753417969 -17.6639480590820312
-3.82528471946716309 -30.7007255554199219 25.6713008880615234
-1.44595158100128174 -47.6688041687011719 26.8643436431884766
3.49684524536132812 -38.1018486022949219 5.17482137680053711
-4.68826770782470703 -59.6360511779785156 -18.9551067352294922
-4.87173700332641602 -65.1307754516601562 19.3565692901611328
-4.49976825714111328 -40.1249618530273438 -2.858856201171875
-4.84052944183349609 -25.7205848693847656 28.532684326171875
1.92560362815856934 66.0344924926757812 -4.47030067443847656
3.63784193992614746 76.48895263671875 -0.985358178615570068
-0.621894538402557373 -27.6843070983886719 8.81413650512695312
-4.68955707550048828 -62.3583412170410156 -19.9631061553955078
-4.38412237167358398 -0.269842416048049927 3.90191531181335449
-1.40036845207214355 18.1168766021728516 6.58502006530761719
-5.72677993774414062 -40.219635009765625 -0.829356074333190918
-5.24644994735717773 4.82127046585083008 8.29857254028320312
-0.578371286392211914 -30.1865615844726562 30.7152862548828125
1.88359999656677246 -49.6436843872070312 -3.4747169017791748
3.19866085052490234 -20.2185306549072266 1.26980304718017578
-1.16522347927093506 40.3727798461914062 5.8933415412902832
-0.188011065125465393 11.0093374252319336 8.73719978332519531
3.73294544219970703 -16.0740108489990234 -5.65384244918823242
-3.9004814624786377 -34.0163955688476562 8.43563175201416016
-1.56406092643737793 76.293914794921875 -4.88464450836181641
-1.53742194175720215 -63.1896095275878906 22.6033859252929688
2.10093903541564941 24.5597953796386719 -5.99702215194702148
1.32281684875488281 -61.7325057983398438 -20.1855525970458984
-3.6584932804107666 -60.6777839660644531 24.9165267944335938
1.6704782247543335 7.85477972030639648 6.35330677032470703
3.05714011192321777 -30.1680622100830078 1.56737697124481201
-4.65751361846923828 -22.5023517608642578 26.8334865570068359
-3.05751872062683105 -22.4762916564941406 -5.55466318130493164
-5.00148391723632812 -62.3140869140625 -1.55434763431549072
-0.0334532558917999268 77.1129684448242188 2.2095034122467041
2.56938838958740234 -29.4039573669433594 29.2401676177978516
-1.52684760093688965 -63.1639175415039062 3.40166568756103516
-5.13664054870605469 -23.5617771148681641 2.49376487731933594
1.72008645534515381 39.1207923889160156 8.03488731384277344
-4.8133854866027832 -8.30987644195556641 11.9852123260498047
-2.28174352645874023 3.21326947212219238 -9.23986434936523438
1.6171189546585083 9.90618515014648438 0.817071378231048584
2.00906777381896973 -54.4695930480957031 -2.66963076591491699
-1.37322020530700684 -36.5826797485351562 9.23401737213134766
1.84366154670715332 82.5848007202148438 -3.79812908172607422
-0.558564901351928711 -36.7083663940429688 8.98480796813964844
-0.901341557502746582 -43.1092872619628906 -5.17688560485839844
0.408025771379470825 95.0582809448242188 1.495094895362854
4.64188003540039062 -10.674738883972168 -7.55218315124511719
-1.74726533889770508 10.2445516586303711 -0.590345382690429688
-5.67072725296020508 -47.897064208984375 4.93082904815673828
-6.2145380973815918 -11.6327733993530273 8.22414875030517578
-3.27855730056762695 3.15149927139282227 -7.75980949401855469
1.79677796363830566 11.7780523300170898 -2.68329358100891113
4.05214023590087891 -27.6013908386230469 -0.151557788252830505
-3.01235747337341309 66.396636962890625 -3.91508626937866211
-5.24376440048217773 -38.0358314514160156 -2.02385854721069336
1.85189056396484375 -24.2535953521728516 -5.21473550796508789
3.73803472518920898 -20.7906417846679688 -3.8197634220123291
2.69249367713928223 26.14605712890625 6.25313711166381836
-0.950215578079223633 53.0289306640625 4.78628110885620117
-0.059769023209810257 -20.7203998565673828 20.2529201507568359
-2.80159473419189453 -24.6555824279785156 28.3370761871337891
-0.499461054801940918 48.1104774475097656 2.77624011039733887
3.56718850135803223 97.93707275390625 1.84972560405731201
1.673919677734375 97.74151611328125 -1.77031660079956055
0.0714112520217895508 -58.1852302551269531 -18.3835544586181641
2.24491667747497559 4.40707683563232422 3.45651888847351074
-4.26060342788696289 -29.2568130493164062 8.16387557983398438
0.890967428684234619 -62.6382980346679688 -0.485475927591323853
-3.76330780982971191 -30.1925716400146484 8.61921215057373047
-5.698944091796875 -61.927398681640625 -16.7431545257568359
-5.19003200531005859 -22.4704952239990234 2.54274129867553711
0.324527770280838013 100.17120361328125 0.772522389888763428
-4.7094879150390625 -0.311863064765930176 4.39025306701660156
-3.57361435890197754 -26.81781005859375 -26.3403301239013672
-1.57886993885040283 10.8877048492431641 -4.39138650894165039
0.111574672162532806 99.5738983154296875 0.912313103675842285
2.93451070785522461 52.6334648132324219 3.56222891807556152
-2.3439486026763916 -18.055145263671875 -16.3623104095458984
-4.28597688674926758 -3.83355903625488281 -7.85947084426879883
2.63430643081665039 37.8572540283203125 -1.53080618381500244
-5.38878393173217773 -33.6666908264160156 28.20867919921875
1.0583345890045166 81.3155136108398438 5.81073141098022461
2.10021018981933594 -42.5514030456542969 -28.2762374877929688
-6.17112350463867188 -1.20142519474029541 7.03668832778930664
-0.71204674243927002 36.5300521850585938 1.04643678665161133
-1.5145028829574585 -62.2087478637695312 -9.81554317474365234
-0.501417338848114014 42.4578437805175781 -4.89220046997070312
3.15156769752502441 -15.7104425430297852 1.5916215181350708
-0.607121825218200684 42.527374267578125 0.254610002040863037
4.02513027191162109 -11.4572086334228516 4.84351158142089844
-5.41383647918701172 -64.1256637573242188 -14.1769466400146484
-6.58165311813354492 -26.8689022064208984 27.1994342803955078
-3.04456496238708496 -58.3877220153808594 -15.0438289642333984
0.186177119612693787 -18.5892429351806641 17.6329097747802734
1.09237861633300781 -67.37115478515625 10.8027238845825195
0.0454512238502502441 -65.5217819213867188 -2.70524930953979492
-1.4050285816192627 -46.1624870300292969 31.4835739135742188
1.82886803150177002 -31.3629913330078125 -27.7376422882080078
-3.04982137680053711 -15.4915084838867188 -15.3726387023925781
-2.5730748176574707 -51.2671241760253906 30.1227245330810547
-0.896724522113800049 29.6270866394042969 8.56252384185791016
4.56395626068115234 -10.941370964050293 -7.80359840393066406
-6.33252382278442383 -1.76650118827819824 7.28297281265258789
3.80138874053955078 1.31386840343475342 -8.22469234466552734
0.566046059131622314 32.4475326538085938 8.39247417449951172
3.09082603454589844 -1.86344695091247559 -10.8207302093505859
-2.00692057609558105 -35.9267768859863281 -5.4217686653137207
-2.43659090995788574 28.4495582580566406 1.49696087837219238
3.49230051040649414 -26.6545619964599609 -24.9674549102783203
-0.26378902792930603 -18.3307838439941406 16.3824825286865234
3.33591461181640625 25.4327850341796875 -1.09506559371948242
0.574708223342895508 -39.7234039306640625 -24.5429267883300781
4.88558864593505859 -3.31070756912231445 -8.46875286102294922
-0.350770413875579834 63.6236763000488281 5.4423980712890625
-0.300153225660324097 -63.4976768493652344 -19.0076217651367188
2.1176457405090332 51.3028106689453125 7.36104297637939453
3.75373077392578125 -14.7346286773681641 -12.1333932876586914
-1.72378313541412354 -64.80731201171875 -17.3610210418701172
-0.878963291645050049 43.1132278442382812 3.55259966850280762
1.88025474548339844 -51.9570426940917969 -24.1022586822509766
-1.41137683391571045 14.1992168426513672 9.03658962249755859
-5.47547531127929688 -26.3020915985107422 0.00330400140956044197
0.347495704889297485 60.3461761474609375 3.64681863784790039
3.39499759674072266 -37.7692337036132812 5.4683837890625
-4.92252302169799805 -9.73547649383544922 0.0592816509306430817
-0.00903457403182983398 -25.8579502105712891 28.9872894287109375
1.37340152263641357 -19.5523643493652344 9.54783821105957031
-0.337093234062194824 14.19512939453125 -6.33810281753540039
0.0923348516225814819 81.68170166015625 -1.29226911067962646
-5.46472835540771484 -44.0927619934082031 -1.4085012674331665
4.32839584350585938 -11.8840751647949219 -8.62055683135986328
-0.07337980717420578 62.3558197021484375 5.85114192962646484
3.07872152328491211 46.6919784545898438 2.34845447540283203
0.734694600105285645 -63.4746780395507812 -9.04177284240722656
2.68411064147949219 -33.0411224365234375 6.83595705032348633
1.84684133529663086 15.2500209808349609 1.58147001266479492
-5.43272113800048828 -19.8124713897705078 5.917816162109375
-4.62251806259155273 -8.68868637084960938 -2.53966403007507324
3.7868497371673584 82.3737716674804688 0.31055682897567749
-0.534413158893585205 -47.2060089111328125 8.23685836791992188
-6.08469200134277344 -2.82784438133239746 5.81316995620727539
3.3173668384552002 -13.3951406478881836 -16.7981796264648438
-0.951152205467224121 -41.4694137573242188 27.9437274932861328
-3.87968850135803223 -61.6977500915527344 12.6224145889282227
-3.18350076675415039 -0.0663345828652381897 0.366415262222290039
-4.58698749542236328 -35.608184814453125 -28.4556293487548828
-4.27459478378295898 -1.96174073219299316 -4.62003421783447266
-5.34710407257080078 -23.9966869354248047 -1.29357516765594482
2.42795133590698242 -31.0718536376953125 28.7683010101318359
3.71838927268981934 -18.2022476196289062 -4.56032466888427734
2.04801297187805176 -13.0541982650756836 -17.0061244964599609
-3.3966681957244873 -17.3128719329833984 22.5642433166503906
2.46085429191589355 -19.0664749145507812 -6.17960166931152344
-2.32678341865539551 29.4405021667480469 0.769589722156524658
-4.34569835662841797 -9.71111202239990234 -12.4207839965820312
-4.45382452011108398 -15.0302820205688477 -18.3160209655761719
-5.84420680999755859 -7.46139669418334961 3.05264854431152344
-1.0456855297088623 35.938018798828125 4.02965879440307617
-2.21200823783874512 -58.3532447814941406 -23.5326099395751953
3.19558310508728027 -21.2517108917236328 -4.56268596649169922
4.50640678405761719 3.26139354705810547 -4.32656288146972656
2.69670772552490234 33.9259567260742188 3.71717000007629395
-4.77062273025512695 4.6358184814453125 10.7406673431396484
-2.11810541152954102 9.45630645751953125 0.952578067779541016
2.43204712867736816 37.6070671081542969 5.85199499130249023
-2.48346853256225586 -17.6941967010498047 -17.1044178009033203
0.480719983577728271 -44.6391181945800781 28.0931434631347656
2.40585541725158691 33.4615249633789062 -1.75186240673065186
2.60265302658081055 43.0443611145019531 3.69528293609619141
2.89398550987243652 53.8057861328125 1.40399837493896484
-2.16627907752990723 -16.8962841033935547 23.1906089782714844
-0.527415812015533447 12.4922056198120117 -3.2896728515625
-5.24309778213500977 -30.3014907836914062 0.80461883544921875
-3.39578914642333984 -65.3498001098632812 18.0422515869140625
-1.01154482364654541 -47.7566604614257812 -21.7943363189697266
-3.59830474853515625 -33.2591056823730469 -28.3903942108154297
1.9313277006149292 -20.5788097381591797 -6.02588558197021484
2.48778343200683594 -50.9578285217285156 5.93993663787841797
-5.22088384628295898 -53.5962600708007812 28.6751861572265625
0.594534754753112793 -46.7896804809570312 -23.8147544860839844
-5.06476736068725586 -55.5522575378417969 2.78686094284057617
-4.1501002311706543 -64.0749664306640625 13.1252946853637695
2.65777325630187988 -16.4908905029296875 16.7079296112060547
-5.59449052810668945 -59.5326995849609375 -20.4907093048095703
-4.05287694931030273 0.691843390464782715 -4.73124217987060547
-2.0958096981048584 32.6332740783691406 -5.94545412063598633
1.88329625129699707 15.8914785385131836 -0.993406832218170166
-0.90914839506149292 53.5226020812988281 5.19570159912109375
-1.15127837657928467 -65.3978958129882812 -2.47659778594970703
3.05953621864318848 82.80792236328125 -1.75585198402404785
0.667076766490936279 -8.64695072174072266 -14.2793455123901367
-4.88860177993774414 -34.9701004028320312 -27.9539833068847656
-5.34003543853759766 -61.7043075561523438 -7.44058084487915039
-0.326097846031188965 68.3517532348632812 5.23801469802856445
1.38071525096893311 2.32642936706542969 12.6272745132446289
1.0169748067855835 100.017295837402344 1.20225906372070312
-3.81080245971679688 -1.41217291355133057 -9.99192237854003906
-4.66704845428466797 -63.2647552490234375 -19.0168380737304688
2.68283319473266602 -39.7526283264160156 -27.3518161773681641
0.155828520655632019 -62.394073486328125 -7.22190952301025391
-0.949863731861114502 12.4830188751220703 3.5336449146270752
3.5753929615020752 0.899693489074707031 11.0972013473510742
2.17307114601135254 22.7525043487548828 7.23497152328491211
4.88842058181762695 -4.51749658584594727 -4.46314144134521484
-0.996195435523986816 40.6079483032226562 -6.35955238342285156
-2.36257839202880859 8.99557876586914062 -0.459081918001174927
-2.64274740219116211 -61.1711235046386719 12.8506736755371094
-1.76346111297607422 25.6934490203857422 5.14834356307983398
2.64300346374511719 27.5377063751220703 -3.52252006530761719
-3.67457365989685059 0.442706853151321411 -9.05141544342041016
-1.74068498611450195 -24.5571422576904297 -5.99127578735351562
2.21455049514770508 -41.9527816772460938 -26.3938312530517578
-0.649402499198913574 -62.1288566589355469 2.22426009178161621
-0.920237123966217041 -18.8019256591796875 17.6976528167724609
1.19717311859130859 -28.7515525817871094 -27.0081501007080078
-4.86802339553833008 -22.1424884796142578 22.1463813781738281
-3.25469636917114258 -28.9560661315917969 24.8319664001464844
-1.3265918493270874 -1.41919171810150146 13.752619743347168
0.493567556142807007 -56.2025985717773438 7.56421566009521484
-4.50512313842773438 -32.6053619384765625 -3.06754016876220703
0.0453469529747962952 50.4451713562011719 5.69680070877075195
-5.26943492889404297 -22.9327678680419922 -1.39980685710906982
-5.63469982147216797 -40.0955543518066406 6.12625503540039062
4.96918869018554688 0.288767874240875244 -4.16505765914916992
2.79479193687438965 78.4036483764648438 5.85231304168701172
-4.71770858764648438 -22.3326663970947266 9.00998878479003906
3.7885282039642334 -23.3673820495605469 -23.1527042388916016
1.87132859230041504 -61.7509422302246094 -2.58414244651794434
-3.89916133880615234 -54.9726448059082031 23.0273609161376953
3.10711979866027832 -8.31438255310058594 0.796574234962463379
3.53743100166320801 99.1419830322265625 1.64712858200073242
1.18868696689605713 -58.7109603881835938 26.1333999633789062
-4.28007173538208008 -8.19737529754638672 -13.1687030792236328
-3.85024118423461914 -0.366303741931915283 -8.61224555969238281
-0.940528810024261475 21.0192832946777344 -0.175672367215156555
-0.854753613471984863 24.1292877197265625 -4.45585536956787109
-5.58910465240478516 -56.6883201599121094 -22.9449920654296875
3.88251638412475586 -24.6594276428222656 5.05211257934570312
2.81522989273071289 86.4625396728515625 -1.40408647060394287
-4.57303428649902344 -6.99164056777954102 -1.96558952331542969
-2.7852931022644043 -54.1443824768066406 -4.83874845504760742
0.685367822647094727 -31.6362781524658203 27.2166996002197266
2.65665912628173828 -10.9028244018554688 -15.2713537216186523
2.75143671035766602 3.26374125480651855 -7.79167890548706055
-2.88431477546691895 -13.7033004760742188 -11.8152751922607422
-4.45508575439453125 -66.9565887451171875 9.73803806304931641
-5.42285919189453125 -39.4934120178222656 0.980651259422302246
-4.98250961303710938 -23.7443485260009766 -2.31201291084289551
-1.42179906368255615 27.9935436248779297 6.02514410018920898
3.00171065330505371 0.350510269403457642 6.23784065246582031
3.67822766304016113 92.9117660522460938 0.173846498131752014
-1.63721132278442383 30.8874683380126953 -5.74070835113525391
2.45862770080566406 101.749977111816406 0.77539592981338501
0.167420178651809692 -62.2077484130859375 0.26348412036895752
3.54826474189758301 -12.7938318252563477 0.216211214661598206
-5.1614375114440918 -59.7829246520996094 6.44656801223754883
0.165892675518989563 -28.1219234466552734 -22.515167236328125
-5.63314199447631836 -21.5734634399414062 25.5694313049316406
-4.36208677291870117 -42.1656303405761719 -25.5885410308837891
2.4644935131072998 65.0536117553710938 6.61290645599365234
1.77634060382843018 33.2291793823242188 -5.28702402114868164
-1.75826799869537354 21.4394493103027344 5.09833955764770508
1.43649327754974365 74.9887924194335938 6.07127475738525391
2.41464424133300781 43.8513374328613281 -3.22230100631713867
3.18482255935668945 -12.884312629699707 0.75881803035736084
0.4191569983959198 -67.3921585083007812 -9.96720218658447266
-4.51114225387573242 -65.6579132080078125 -13.5716304779052734
-4.91790342330932617 -36.9378776550292969 7.32375478744506836
2.93590712547302246 -36.1767463684082031 -3.51975536346435547
2.00117325782775879 60.9396324157714844 -3.91774630546569824
-4.10216236114501953 -49.8689956665039062 -3.02182221412658691
-4.81313323974609375 -28.2253189086914062 -2.66515374183654785
3.54054450988769531 67.5806503295898438 1.45368301868438721
-0.125495597720146179 -19.9610042572021484 25.4838371276855469
1.58660531044006348 24.9955101013183594 -6.24794912338256836
-5.44576692581176758 -22.2102947235107422 6.77524042129516602
-6.44854879379272461 -12.5708208084106445 7.29183864593505859
0.916841506958007812 -65.222869873046875 5.80351781845092773
-4.72874069213867188 -22.2091350555419922 9.05157756805419922
-0.888310074806213379 27.1601028442382812 8.93291187286376953
-4.56038427352905273 -11.3017864227294922 -3.61593914031982422
-3.13610935211181641 -66.8648681640625 -12.5099887847900391
-1.95906186103820801 -10.1228866577148438 18.6543407440185547
-1.14141678810119629 -64.8357772827148438 -17.3037281036376953
-5.15888357162475586 -66.0832443237304688 16.8925571441650391
-1.64845108985900879 19.103851318359375 -6.13233709335327148
-2.03085827827453613 -19.07415771484375 17.9736347198486328
1.16629970073699951 -17.5140876770019531 11.9965715408325195
-1.53402149677276611 20.4548206329345703 -6.18336677551269531
1.05687570571899414 -49.6136283874511719 -23.9192752838134766
2.41386771202087402 -43.8071937561035156 6.62045764923095703
-5.47410058975219727 -21.6497631072998047 6.6877741813659668
0.627901732921600342 27.8064041137695312 8.77071952819824219
3.63311004638671875 -21.4115333557128906 2.70212411880493164
