ply
format ascii 1.0
element vertex 778
comment vertices
property float x
property float y
property float z
end_header
-1.87463009357452393 97.2530670166015625 26.3707504272460938
-1.46078550815582275 -46.5409202575683594 16.855224609375
-2.4683685302734375 -43.0358085632324219 45.6523971557617188
-0.371714085340499878 -4.99752950668334961 -15.4702358245849609
-2.10720419883728027 -60.1018714904785156 -33.4643325805664062
-0.897827684879302979 95.3806610107421875 -22.9486217498779297
-0.661501646041870117 43.2035484313964844 11.2258691787719727
0.571260809898376465 67.8353195190429688 11.7814483642578125
-5.46672344207763672 -16.6700267791748047 -25.0270366668701172
2.92089104652404785 -28.0848522186279297 42.9850006103515625
5.91641521453857422 -59.5766448974609375 40.5168342590332031
0.444063723087310791 96.6270294189453125 24.6484718322753906
-1.25241470336914062 1.23663890361785889 -5.55191421508789062
-2.03780317306518555 1.11625313758850098 5.98976612091064453
1.85778665542602539 26.2442054748535156 3.65229988098144531
1.29945862293243408 44.1182708740234375 4.80504894256591797
-0.663015007972717285 45.4883499145507812 6.00840520858764648
1.98392689228057861 -28.5680599212646484 43.5190620422363281
-4.49800205230712891 -40.8003273010253906 -45.0655708312988281
-0.0997769162058830261 67.3156661987304688 10.5317306518554688
-0.8574867844581604 54.9407691955566406 11.8161954879760742
1.3276139497756958 -30.1892585754394531 22.8897590637207031
-1.70592999458312988 7.31599044799804688 8.55441951751708984
-1.88899898529052734 -22.8772983551025391 30.5524272918701172
-0.784921765327453613 -33.7088623046875 22.7612323760986328
-5.42856216430664062 -22.6207599639892578 -18.6483211517333984
-4.05277395248413086 -48.7293777465820312 -49.2512435913085938
-1.52201735973358154 -17.6968479156494141 -15.0623159408569336
-2.77375507354736328 -33.5884552001953125 43.4346389770507812
1.9751274585723877 33.6408882141113281 10.1099538803100586
-2.43803000450134277 -57.7903938293457031 41.0858840942382812
-2.64242005348205566 87.759613037109375 -23.4926338195800781
-2.80322265625 -45.6878890991210938 17.2154903411865234
-2.23792743682861328 -56.7372932434082031 -28.8544998168945312
1.04284811019897461 -61.9878082275390625 42.6769218444824219
1.18569052219390869 82.3417739868164062 21.5399799346923828
3.34627819061279297 -21.8898735046386719 -33.3258285522460938
-1.35195064544677734 66.26416015625 15.0189895629882812
-2.36039495468139648 40.91766357421875 -6.35858678817749023
-3.75253415107727051 -19.0482177734375 13.7281341552734375
0.18456675112247467 -50.5754470825195312 -49.4442062377929688
5.84834718704223633 -51.5804328918457031 24.1511669158935547
2.5257420539855957 -44.6982002258300781 -48.2170448303222656
4.82349824905395508 -40.1338043212890625 -21.4068984985351562
0.0432916358113288879 94.6153564453125 -26.4747047424316406
0.084316059947013855 -41.278961181640625 -45.0574417114257812
-0.396603256464004517 92.6531524658203125 21.8067378997802734
1.9301077127456665 -17.9722938537597656 13.4248428344726562
-1.82955479621887207 78.4134597778320312 -17.0174999237060547
3.44362187385559082 -57.9353103637695312 22.9755153656005859
2.55195331573486328 -12.3957643508911133 23.4098644256591797
-0.430032670497894287 -15.5640697479248047 -11.4375724792480469
-1.42437708377838135 8.79047870635986328 -10.6819391250610352
-2.1628718376159668 -54.8844642639160156 -27.8614921569824219
4.38559341430664062 -52.1002082824707031 -25.8563213348388672
-3.92880582809448242 -29.7344074249267578 20.770538330078125
-2.57690811157226562 -51.8999710083007812 44.9472465515136719
0.894246518611907959 -33.7057228088378906 -15.8715915679931641
1.44288182258605957 -62.2765693664550781 -26.1503810882568359
1.68848228454589844 -18.2686920166015625 -13.2785911560058594
3.28686976432800293 -18.9702434539794922 35.1423912048339844
-1.74158096313476562 54.9812583923339844 -7.50982427597045898
-1.98437869548797607 -11.714045524597168 7.14444637298583984
3.74679827690124512 -63.0878829956054688 -39.1256942749023438
-1.68382596969604492 86.31341552734375 21.9717903137207031
-1.29361295700073242 -58.1309432983398438 38.3998069763183594
3.55745315551757812 -52.9063873291015625 -26.6681537628173828
0.597013354301452637 -64.436676025390625 -40.5233383178710938
0.271928727626800537 86.9459304809570312 20.7162914276123047
3.8532254695892334 -50.4658737182617188 -21.953460693359375
-4.49995231628417969 -51.6970634460449219 22.4657764434814453
-3.23503661155700684 11.6622724533081055 2.67754054069519043
-5.35063982009887695 -23.9866943359375 -18.0272636413574219
-0.852273881435394287 -47.5962028503417969 48.3533592224121094
-6.01566076278686523 -56.9580917358398438 -25.3771286010742188
-5.70833206176757812 -60.3933525085449219 -31.2215595245361328
1.84918713569641113 38.646484375 12.7637701034545898
5.51707124710083008 -20.3583545684814453 20.0273456573486328
1.73978233337402344 -11.0099458694458008 -1.42640507221221924
-2.7543182373046875 -26.8014850616455078 37.7815933227539062
-1.11160683631896973 -5.48099279403686523 1.85983872413635254
0.000337654782924801111 -10.2009983062744141 20.3033618927001953
0.651767253875732422 47.2124786376953125 -10.0311145782470703
-2.01673173904418945 -1.10012805461883545 -0.719847202301025391
5.58325338363647461 -24.12286376953125 19.5603790283203125
-1.05015981197357178 -58.0389595031738281 38.3588485717773438
-1.22476303577423096 1.26531863212585449 -6.44849395751953125
-2.89027023315429688 39.2772865295410156 -7.95308303833007812
1.16020870208740234 3.08946418762207031 -13.2086372375488281
-0.606645822525024414 64.7666778564453125 -21.0463447570800781
-1.5004727840423584 4.03338193893432617 -12.8537416458129883
-0.0699141025543212891 67.5604095458984375 10.6431045532226562
-1.49128341674804688 -50.8570747375488281 47.7964515686035156
-1.92378365993499756 -4.39185428619384766 9.0235748291015625
-3.47257566452026367 -14.1538934707641602 26.6448307037353516
-0.585409104824066162 38.2025833129882812 1.73711788654327393
1.83015024662017822 41.0189208984375 13.4196443557739258
0.89465707540512085 -43.2812004089355469 -25.4901695251464844
-2.06118392944335938 -3.72662353515625 4.7354273796081543
-5.16134500503540039 -28.3915729522705078 -18.1922798156738281
-1.46488785743713379 -24.7050838470458984 -42.1038055419921875
-3.30034947395324707 -59.5446510314941406 24.1296463012695312
-2.88084316253662109 -32.0672874450683594 43.2362442016601562
0.520080149173736572 47.6664695739746094 4.13721084594726562
-5.94408845901489258 -56.2012748718261719 -25.0049591064453125
-1.94521236419677734 -57.5023155212402344 40.5368690490722656
1.51816296577453613 58.7386970520019531 16.3216381072998047
-4.15494775772094727 -17.9303512573242188 29.4535751342773438
-1.02016854286193848 18.5173282623291016 6.40578031539916992
-4.49271678924560547 -28.9723777770996094 -17.7696952819824219
1.01464056968688965 6.61715030670166016 7.35334444046020508
-4.75915384292602539 -45.3111686706542969 21.1522712707519531
-1.56226205825805664 80.8985519409179688 20.5531558990478516
-2.00272274017333984 -4.80698633193969727 5.90157365798950195
-0.243047147989273071 31.6726436614990234 -11.949437141418457
5.31673002243041992 -33.6385574340820312 17.9475173950195312
1.77388322353363037 -4.63756132125854492 -5.70589685440063477
-0.0717766731977462769 -62.8926010131835938 41.7193870544433594
5.36665821075439453 -55.6313285827636719 22.6554069519042969
-1.54055631160736084 -34.6532669067382812 22.8322029113769531
-2.71660661697387695 -50.9959564208984375 20.6389293670654297
-0.229917779564857483 61.5958137512207031 -16.7214546203613281
5.95220184326171875 -35.7813568115234375 20.2388134002685547
-1.08587586879730225 5.43559646606445312 -8.99194717407226562
-5.4763178825378418 -42.2485542297363281 -19.9448776245117188
3.04323840141296387 14.9203739166259766 -0.275010585784912109
2.77973461151123047 -57.1061325073242188 46.1450881958007812
6.23453187942504883 -52.6436691284179688 22.5371589660644531
3.79098606109619141 -43.3895072937011719 -18.8509521484375
-0.23480929434299469 60.8673477172851562 -15.099278450012207
-0.660048305988311768 -9.14240074157714844 -18.7934055328369141
-4.39676809310913086 -47.6832237243652344 -18.9338302612304688
4.24371194839477539 -15.9502906799316406 -25.6262989044189453
-0.465267062187194824 -1.78794693946838379 -6.25135135650634766
1.86932241916656494 -45.0995979309082031 -49.2910499572753906
4.8700709342956543 -18.7486171722412109 34.0794563293457031
-2.78869533538818359 62.5852127075195312 -13.8043699264526367
-1.34125018119812012 95.7196426391601562 -23.9093780517578125
-0.994908154010772705 -58.4305839538574219 -39.6290130615234375
1.68227970600128174 -45.6826324462890625 -49.3730697631835938
-1.87069582939147949 81.9908828735351562 16.6313266754150391
-0.232162952423095703 30.1978797912597656 8.83293247222900391
-5.00177860260009766 -21.83856201171875 -38.5215835571289062
1.71377122402191162 53.0104484558105469 14.8451023101806641
-4.41991710662841797 -16.3731803894042969 22.1030750274658203
-2.94825530052185059 -31.2385826110839844 42.9851722717285156
-1.30543768405914307 -40.5384788513183594 -18.1810970306396484
1.32927250862121582 -34.5927772521972656 -43.3275527954101562
-0.817968368530273438 26.7941856384277344 2.50555682182312012
1.04170358180999756 10.0630369186401367 6.27121067047119141
-3.88852953910827637 -35.6961784362792969 18.1851882934570312
4.62004566192626953 -60.6432762145996094 35.4050178527832031
5.22689962387084961 -53.305938720703125 44.168609619140625
-0.820409238338470459 -46.9385261535644531 -17.7701625823974609
1.79041743278503418 18.6076831817626953 7.93068456649780273
0.240851938724517822 73.6667709350585938 -14.9174356460571289
-2.27886629104614258 -42.5173759460449219 -44.7874832153320312
1.76915657520294189 3.4348294734954834 -6.58593034744262695
0.875969171524047852 -9.92946624755859375 -1.14748024940490723
-3.04787468910217285 -14.7915706634521484 15.6301355361938477
-3.8630983829498291 -17.0521240234375 30.7853527069091797
4.00399494171142578 -64.4208221435546875 28.7952136993408203
-1.01198697090148926 -17.9931602478027344 34.0873222351074219
-2.3236079216003418 11.070648193359375 6.88366222381591797
-0.333884656429290771 30.3769779205322266 1.84626007080078125
4.13523340225219727 -56.5843048095703125 27.2548770904541016
3.21130943298339844 -26.7540607452392578 -40.6100730895996094
1.56316483020782471 73.933868408203125 22.1650905609130859
0.230877518653869629 -27.2865467071533203 -38.0606918334960938
2.12111449241638184 -61.5616989135742188 42.8906784057617188
1.83198356628417969 47.4745941162109375 12.5951414108276367
-4.79129648208618164 -46.8069534301757812 -25.3226337432861328
1.9636002779006958 32.7357139587402344 7.63131904602050781
2.30974698066711426 -36.0047988891601562 -44.6884269714355469
-5.39299917221069336 -29.8393135070800781 -42.29254150390625
0.478166341781616211 -63.8753089904785156 -27.7392978668212891
1.57349169254302979 89.2894821166992188 25.3134326934814453
2.30752086639404297 -34.382171630859375 -16.9156494140625
-5.99066305160522461 -48.1752433776855469 -23.9303798675537109
1.96378946304321289 28.5877437591552734 -3.56046247482299805
1.46791958808898926 61.6739997863769531 15.8185272216796875
4.43970632553100586 -36.9043235778808594 22.5129375457763672
-1.90903663635253906 82.416015625 16.6192512512207031
1.76650917530059814 0.85893172025680542 -7.26654338836669922
0.477516889572143555 -25.2246055603027344 13.3523797988891602
-0.787802278995513916 49.9297981262207031 14.0434370040893555
3.5587010383605957 -59.3093795776367188 36.7774429321289062
-3.81794428825378418 -58.6212844848632812 -46.4908409118652344
-2.2928764820098877 -38.3599395751953125 46.3270187377929688
5.74982023239135742 -57.1921806335449219 42.9962158203125
-0.673308610916137695 43.5915565490722656 8.572174072265625
1.59385073184967041 54.1147613525390625 10.8625850677490234
-3.57993745803833008 -58.1987266540527344 28.2368297576904297
1.52350711822509766 29.764495849609375 10.8716411590576172
-1.54211580753326416 79.987091064453125 19.9245567321777344
-5.10669326782226562 -14.8056621551513672 -26.6988792419433594
-6.21715211868286133 -60.9649085998535156 -28.7774829864501953
0.709585607051849365 -27.2369556427001953 37.16241455078125
2.12791180610656738 -24.5505313873291016 -41.5014076232910156
-0.318408995866775513 34.6015586853027344 8.18245410919189453
-1.25692939758300781 -9.55532169342041016 19.0989208221435547
3.28505277633666992 -20.0477066040039062 36.2762718200683594
-2.79787635803222656 -54.41314697265625 45.221466064453125
0.736219227313995361 74.6254196166992188 16.2203044891357422
0.162196084856987 -12.1978569030761719 25.0446605682373047
-1.55302321910858154 -29.4442214965820312 -24.0103397369384766
-2.60502529144287109 80.6677780151367188 -25.3469257354736328
1.46790313720703125 -46.7262077331542969 -45.9349479675292969
-2.05890250205993652 48.2626762390136719 -18.0086688995361328
0.00405454449355602264 40.0634803771972656 -5.67019224166870117
-3.55321645736694336 -24.2741432189941406 37.9476356506347656
0.323989719152450562 76.0965499877929688 -18.6204128265380859
-3.27420425415039062 67.5699310302734375 -21.2153778076171875
0.248699992895126343 -41.074005126953125 16.3715953826904297
-0.930707871913909912 -5.10134029388427734 1.10960352420806885
-0.825369358062744141 -58.6872634887695312 36.1030921936035156
0.961896061897277832 42.7841300964355469 3.35508298873901367
-2.94359540939331055 64.4426498413085938 -15.4993495941162109
0.229395017027854919 82.534088134765625 -21.8298320770263672
1.21205389499664307 88.77081298828125 25.5465641021728516
-1.71472585201263428 97.8391189575195312 24.8468399047851562
0.439136743545532227 -11.7908573150634766 10.9121437072753906
2.79532074928283691 15.5091361999511719 2.83569693565368652
-2.28853416442871094 52.3304214477539062 -18.8136844635009766
-4.10568428039550781 -43.5111808776855469 -44.9473533630371094
-3.46894288063049316 -13.9899921417236328 -28.6909866333007812
0.0500783845782279968 42.2334136962890625 -14.9035682678222656
-4.89167356491088867 -53.2066230773925781 -44.8787193298339844
3.51769590377807617 -49.3295936584472656 -20.3535652160644531
-0.538191795349121094 36.3602333068847656 2.61242246627807617
1.80289757251739502 -26.9125423431396484 36.8470497131347656
-4.07904624938964844 -44.5667266845703125 -18.5678462982177734
-2.6202387809753418 74.6485977172851562 -18.2267513275146484
-2.48552560806274414 37.0174674987792969 -8.1641693115234375
1.87746453285217285 4.23712539672851562 -0.921444118022918701
1.83003878593444824 45.3320999145507812 7.61546802520751953
0.556906759738922119 80.9478759765625 17.8748207092285156
4.25272655487060547 -19.4525566101074219 14.7244911193847656
1.17385149002075195 -35.9718513488769531 -24.4088973999023438
5.15827226638793945 -27.3527488708496094 20.9273967742919922
2.9147193431854248 -53.4748191833496094 42.8871040344238281
-3.67968606948852539 -24.753326416015625 15.5664005279541016
-1.77294802665710449 -23.4068756103515625 14.3091840744018555
-1.04198122024536133 -24.5807876586914062 -15.5691661834716797
-0.807164490222930908 -11.8891191482543945 -25.2039413452148438
-1.85830485820770264 -28.3389034271240234 -16.7127723693847656
1.77986955642700195 6.03584003448486328 4.59454631805419922
0.674180984497070312 -9.414703369140625 -4.14971494674682617
0.224452093243598938 87.2759780883789062 -20.1628322601318359
0.453438341617584229 -23.2950668334960938 12.9956550598144531
1.95518374443054199 -11.8805227279663086 -7.20661830902099609
5.56836128234863281 -18.5386791229248047 26.0172843933105469
3.58342909812927246 -15.2211084365844727 -17.7844867706298828
-3.89603257179260254 -62.6174850463867188 -42.986572265625
2.84207510948181152 -41.1204833984375 44.0162544250488281
4.52607536315917969 -15.3887453079223633 17.3497867584228516
-2.4534149169921875 -37.9930877685546875 46.0160102844238281
0.589967548847198486 -15.7850360870361328 11.9586639404296875
-2.20157575607299805 90.4541549682617188 -27.8499946594238281
-5.63148403167724609 -59.9697647094726562 -30.7724761962890625
-0.280833035707473755 28.6632881164550781 10.1749029159545898
1.33484458923339844 50.0016098022460938 7.57117509841918945
2.61908388137817383 -10.2507104873657227 -10.1041765213012695
4.88201522827148438 -50.64019775390625 24.8547935485839844
-2.97149801254272461 55.6700210571289062 -15.4012308120727539
4.58953762054443359 -58.4580345153808594 -26.5496482849121094
0.542078137397766113 -30.6301860809326172 15.0902023315429688
-1.88670039176940918 -13.4544296264648438 15.659698486328125
-4.55761957168579102 -43.6692543029785156 -18.9822750091552734
-3.66122770309448242 -23.1382389068603516 -32.8729057312011719
1.73564469814300537 -11.2457208633422852 -1.89207148551940918
1.18949663639068604 53.9184074401855469 8.98025321960449219
-2.47081160545349121 63.17822265625 -12.7623300552368164
-0.86849290132522583 29.1535511016845703 1.82400083541870117
-1.89820504188537598 -1.27777242660522461 10.2177371978759766
-0.321704357862472534 -31.9794750213623047 45.1319503784179688
-0.0390328355133533478 -32.2690696716308594 -46.4790878295898438
-1.5171806812286377 8.76320171356201172 -10.6109380722045898
5.47270107269287109 -29.6309661865234375 20.3837356567382812
-0.828692734241485596 84.4772720336914062 25.0438804626464844
1.46368777751922607 57.5649299621582031 11.4684505462646484
-3.61849784851074219 -61.7475776672363281 37.3705482482910156
0.170424744486808777 -5.48132419586181641 2.91331577301025391
-0.61553502082824707 55.9661293029785156 -19.2939186096191406
3.92693591117858887 -46.2188568115234375 44.7212486267089844
0.0993370786309242249 -16.0438442230224609 31.8084144592285156
-3.33518695831298828 -36.9492835998535156 -43.6934585571289062
2.73331856727600098 -31.8316402435302734 -43.3405380249023438
1.75217771530151367 -37.6710777282714844 23.5296802520751953
1.78199756145477295 47.8648452758789062 10.9170169830322266
0.487533122301101685 -11.7126426696777344 18.0913963317871094
-1.4700998067855835 -30.374053955078125 39.7216415405273438
-2.01243257522583008 -53.9801521301269531 43.4111747741699219
1.6661229133605957 -52.4071731567382812 43.1707496643066406
-4.41308689117431641 -14.8497352600097656 -29.6092376708984375
-1.54613995552062988 65.0988540649414062 13.9982519149780273
-2.40038132667541504 63.4884223937988281 -12.6273441314697266
1.97721254825592041 -26.2321434020996094 -14.4714422225952148
-1.14870238304138184 75.8237152099609375 12.9925861358642578
-3.71065568923950195 -55.9594497680664062 22.8830280303955078
-0.762872517108917236 52.0717315673828125 11.6653690338134766
4.84109020233154297 -51.3678131103515625 20.7257785797119141
0.200550615787506104 -59.4444046020507812 -45.8354835510253906
-0.186613261699676514 -54.7082748413085938 -22.7622337341308594
-0.223341107368469238 31.1248111724853516 9.12863636016845703
-1.56072413921356201 -58.5209388732910156 37.7952194213867188
-1.97730875015258789 -56.5107002258300781 41.7385902404785156
-2.06918692588806152 -2.14614748954772949 1.06152141094207764
2.81072878837585449 -17.7796134948730469 33.8969917297363281
-0.696298182010650635 48.1175117492675781 8.00921630859375
1.18231701850891113 78.7918930053710938 24.1439437866210938
0.948121309280395508 5.5548243522644043 7.3162837028503418
-4.75180339813232422 -45.2130203247070312 21.0939044952392578
-1.79221713542938232 -11.1493158340454102 11.8158893585205078
-5.18384695053100586 -43.7256622314453125 -46.6977119445800781
-0.407545298337936401 70.7438888549804688 -21.8913955688476562
4.70261526107788086 -16.3729457855224609 16.6617565155029297
-2.48149561882019043 71.7398529052734375 -16.7807846069335938
-1.57300353050231934 -66.0952072143554688 -32.3756599426269531
4.00703287124633789 -49.5241813659667969 19.1501064300537109
-0.0108664995059370995 68.2840652465820312 -16.1270065307617188
1.89559733867645264 7.82219409942626953 4.6871800422668457
-3.45670843124389648 -27.2822799682617188 -43.5929183959960938
4.49851083755493164 -58.7176322937011719 -26.0605182647705078
1.89838302135467529 33.4391403198242188 4.97195339202880859
0.705544173717498779 54.2252693176269531 7.46297502517700195
-1.18254625797271729 56.9501113891601562 8.284088134765625
-4.37114477157592773 -16.0359592437744141 22.3285255432128906
-1.43062543869018555 76.5065689086914062 20.8712043762207031
0.010283290408551693 5.49209070205688477 11.4734907150268555
0.837727069854736328 45.3576164245605469 15.474705696105957
-4.06816625595092773 -27.846710205078125 -23.4880161285400391
3.47334098815917969 -27.4154243469238281 22.7592697143554688
-2.10660243034362793 7.60968875885009766 4.13775110244750977
4.63776636123657227 -28.9176025390625 -19.9681110382080078
2.88181614875793457 -15.5785942077636719 -30.9443550109863281
-1.61429381370544434 84.1529998779296875 22.6708641052246094
5.38416004180908203 -29.7517509460449219 20.5748710632324219
-0.689218282699584961 99.86029052734375 -28.3425369262695312
-1.73121249675750732 98.5744705200195312 -24.6795520782470703
2.88961386680603027 -13.7585659027099609 16.2789154052734375
-1.4624251127243042 -52.6634025573730469 43.4383773803710938
0.0121544431895017624 62.9347343444824219 -13.065983772277832
-0.226461067795753479 -9.44925308227539062 2.91513323783874512
-1.60667026042938232 -0.582311689853668213 12.2876300811767578
-0.657188236713409424 99.2957611083984375 26.7836666107177734
-0.188306033611297607 33.0719642639160156 -12.3742074966430664
5.70959329605102539 -52.7046470642089844 21.9284553527832031
0.18523012101650238 73.8378448486328125 14.1549110412597656
0.238972261548042297 73.2986373901367188 22.8871498107910156
-0.350864201784133911 33.7294998168945312 9.91458606719970703
-2.64987301826477051 -59.5387382507324219 31.9505176544189453
-2.2747797966003418 23.49542236328125 -11.2386293411254883
4.81469964981079102 -44.7684478759765625 -22.2322616577148438
-2.5646212100982666 36.3386344909667969 -11.965733528137207
-4.35829734802246094 -65.6054000854492188 -36.925689697265625
-1.90730381011962891 -29.2344951629638672 -39.7273750305175781
0.299942642450332642 -28.2895488739013672 38.062896728515625
2.77880120277404785 -63.0211753845214844 41.4700660705566406
-4.62864828109741211 -18.9385185241699219 18.7242851257324219
-1.70935308933258057 92.2093582153320312 22.0136966705322266
-1.72705423831939697 -11.6319732666015625 11.7048425674438477
-3.17861533164978027 54.779449462890625 -17.5696487426757812
0.138482138514518738 79.4129714965820312 24.9181575775146484
2.60283422470092773 16.4884262084960938 -1.06627249717712402
-5.25149679183959961 -17.8153190612792969 -19.4459419250488281
-2.82693648338317871 59.57904052734375 -13.1654071807861328
-3.29982471466064453 -53.806060791015625 -48.6429367065429688
-0.396518886089324951 -43.1662101745605469 -45.2839088439941406
-0.826930224895477295 80.8292465209960938 23.9039974212646484
-0.311805427074432373 60.1710395812988281 -15.751922607421875
2.10741686820983887 -34.3099517822265625 17.5192470550537109
-1.707832932472229 -12.7619457244873047 10.163752555847168
-0.429392248392105103 44.0207672119140625 14.5429859161376953
1.90783870220184326 13.1351499557495117 5.51853370666503906
2.28400039672851562 -9.02374649047851562 -14.0708847045898438
-0.623612403869628906 42.793853759765625 4.90249109268188477
1.87654364109039307 6.22720956802368164 -1.85198116302490234
2.05505847930908203 16.6637554168701172 6.97838354110717773
-2.94137024879455566 -12.4256277084350586 -22.5564689636230469
2.51982808113098145 -49.2332191467285156 25.2331352233886719
-2.75440216064453125 -13.9995641708374023 -17.1607875823974609
-3.64474821090698242 -59.05694580078125 -31.1112632751464844
-1.51424241065979004 2.45797204971313477 -13.6337604522705078
-0.0681120231747627258 43.8001251220703125 -3.91681385040283203
1.74617588520050049 -44.9735069274902344 -17.5456218719482422
-2.38248610496520996 30.5573043823242188 -5.55765008926391602
-2.03321313858032227 -20.9223842620849609 -15.0321512222290039
-3.0079808235168457 -23.0313339233398438 -31.1456451416015625
1.15170836448669434 93.63055419921875 25.4378852844238281
-5.06983613967895508 -19.9435443878173828 -17.4142684936523438
-0.484343528747558594 49.5986900329589844 -17.4801616668701172
-1.44273602962493896 -59.0123062133789062 30.4380645751953125
-1.57944774627685547 -9.58119106292724609 16.9533615112304688
-4.55479049682617188 -19.4561061859130859 17.7132568359375
-1.15551424026489258 100.082908630371094 22.9177570343017578
-1.28741848468780518 -57.2781753540039062 45.8357887268066406
-3.73047184944152832 -22.7076225280761719 35.3478240966796875
0.855172634124755859 -1.90672361850738525 7.21673727035522461
6.39298057556152344 -60.8521232604980469 26.4230403900146484
-3.6808624267578125 -49.1625442504882812 19.5957050323486328
2.90308523178100586 14.658085823059082 -1.87049031257629395
1.19479680061340332 -57.1566810607910156 27.9228763580322266
-1.87751507759094238 -24.5333213806152344 -34.5831565856933594
0.826764404773712158 80.4130935668945312 25.0161685943603516
-0.198679864406585693 40.9382743835449219 1.20487594604492188
-2.99209499359130859 -29.5319061279296875 42.2933235168457031
-4.78430461883544922 -42.3926963806152344 20.5109291076660156
0.391041398048400879 80.2858505249023438 25.1830368041992188
-0.750056624412536621 -0.790978610515594482 -4.8443303108215332
4.47354507446289062 -25.9207210540771484 22.1293888092041016
4.57985115051269531 -56.9306640625 -25.3752975463867188
-1.15847432613372803 100.76422119140625 26.4142398834228516
3.13748931884765625 -62.6911582946777344 -27.1971874237060547
0.512638568878173828 38.0607948303222656 -2.63818168640136719
1.58459579944610596 31.4980812072753906 0.18833547830581665
-3.43246626853942871 -15.4882612228393555 15.5028371810913086
-4.11516475677490234 -38.6727523803710938 -44.4101982116699219
-1.29045891761779785 60.6319694519042969 9.33447074890136719
-2.68938612937927246 49.2518501281738281 -17.6373138427734375
-0.407593488693237305 36.0398712158203125 2.98980426788330078
-3.37852334976196289 47.7839813232421875 -13.0362625122070312
-1.68932616710662842 5.00729751586914062 -12.0082130432128906
4.35208559036254883 -15.6694116592407227 30.1013336181640625
5.46236133575439453 -63.7263526916503906 39.4617347717285156
-2.08989143371582031 90.0540847778320312 -27.918731689453125
3.3166954517364502 -57.0716361999511719 46.0904808044433594
-1.30017125606536865 90.644012451171875 -27.8227691650390625
4.54524564743041992 -33.5306205749511719 17.4836826324462891
0.475854814052581787 -8.05648326873779297 7.18155288696289062
-2.27237343788146973 -24.6822948455810547 -16.2075347900390625
-1.92414188385009766 68.7234954833984375 -13.6009445190429688
5.44473457336425781 -19.980224609375 22.2717018127441406
-2.3283846378326416 -32.3532333374023438 -46.5266571044921875
1.78001570701599121 -0.326790004968643188 -6.58212995529174805
1.56186532974243164 -28.3834934234619141 -14.5471010208129883
-1.14197063446044922 -10.5081596374511719 3.37877345085144043
-1.51297032833099365 -52.2227363586425781 -44.0349617004394531
0.503936588764190674 -39.6549797058105469 -44.8661537170410156
-5.42206192016601562 -18.2216148376464844 -33.3446388244628906
2.02612972259521484 22.4731273651123047 7.86000537872314453
1.19323217868804932 11.9132938385009766 -10.0084218978881836
-0.619698524475097656 -12.2552433013916016 -11.4640684127807617
-1.20893645286560059 58.2098274230957031 11.8551778793334961
-5.56454277038574219 -18.8027019500732422 -27.1523342132568359
-0.294995933771133423 60.0231819152832031 -17.9810504913330078
2.54786586761474609 13.9115819931030273 -3.66832780838012695
0.336647748947143555 41.516265869140625 -10.1855878829956055
-3.12962841987609863 -65.5203857421875 30.9669132232666016
1.1314241886138916 22.49359130859375 -9.04977226257324219
0.622740089893341064 -26.622802734375 42.2796249389648438
1.64628398418426514 -56.0074310302734375 -23.2578506469726562
-1.08771300315856934 97.7932357788085938 21.9559612274169922
0.694994509220123291 42.4604988098144531 2.53478765487670898
-0.831659317016601562 -9.99392604827880859 -9.67661857604980469
2.78321647644042969 -50.8015670776367188 -47.4000625610351562
0.520291626453399658 -26.2929420471191406 42.0496711730957031
-4.95575094223022461 -29.4783267974853516 -22.3555831909179688
-0.772098183631896973 -54.8586845397949219 26.8263301849365234
-3.04273200035095215 10.8374509811401367 -4.21322345733642578
-3.49013066291809082 -59.3907203674316406 29.6235942840576172
2.55338811874389648 -65.833160400390625 32.3068199157714844
3.33817648887634277 -39.9125900268554688 47.6083831787109375
3.08248090744018555 -46.4088211059570312 44.4508285522460938
-0.594267904758453369 67.2614669799804688 -21.5845794677734375
4.65728616714477539 -19.5509166717529297 -20.7346153259277344
-1.50376987457275391 -66.1509323120117188 -35.5544052124023438
-0.505216121673583984 -5.82282018661499023 -7.51640939712524414
0.982959210872650146 -59.4471397399902344 -24.3572788238525391
0.00415669893845915794 77.4307479858398438 -21.7207279205322266
-0.682468712329864502 -36.7192649841308594 42.6347274780273438
2.11778092384338379 11.2244110107421875 -5.0419306755065918
1.85480356216430664 31.0810489654541016 6.2027435302734375
-0.836255550384521484 -7.77876520156860352 -17.6694698333740234
-4.75854206085205078 -27.5896110534667969 18.5403194427490234
-2.91992330551147461 -40.7945632934570312 -18.4145565032958984
-3.34645414352416992 -43.6366195678710938 -25.1694316864013672
-1.80922770500183105 -35.8769454956054688 22.9468135833740234
-1.76910924911499023 -1.09006750583648682 10.9441823959350586
-0.0646904930472373962 67.4456558227539062 -17.2801246643066406
-0.355649888515472412 34.6466178894042969 4.56561517715454102
-4.26950407028198242 -15.9438142776489258 20.7329998016357422
2.27823424339294434 -47.7862014770507812 -46.5393333435058594
-1.48787307739257812 -27.8529186248779297 14.0490617752075195
4.63143634796142578 -21.7674160003662109 31.0355548858642578
-0.327778220176696777 13.140568733215332 -12.3373727798461914
0.432168394327163696 87.3782272338867188 21.2952709197998047
-4.47905302047729492 -52.6628608703613281 22.7681503295898438
-0.413966238498687744 33.9785270690917969 9.84237957000732422
5.02698469161987305 -25.5705528259277344 40.2821121215820312
0.323466777801513672 36.8817787170410156 -7.81833505630493164
0.760626852512359619 16.0630531311035156 -11.0113935470581055
-0.00780107732862234116 22.9559726715087891 9.26766204833984375
4.70264577865600586 -21.7353420257568359 -19.8967266082763672
-2.92564988136291504 41.877655029296875 -9.24866962432861328
4.01137351989746094 -15.5639286041259766 -27.3781471252441406
0.997652113437652588 -6.18862104415893555 -2.1994171142578125
3.95443463325500488 -15.566676139831543 30.2046928405761719
1.97440993785858154 41.9530067443847656 10.9041986465454102
1.60457754135131836 -59.1850242614746094 -45.7684288024902344
-2.92059588432312012 53.9336700439453125 -13.773468017578125
1.58750104904174805 69.5490951538085938 20.8943977355957031
-2.97789144515991211 39.6163597106933594 -9.66678142547607422
-2.43263125419616699 -10.012202262878418 9.66901206970214844
3.97518682479858398 -43.4869804382324219 -19.1407585144042969
0.653147697448730469 -35.4831733703613281 46.6351814270019531
-0.777615904808044434 51.3874855041503906 12.0430879592895508
-3.66483950614929199 -48.0361328125 -25.9308032989501953
-0.174340590834617615 -33.7594680786132812 22.8098506927490234
0.699820220470428467 -4.25809717178344727 5.859954833984375
2.34384298324584961 -36.6848564147949219 -45.0514259338378906
4.43665027618408203 -42.0708465576171875 44.6366539001464844
4.59540700912475586 -29.1432781219482422 -19.2011852264404297
1.7610098123550415 -56.0163307189941406 46.9471931457519531
5.57527256011962891 -22.2768993377685547 19.7191314697265625
-1.7284693717956543 -48.9893798828125 -18.4677505493164062
1.84359228610992432 36.4989662170410156 5.62270689010620117
1.77935910224914551 -0.738042056560516357 -7.73083829879760742
0.957081079483032227 -33.4757423400878906 -24.0596942901611328
-1.33539283275604248 62.3023185729980469 11.1498918533325195
5.39622974395751953 -45.872528076171875 18.9030361175537109
0.151139035820960999 34.5266647338867188 -7.22511005401611328
-4.36710357666015625 -14.5094747543334961 -19.8305549621582031
-3.42842602729797363 17.0336723327636719 -3.86459040641784668
1.79410934448242188 5.76242351531982422 -5.83625221252441406
-4.32147312164306641 -49.3940773010253906 20.9543018341064453
-5.73664474487304688 -55.8670845031738281 -45.4904708862304688
-5.07360506057739258 -65.4446868896484375 -35.72418212890625
-2.47868561744689941 34.0931625366210938 -8.33133506774902344
1.95781934261322021 15.639613151550293 3.7360227108001709
-2.61866283416748047 -23.2083511352539062 -31.0337409973144531
1.78229522705078125 28.3878536224365234 2.19689679145812988
-4.42764854431152344 -45.8777351379394531 -45.2525291442871094
3.60682010650634766 -34.3311080932617188 45.8930740356445312
2.03574514389038086 -50.7304229736328125 20.1025791168212891
-3.44449257850646973 -13.4660959243774414 24.4934120178222656
-2.39762139320373535 29.3193149566650391 -6.97465801239013672
-1.32346117496490479 66.0550003051757812 16.1124954223632812
1.78640437126159668 3.48945498466491699 -6.07140111923217773
-0.414381653070449829 34.8582954406738281 9.53453922271728516
-0.647314131259918213 -1.32793867588043213 -3.3495023250579834
0.567995607852935791 10.0933008193969727 9.27567291259765625
-0.542915821075439453 73.5596466064453125 22.5594310760498047
4.41409969329833984 -16.4553642272949219 31.1730880737304688
4.82535982131958008 -14.3866825103759766 27.1929931640625
0.739712536334991455 24.4231300354003906 -9.77536106109619141
-5.13423490524291992 -15.460139274597168 -29.1933536529541016
-0.055974271148443222 42.3869171142578125 14.4422216415405273
-2.45260000228881836 35.6619110107421875 -7.24034595489501953
0.613581418991088867 -12.8015623092651367 16.8176136016845703
-2.71874809265136719 56.2224960327148438 -19.3676910400390625
-2.90743398666381836 52.8762893676757812 -12.5799446105957031
0.224948644638061523 87.5591888427734375 -21.8211803436279297
-2.11674880981445312 -10.9476594924926758 5.32896137237548828
-0.761293292045593262 51.2247772216796875 11.3824090957641602
-3.04327082633972168 -26.5893440246582031 15.8497810363769531
4.46556949615478516 -42.4815521240234375 -23.5395946502685547
0.432078897953033447 -9.27530765533447266 16.4865608215332031
4.03414106369018555 -64.0572662353515625 -35.4046821594238281
2.37904739379882812 -40.4650192260742188 -18.9876232147216797
1.26870620250701904 2.85745692253112793 -12.7118444442749023
-3.57474207878112793 -39.8269004821777344 -48.636627197265625
-4.27274703979492188 -60.7474861145019531 26.6959705352783203
-1.33181083202362061 61.075775146484375 15.3746252059936523
4.25972700119018555 -13.9923667907714844 26.7728939056396484
-3.05095577239990234 78.571502685546875 -24.1369476318359375
0.203140914440155029 71.3455734252929688 -18.7226428985595703
-3.54985570907592773 -53.0383415222167969 -27.0841255187988281
0.292860895395278931 -11.6529636383056641 22.3218116760253906
-2.43022751808166504 73.7939376831054688 -24.2817325592041016
1.94257545471191406 22.5439014434814453 2.36919689178466797
-3.96162605285644531 -42.0863456726074219 22.9057731628417969
-1.9443131685256958 -29.9166069030761719 -16.9298038482666016
0.239019870758056641 91.886627197265625 -23.4211769104003906
0.78537517786026001 59.6303176879882812 9.75864505767822266
-2.76677846908569336 -33.2608222961425781 -23.9464302062988281
0.261282116174697876 99.1732406616210938 -26.9779682159423828
0.310696870088577271 34.9250144958496094 -4.88074445724487305
-4.68990802764892578 -23.3167915344238281 -40.2320632934570312
5.29293918609619141 -42.6933326721191406 46.9219627380371094
-1.87872147560119629 -6.71887397766113281 14.1895961761474609
2.10129785537719727 -29.1685714721679688 -23.5945854187011719
-0.476522982120513916 -0.744883954524993896 -9.97702121734619141
-2.96737480163574219 42.0430221557617188 -10.580235481262207
1.99841082096099854 25.0140285491943359 5.68413829803466797
-3.89572381973266602 -64.1504364013671875 32.4326019287109375
-0.335303544998168945 -63.1982498168945312 -42.3508529663085938
-1.68834006786346436 91.802947998046875 20.2497367858886719
-4.06381750106811523 -14.8616800308227539 -17.7918643951416016
1.96124875545501709 -15.9072809219360352 -32.1192970275878906
-2.33404183387756348 28.4171733856201172 -4.88549995422363281
-1.10225224494934082 -65.5880584716796875 30.5928516387939453
-1.91323995590209961 -29.8515872955322266 -45.3710250854492188
-4.06124210357666016 -58.0320320129394531 -24.0728015899658203
-2.09214353561401367 -38.7972183227539062 17.7366714477539062
4.05026054382324219 -63.5036048889160156 -36.6679267883300781
-0.466444820165634155 35.5155715942382812 7.85252571105957031
2.66419672966003418 -55.7038536071777344 46.9274940490722656
3.24273896217346191 -22.4246597290039062 -33.9112091064453125
-1.77370345592498779 79.1929779052734375 -16.5702247619628906
-1.58661568164825439 -36.586517333984375 16.8551445007324219
-2.62005400657653809 38.21392822265625 -14.6839733123779297
4.23912668228149414 -19.0497035980224609 -25.6582546234130859
5.47696590423583984 -20.6482582092285156 31.9291629791259766
1.80441415309906006 -3.39996576309204102 -8.00669956207275391
0.619636595249176025 33.31121826171875 -3.98424935340881348
-0.536345958709716797 39.930145263671875 5.21762418746948242
3.6569211483001709 -37.9152603149414062 -23.4872760772705078
1.5976715087890625 54.9690208435058594 12.162571907043457
1.13930833339691162 -53.1871719360351562 42.6879463195800781
-0.346954405307769775 -10.6028470993041992 4.39063787460327148
2.52276086807250977 -65.2116928100585938 29.842498779296875
-0.171769976615905762 96.6038436889648438 -27.4647197723388672
0.688589632511138916 0.00920828431844711304 11.9468355178833008
-0.289435863494873047 -66.0317535400390625 33.7684440612792969
-2.62211060523986816 51.8293190002441406 -8.14330005645751953
2.66687536239624023 -54.0266036987304688 47.5359687805175781
-2.29752635955810547 -36.5128097534179688 43.7393836975097656
4.61118268966674805 -28.8842220306396484 -20.6880512237548828
-5.36459064483642578 -25.1196861267089844 -40.7579994201660156
-2.8216240406036377 19.6912841796875 -5.93864297866821289
-0.991170704364776611 -35.5462303161621094 22.979736328125
6.40702581405639648 -57.4137191772460938 25.4637336730957031
1.71871209144592285 20.8301544189453125 8.92690658569335938
3.8801114559173584 -60.0996360778808594 35.2619247436523438
-5.18499898910522461 -23.4510822296142578 -39.7883682250976562
-0.270589292049407959 27.6258754730224609 4.29123210906982422
-1.21541082859039307 8.08749961853027344 -11.732762336730957
3.50975584983825684 -22.7450485229492188 14.9074611663818359
6.0077824592590332 -64.4861984252929688 35.4872817993164062
-4.74084997177124023 -46.7701950073242188 21.3314628601074219
1.38931560516357422 -18.5949211120605469 -36.0949287414550781
-3.32959938049316406 67.1073379516601562 -18.7310981750488281
-0.84083402156829834 54.4124946594238281 12.303065299987793
-3.28446459770202637 -48.1536903381347656 24.6969013214111328
0.579521656036376953 42.3030166625976562 2.2415473461151123
2.34907245635986328 -31.8068904876708984 -45.4090766906738281
-5.57413291931152344 -23.5782260894775391 -19.6228885650634766
1.10020065307617188 46.7493438720703125 5.28813266754150391
0.260982900857925415 89.9998703002929688 -22.5167884826660156
1.39932167530059814 75.7491912841796875 19.3295879364013672
-0.29886201024055481 -48.3740959167480469 48.4544334411621094
-0.9363364577293396 -14.1652660369873047 28.3748912811279297
-0.0376161225140094757 78.0461578369140625 -22.3116607666015625
-1.28840994834899902 -60.1287078857421875 -45.3888015747070312
1.76547515392303467 50.4702949523925781 14.2147836685180664
-5.43091297149658203 -21.4524459838867188 -18.8700675964355469
1.36543929576873779 -8.21408271789550781 -3.17458391189575195
0.712818622589111328 89.0371856689453125 23.0479869842529297
-2.83730077743530273 -59.9502487182617188 37.8209800720214844
1.57814538478851318 -28.9380836486816406 -39.8703498840332031
4.37395000457763672 -17.6604881286621094 -26.1718883514404297
-1.17311978340148926 99.3810348510742188 22.6200466156005859
3.96086454391479492 -59.8089408874511719 -25.7543907165527344
-2.76619529724121094 -18.7047481536865234 -14.7894525527954102
-5.26066970825195312 -42.8762321472167969 -47.7078056335449219
-4.51577425003051758 -13.7963666915893555 -22.3693447113037109
3.95641589164733887 -27.6328067779541016 22.3145084381103516
-5.39297866821289062 -49.3633308410644531 -46.8400344848632812
-2.50510334968566895 32.1117973327636719 -11.5001611709594727
-0.201235100626945496 -23.7483253479003906 27.3347949981689453
-5.34917831420898438 -46.9369392395019531 -20.3466529846191406
-2.77706551551818848 82.4029769897460938 -25.4178047180175781
-2.27612066268920898 -65.9633026123046875 -32.7779960632324219
0.633368432521820068 -52.9980049133300781 42.7244987487792969
-5.57355213165283203 -53.8043556213378906 -46.066680908203125
0.169632390141487122 -53.9834861755371094 21.4943714141845703
-2.15862679481506348 91.3571319580078125 -27.9652500152587891
-1.28816461563110352 -30.3915786743164062 13.3832216262817383
-0.551340222358703613 -11.3287372589111328 2.93864893913269043
0.665859520435333252 -4.77005910873413086 5.74605464935302734
1.81306195259094238 46.9681777954101562 9.34140586853027344
1.72872757911682129 5.64798927307128906 -9.62603759765625
-2.5312650203704834 26.0643825531005859 -7.31837034225463867
-1.56828546524047852 -59.3297920227050781 31.6313152313232422
-3.29486465454101562 49.2014389038085938 -14.6220407485961914
-2.65125870704650879 37.4521713256835938 -12.5293912887573242
-0.603451251983642578 -11.5767745971679688 -19.8023471832275391
-0.484514534473419189 -49.8058242797851562 48.3155860900878906
0.39851793646812439 -7.01647710800170898 13.1339778900146484
-6.16401529312133789 -63.1782455444335938 -32.6267852783203125
-1.21175217628479004 62.9782333374023438 18.5650444030761719
1.60246622562408447 -33.0475120544433594 -15.8964567184448242
-2.66767358779907227 86.4319915771484375 -23.0009708404541016
4.18907546997070312 -50.9811935424804688 47.9040946960449219
3.01369118690490723 -25.5047283172607422 -41.40350341796875
4.67589712142944336 -32.6200370788574219 -20.9737491607666016
2.01681423187255859 8.39835166931152344 4.1923980712890625
-0.639329850673675537 51.1035919189453125 -18.0667591094970703
-3.13243818283081055 -37.6037826538085938 -48.2582359313964844
-2.10765981674194336 -34.9776458740234375 22.7862548828125
-3.2455596923828125 -62.2359733581542969 40.0158729553222656
-3.00435829162597656 43.0966873168945312 -14.0068016052246094
1.23881947994232178 16.290008544921875 -10.2889165878295898
-4.57346248626708984 -46.2964706420898438 -19.0236396789550781
-1.74657094478607178 98.3509750366210938 22.7523174285888672
-2.96329855918884277 17.1432762145996094 -8.03499031066894531
-1.92937040328979492 -3.6016700267791748 9.26644706726074219
2.76784753799438477 -51.0142593383789062 25.5879135131835938
-4.44514846801757812 -30.3885765075683594 -41.3284873962402344
2.04972553253173828 -25.2212982177734375 -13.9667901992797852
0.167748406529426575 -45.0758743286132812 -45.5530776977539062
-2.57207250595092773 35.7627983093261719 -12.6082944869995117
1.13503992557525635 -46.0374259948730469 44.2727394104003906
1.77685916423797607 -5.80904769897460938 -8.42776679992675781
4.76354217529296875 -14.0090484619140625 24.2508316040039062
0.483135104179382324 36.8742256164550781 -9.54634857177734375
5.26729202270507812 -34.1826400756835938 44.3861198425292969
-4.01576471328735352 -18.0343570709228516 30.6866378784179688
-0.473927736282348633 37.7014274597167969 3.5754399299621582
-3.16735124588012695 -24.2791042327880859 22.7570610046386719
0.723269104957580566 73.1231765747070312 -15.8826255798339844
0.574387550354003906 -28.1755771636962891 -38.9814376831054688
1.40783941745758057 98.709381103515625 24.3566665649414062
2.4654843807220459 -41.9652900695800781 -48.1650428771972656
-1.57252705097198486 43.8488235473632812 -16.8649368286132812
4.2039647102355957 -39.8734016418457031 23.12548828125
5.30461597442626953 -22.1073741912841797 21.7311782836914062
3.53368687629699707 -14.3047208786010742 16.2964324951171875
1.61996936798095703 93.44635009765625 24.2267189025878906
-5.62002468109130859 -47.4710235595703125 -21.1849250793457031
-5.30130863189697266 -48.5083389282226562 -20.7192306518554688
-0.493671208620071411 -57.9329833984375 -40.9368057250976562
0.302137136459350586 62.3521804809570312 -11.141026496887207
-1.70269894599914551 12.1128101348876953 8.72756099700927734
2.95845961570739746 -50.0189590454101562 25.3413715362548828
0.914718449115753174 -43.3185157775878906 -16.9027042388916016
-2.06454348564147949 -13.511469841003418 26.5563144683837891
-1.07359731197357178 -14.3926486968994141 28.7352485656738281
-0.235583066940307617 53.3786087036132812 -15.1813745498657227
1.47631645202636719 -8.53040313720703125 -7.55173635482788086
-1.96147096157073975 -4.96222305297851562 7.26556396484375
1.10536158084869385 -11.9892425537109375 22.9934978485107422
-0.940710127353668213 93.007843017578125 19.8178997039794922
-1.11875855922698975 59.2431259155273438 16.0017032623291016
0.154505595564842224 -58.7851219177246094 -24.0496978759765625
-0.282373249530792236 62.5441055297851562 -18.6493167877197266
-1.53610670566558838 -36.1468429565429688 46.4314537048339844
-2.94137883186340332 -27.7551689147949219 16.1309261322021484
5.30249595642089844 -19.9016246795654297 28.2989883422851562
-2.10707736015319824 0.520634353160858154 3.82653427124023438
5.37946557998657227 -50.7530593872070312 24.486114501953125
1.92616093158721924 38.3941001892089844 11.4514551162719727
0.543229937553405762 15.4594154357910156 -11.2973470687866211
-1.12393367290496826 -5.06812667846679688 14.9429178237915039
-1.51366269588470459 -63.9333915710449219 27.2528820037841797
4.58974838256835938 -53.4193191528320312 47.2287063598632812
-0.594043552875518799 -40.0270156860351562 -49.0149955749511719
-4.32160806655883789 -59.5411567687988281 26.3386249542236328
0.248231500387191772 83.517730712890625 18.0574569702148438
-1.29563999176025391 63.8519210815429688 15.6767301559448242
-2.79692721366882324 44.3832626342773438 -16.2044830322265625
2.01932597160339355 -9.38559150695800781 -18.4538059234619141
0.140941083431243896 42.0487251281738281 -11.1132650375366211
1.07755780220031738 81.0345382690429688 22.2554340362548828
2.81360220909118652 -20.9045982360839844 37.4172134399414062
-0.0273653380572795868 66.1107254028320312 -19.4852714538574219
1.12868070602416992 91.192169189453125 25.6206855773925781
-5.3676609992980957 -34.4355735778808594 -19.3596286773681641
-4.64063930511474609 -52.5964698791503906 -48.6079368591308594
1.57014322280883789 -44.9803924560546875 -25.6852970123291016
1.74926793575286865 -7.61619043350219727 -16.7674655914306641
-2.2517855167388916 -38.8383903503417969 17.8546504974365234
1.453369140625 -58.6851882934570312 -24.1399345397949219
-1.7309194803237915 -58.5266532897949219 -38.9852333068847656
-0.233526721596717834 97.6893997192382812 -23.4026679992675781
1.63659179210662842 31.4830818176269531 0.714587748050689697
-5.80014801025390625 -57.1299285888671875 -27.1576709747314453
-3.77170085906982422 -58.787872314453125 28.0555000305175781
0.438620239496231079 49.9446983337402344 -10.3693313598632812
1.37681901454925537 -58.7687911987304688 35.9463310241699219
2.14754390716552734 23.3938961029052734 0.00328507437370717525
-5.08615255355834961 -23.1640701293945312 -17.1957912445068359
0.504470169544219971 44.6014671325683594 -12.402134895324707
0.245536819100379944 -12.8757915496826172 26.3116168975830078
1.83933365345001221 -8.53560733795166016 -19.0414161682128906
-3.17128515243530273 52.1670684814453125 -16.4883270263671875
-3.17850875854492188 45.2780303955078125 -15.0262575149536133
