ply
format ascii 1.0
element vertex 788
comment vertices
property float x
property float y
property float z
end_header
-1.6237945556640625 95.9981155395507812 39.6251373291015625
21.3857498168945312 -74.0648040771484375 -13.5245399475097656
-52.132049560546875 -22.586822509765625 -9.14315319061279297
17.5260391235351562 9.82527256011962891 1.54407954216003418
-48.5675926208496094 33.7979316711425781 39.0950813293457031
50.6924095153808594 -37.6348876953125 -56.7560005187988281
-57.0586090087890625 -61.9134407043457031 -1.66256511211395264
-40.2569808959960938 -61.7070884704589844 25.3546791076660156
-33.2021751403808594 -74.7406997680664062 17.7744407653808594
21.3299636840820312 25.5769844055175781 31.2086277008056641
-37.2559318542480469 -31.5855827331542969 36.2554054260253906
11.8969154357910156 46.104736328125 -45.7532768249511719
-50.3143501281738281 -12.0339536666870117 -18.4245071411132812
27.2394065856933594 -3.25664544105529785 14.9566383361816406
-54.9435462951660156 -33.2780418395996094 -10.1927385330200195
22.8878860473632812 -72.8962173461914062 24.4716072082519531
-49.1669502258300781 61.1014022827148438 40.2043266296386719
11.0798587799072266 -15.5025081634521484 -38.0017356872558594
-28.9609565734863281 -79.4860000610351562 -10.9794759750366211
-26.4290256500244141 -14.4463939666748047 59.8366966247558594
-20.3790187835693359 -16.3420448303222656 -58.9484748840332031
-19.0410556793212891 70.5166778564453125 50.5687026977539062
7.3937067985534668 -76.0547027587890625 1.03756141662597656
38.6224822998046875 -75.7444534301757812 -61.941864013671875
3.96046137809753418 86.5388107299804688 -47.9890403747558594
-44.6615066528320312 -33.8296241760253906 -28.0084667205810547
-36.6467628479003906 -20.5880661010742188 34.8060646057128906
17.9079055786132812 75.42449951171875 37.4581031799316406
-12.7826719284057617 -18.1557903289794922 -65.5186538696289062
33.0768318176269531 -13.3906707763671875 6.22961997985839844
3.36715054512023926 -0.352714627981185913 -40.8222389221191406
5.26897192001342773 5.61568593978881836 39.9109039306640625
-14.4569683074951172 -29.9557571411132812 63.261474609375
17.8537139892578125 22.7720279693603516 32.9770622253417969
13.2150611877441406 26.24853515625 -33.7373771667480469
-6.72565555572509766 -78.5437469482421875 -33.0842247009277344
19.1064987182617188 71.4694900512695312 39.6995849609375
48.06036376953125 41.1776008605957031 -1.99853289127349854
-14.8820705413818359 95.8455810546875 -35.8602790832519531
14.2292861938476562 -30.7786502838134766 72.7097015380859375
-6.88389015197753906 70.352996826171875 -65.0705032348632812
27.7297954559326172 7.24370908737182617 76.3459930419921875
9.95428371429443359 -24.1212120056152344 82.9700164794921875
-10.0374164581298828 -31.9366798400878906 -50.9339675903320312
11.9264602661132812 -75.1429367065429688 78.1500930786132812
-44.65008544921875 10.743220329284668 -18.3752040863037109
51.17864990234375 -62.1963539123535156 -57.535919189453125
-29.21826171875 0.463284850120544434 -38.8705940246582031
27.1465835571289062 -29.6007328033447266 22.2444705963134766
-15.3237781524658203 -6.06868314743041992 76.8880844116210938
-61.8904838562011719 -40.5082511901855469 -8.95179176330566406
-38.0582809448242188 -7.94872236251831055 32.39111328125
45.0251617431640625 -22.6677284240722656 26.2380275726318359
51.9789237976074219 44.20745849609375 13.6198225021362305
-58.4279136657714844 77.68218994140625 -4.20907068252563477
-1.27711069583892822 99.8704757690429688 -28.9212284088134766
2.66978955268859863 -23.7342319488525391 85.7449111938476562
-53.4441642761230469 16.5332260131835938 15.3648557662963867
-48.8868064880371094 36.7079048156738281 -34.1801414489746094
-29.5668601989746094 90.4502716064453125 -41.4479560852050781
33.8994216918945312 -81.0124588012695312 40.4252662658691406
-30.8372879028320312 102.833641052246094 -8.80972671508789062
49.2943115234375 -34.9162635803222656 58.1285667419433594
38.3041458129882812 -58.419525146484375 -36.4144783020019531
38.2999534606933594 -85.4357070922851562 61.9089126586914062
-15.1672821044921875 17.9059791564941406 -65.6174392700195312
11.3538427352905273 19.0593166351318359 -56.4665336608886719
13.7605447769165039 95.0032958984375 18.0180912017822266
-52.95904541015625 -73.973541259765625 -10.6911907196044922
34.0613899230957031 -67.009674072265625 -34.954681396484375
41.178802490234375 -85.3934707641601562 55.7929649353027344
-15.8520545959472656 92.018585205078125 69.144378662109375
-55.6058464050292969 77.1034088134765625 7.78482151031494141
-60.2835693359375 71.7701873779296875 6.64066410064697266
3.64577198028564453 13.7004671096801758 55.2575531005859375
-6.75842809677124023 14.9430303573608398 -77.5562591552734375
-21.0217475891113281 37.9931602478027344 51.8578109741210938
25.6163043975830078 -76.3558425903320312 -45.0260391235351562
8.49167919158935547 -23.6746902465820312 -49.8396873474121094
44.2498130798339844 -36.1682777404785156 83.6234130859375
15.6301517486572266 -20.0885105133056641 -37.7530708312988281
15.9803676605224609 10.6764755249023438 -9.77341461181640625
-51.4970970153808594 -70.13336181640625 -13.2233915328979492
28.3203296661376953 47.29510498046875 -18.0457763671875
-51.6127853393554688 85.125213623046875 -3.98911428451538086
40.4188194274902344 -74.2515716552734375 87.1802444458007812
27.0994415283203125 -20.4483776092529297 -64.6617355346679688
30.1509895324707031 45.9126472473144531 -13.4749679565429688
5.1620793342590332 68.19866943359375 -49.9531478881835938
41.9825859069824219 -73.350860595703125 87.1276397705078125
-32.9615020751953125 99.9095382690429688 13.7260065078735352
-48.2769699096679688 85.7403106689453125 -23.4860973358154297
-47.3200492858886719 95.9982147216796875 -3.53089594841003418
-31.6139698028564453 101.275527954101562 -6.77612972259521484
19.9166374206542969 17.7146339416503906 0.118023455142974854
-50.1250534057617188 -55.5713462829589844 18.1679229736328125
24.6363430023193359 73.4744033813476562 -14.6966915130615234
14.5572013854980469 -13.7643871307373047 25.7678108215332031
-2.71110200881958008 61.4668960571289062 53.8509025573730469
7.78683328628540039 4.59178400039672852 -22.0657253265380859
-45.7475242614746094 95.5181121826171875 -10.2558708190917969
-42.0319595336914062 -30.2645206451416016 29.3116512298583984
39.915863037109375 -34.6067695617675781 -6.53784847259521484
49.460052490234375 -71.713653564453125 76.2931060791015625
-31.3304119110107422 -2.15946865081787109 -36.0121383666992188
46.6483116149902344 -60.3337974548339844 36.3406639099121094
-24.8305301666259766 60.8443641662597656 59.9930381774902344
2.51662492752075195 -25.0514144897460938 87.2405624389648438
26.4218330383300781 52.6259994506835938 -23.2031536102294922
40.1422691345214844 -33.8303794860839844 85.8818283081054688
26.8831634521484375 -63.7573013305664062 12.0920906066894531
-55.5404853820800781 -37.5655326843261719 3.30540370941162109
-8.89796066284179688 -5.9271845817565918 84.0409088134765625
-46.2252883911132812 46.9099845886230469 41.3157424926757812
-4.26146793365478516 75.3853988647460938 48.5462570190429688
38.8174247741699219 -80.5325469970703125 41.1203079223632812
30.2273597717285156 -56.1712493896484375 101.585441589355469
27.8749446868896484 -69.86663818359375 -93.3244781494140625
8.85227775573730469 -48.7716445922851562 72.1946945190429688
-31.6123447418212891 -64.0629730224609375 27.8686447143554688
-2.59635615348815918 -31.0999698638916016 82.537811279296875
-26.7307109832763672 23.0513648986816406 43.4756431579589844
-9.50878047943115234 34.8379325866699219 -52.6291275024414062
14.4687957763671875 -79.3155288696289062 -66.985565185546875
16.2318973541259766 38.33648681640625 -39.809356689453125
2.87264752388000488 -59.7093276977539062 64.38787841796875
48.23699951171875 -72.0255889892578125 78.677520751953125
22.4234199523925781 -4.26016569137573242 -16.3470287322998047
-47.5046310424804688 -73.7424545288085938 1.12230753898620605
9.09576320648193359 -5.39156913757324219 -34.8287925720214844
30.9682865142822266 -54.0076484680175781 -104.688240051269531
-28.2251453399658203 64.4276275634765625 66.478240966796875
46.5196380615234375 -42.227630615234375 -53.6595115661621094
36.1312904357910156 -68.1361618041992188 -90.5221099853515625
16.5367889404296875 -15.6846752166748047 -82.863311767578125
6.33687305450439453 101.321449279785156 -18.6964454650878906
26.8206138610839844 -59.0185585021972656 100.45928955078125
32.3001937866210938 16.4341011047363281 12.2690830230712891
29.1982879638671875 -21.0003242492675781 31.3176765441894531
35.7843742370605469 -79.629180908203125 -54.7121734619140625
21.0460433959960938 88.24639892578125 -8.34404945373535156
41.1762123107910156 29.4313163757324219 24.28802490234375
45.4189224243164062 -69.7329788208007812 88.26605224609375
16.3576030731201172 12.5580854415893555 46.0855751037597656
2.98023080825805664 -69.7898101806640625 66.58294677734375
6.89257526397705078 -13.9012622833251953 47.54876708984375
49.7190093994140625 -54.4944534301757812 90.409912109375
10.8279905319213867 -77.7283554077148438 28.3821830749511719
13.5819864273071289 -65.0233840942382812 85.5065383911132812
14.8075981140136719 -81.4002151489257812 71.0710525512695312
-29.0738849639892578 -55.5558395385742188 33.1934738159179688
7.04344320297241211 4.25307989120483398 -43.9249229431152344
32.4674949645996094 -64.5270156860351562 -94.6911849975585938
-1.8992307186126709 -27.9713287353515625 -55.0822868347167969
2.77579855918884277 -31.4303665161132812 72.322906494140625
-4.7765507698059082 70.1748046875 -53.62078857421875
-8.78999996185302734 22.3124141693115234 -64.6674423217773438
18.0602035522460938 -43.8646888732910156 -96.122955322265625
-12.0816049575805664 51.618408203125 -62.6963729858398438
0.0831754356622695923 -81.3411788940429688 -35.8036994934082031
44.8320426940917969 -38.5474166870117188 49.8934478759765625
31.1959190368652344 -80.9532394409179688 38.2642097473144531
43.1162986755371094 51.8278732299804688 -4.20138359069824219
-51.4974746704101562 -15.7836942672729492 15.8065643310546875
-57.321258544921875 23.5006103515625 16.1220016479492188
-34.2721481323242188 -70.6278915405273438 -17.9989376068115234
50.3602561950683594 -66.61175537109375 -72.8261337280273438
7.84738445281982422 37.9159355163574219 -46.0652999877929688
-54.2309989929199219 -64.7564468383789062 -18.5262584686279297
3.03324246406555176 -14.4844284057617188 38.4861068725585938
-6.7634739875793457 86.2120132446289062 42.1991081237792969
19.5942802429199219 -28.9034061431884766 -88.1954421997070312
-16.2716484069824219 82.9057388305664062 -71.7386703491210938
7.31523370742797852 -17.3576564788818359 -82.0600814819335938
20.5757007598876953 -24.119354248046875 57.7769355773925781
16.6090316772460938 -78.8310165405273438 29.4606094360351562
2.92126178741455078 -10.95361328125 39.6082763671875
-0.795342445373535156 11.92083740234375 57.0710716247558594
-26.5952224731445312 -64.4623641967773438 -35.9241790771484375
34.3180465698242188 -80.0021209716796875 -69.6063385009765625
-36.97113037109375 91.325775146484375 25.86468505859375
-14.5058965682983398 9.25435352325439453 61.6013336181640625
-23.4385395050048828 -71.1509857177734375 -32.9549484252929688
37.5837631225585938 -76.0943450927734375 -90.4857101440429688
30.5815391540527344 -49.0777740478515625 -24.9263992309570312
-51.1875190734863281 81.86004638671875 18.6843605041503906
14.3105297088623047 57.802276611328125 -42.1678199768066406
1.09837639331817627 16.6938152313232422 -83.1805038452148438
4.57046031951904297 -81.1809921264648438 5.35897350311279297
-34.2857475280761719 -3.32634615898132324 49.4252204895019531
36.3382606506347656 -58.6309318542480469 -34.8067207336425781
-14.6959514617919922 101.789497375488281 -26.9557609558105469
43.2109909057617188 -23.8565959930419922 -58.4585456848144531
-11.4760417938232422 82.6172714233398438 67.70526123046875
-29.2486610412597656 10.7564659118652344 -46.6766281127929688
13.4444961547851562 2.85430574417114258 55.3197898864746094
3.10869932174682617 18.2364253997802734 -79.9749221801757812
37.8384780883789062 -32.0882644653320312 -18.3731403350830078
-53.4024314880371094 79.1190643310546875 -8.35527324676513672
0.532527446746826172 31.3577766418457031 49.6683120727539062
20.6277236938476562 56.0745124816894531 -33.6070137023925781
-24.8988037109375 26.5558929443359375 52.335113525390625
-42.9677505493164062 99.8626861572265625 -1.81694328784942627
26.9257183074951172 -23.9387187957763672 -59.6305580139160156
-25.7222251892089844 32.2154083251953125 53.3666534423828125
-8.99346446990966797 111.184326171875 15.1380186080932617
-62.2869529724121094 -40.3380661010742188 -14.3511590957641602
-57.2259902954101562 26.8464603424072266 -3.62587213516235352
-30.4873142242431641 97.2463607788085938 -30.1663742065429688
36.6831436157226562 -9.6784515380859375 31.6632194519042969
52.3791923522949219 -32.5620536804199219 -76.4498062133789062
-14.4975824356079102 -32.9781761169433594 -50.2225685119628906
24.6122646331787109 -53.2476654052734375 -96.1451797485351562
2.30365920066833496 -70.3104400634765625 64.8683929443359375
-3.96022605895996094 28.7198429107666016 50.9020843505859375
-43.2490119934082031 -70.6735763549804688 17.5634307861328125
-58.8053855895996094 41.3469619750976562 -8.96308708190917969
-7.89986038208007812 32.1862831115722656 -47.8937721252441406
54.8741111755371094 -45.8270339965820312 66.8244705200195312
-18.8696231842041016 109.102592468261719 3.82397198677062988
0.70441138744354248 37.60198974609375 -43.327392578125
-50.4436149597167969 73.0170211791992188 -28.4972705841064453
-26.5046348571777344 66.2164688110351562 66.6681671142578125
-35.1373634338378906 21.6298141479492188 45.4852981567382812
2.56020927429199219 83.3567962646484375 44.6180763244628906
-61.22802734375 -72.5356979370117188 -7.45859098434448242
44.5206069946289062 -72.5416030883789062 37.5984382629394531
22.9194908142089844 -78.191650390625 -38.4733123779296875
43.8403816223144531 59.0322761535644531 11.7823915481567383
24.9340801239013672 -4.87490129470825195 61.1779937744140625
-11.1414079666137695 95.9698257446289062 65.283721923828125
1.78702127933502197 -11.0710153579711914 87.7427978515625
23.7269496917724609 48.4122505187988281 28.6472702026367188
42.40936279296875 -22.0847930908203125 32.2407302856445312
38.2899627685546875 -73.516357421875 -48.3661270141601562
52.5511054992675781 -32.8797531127929688 -70.7998504638671875
20.1983089447021484 -73.0375289916992188 12.7850017547607422
-29.0645656585693359 -74.1161956787109375 -24.0203418731689453
26.1124057769775391 2.78551435470581055 65.2214126586914062
15.0899543762207031 18.7590351104736328 62.1509590148925781
45.325225830078125 -14.7112226486206055 36.9438819885253906
0.891025781631469727 -73.6020278930664062 59.3233528137207031
-4.75543785095214844 71.2173995971679688 50.6128616333007812
18.2442131042480469 89.1026153564453125 -21.9177036285400391
-7.41336917877197266 -34.5763282775878906 56.3318977355957031
29.6415309906005859 24.5469627380371094 29.5767555236816406
-22.4053802490234375 -81.691192626953125 -8.13333892822265625
-18.8154201507568359 -80.1943511962890625 -14.1954183578491211
44.3238372802734375 -22.4547863006591797 18.1966896057128906
-21.1624660491943359 90.2014007568359375 -45.4217453002929688
11.0271072387695312 -6.38267230987548828 28.4107780456542969
-8.77768325805664062 88.6135940551757812 -71.5942611694335938
20.0419788360595703 77.0108871459960938 -20.0420989990234375
-43.25836181640625 8.38343143463134766 -8.74891090393066406
51.1147804260253906 -39.4416160583496094 -56.4295730590820312
-2.19621777534484863 0.706810295581817627 83.6251220703125
-51.0119781494140625 -73.4771499633789062 -7.36981725692749023
51.1126594543457031 -39.9339599609375 61.6497077941894531
-6.13298892974853516 104.811592102050781 -24.7249679565429688
31.9648189544677734 8.84129142761230469 69.9825668334960938
29.3461704254150391 -15.2224998474121094 6.59599447250366211
19.8887214660644531 -26.1125698089599609 -38.1040763854980469
26.9080772399902344 -1.94857263565063477 -84.2161331176757812
27.3065414428710938 61.1486396789550781 -20.8699874877929688
-8.16917133331298828 11.0543966293334961 48.75897216796875
13.9226236343383789 8.1264801025390625 33.4110641479492188
42.7325057983398438 -75.5035324096679688 -82.15618896484375
-33.5033149719238281 72.7174758911132812 62.4607963562011719
-18.4816398620605469 110.178276062011719 8.19561672210693359
11.5016803741455078 14.4678888320922852 -24.9884967803955078
8.12396812438964844 -14.4956827163696289 -45.4243431091308594
11.1047458648681641 18.5463504791259766 -60.5185356140136719
30.7501754760742188 -1.21816432476043701 -74.2521286010742188
24.5225181579589844 3.42776060104370117 -6.22715520858764648
-2.64609622955322266 -58.6190147399902344 -67.1493377685546875
26.28851318359375 -1.49133288860321045 -81.962310791015625
19.0014476776123047 -9.94759750366210938 24.2054252624511719
49.677398681640625 -57.2558021545410156 -58.6544723510742188
-23.8768119812011719 -21.0434684753417969 72.1807632446289062
20.250762939453125 -75.6854782104492188 -6.28556632995605469
-7.4296574592590332 104.685691833496094 27.9413833618164062
-38.2693748474121094 52.0732536315917969 48.9641151428222656
-38.3402214050292969 -28.1798286437988281 -39.8429679870605469
20.5087623596191406 -1.76537370681762695 -82.993072509765625
-6.1871638298034668 89.1733474731445312 -69.2685623168945312
4.2336273193359375 108.672607421875 -1.38794004917144775
24.5963249206542969 -35.0518836975097656 30.9984455108642578
-47.5410499572753906 -15.8766918182373047 26.2870903015136719
36.5858306884765625 -60.4532470703125 -99.7220611572265625
47.1819992065429688 -34.1892967224121094 -93.937408447265625
22.1401309967041016 51.6781196594238281 29.0691356658935547
1.86872518062591553 -2.18999266624450684 -86.3161773681640625
-20.8375778198242188 -8.10522651672363281 -63.8967247009277344
25.8784313201904297 70.8765640258789062 -28.8746395111083984
18.6135311126708984 -83.57098388671875 -50.1996192932128906
37.9135627746582031 -19.9348773956298828 -67.901702880859375
13.0671854019165039 60.7961769104003906 48.3279571533203125
18.23388671875 -28.2386131286621094 -68.6591415405273438
-4.24520587921142578 106.134834289550781 -16.0654716491699219
22.6900882720947266 3.6664283275604248 -56.9166297912597656
-36.7898139953613281 -51.3903312683105469 -34.7736434936523438
-17.7143516540527344 97.3107681274414062 63.8746681213378906
27.1358909606933594 17.7334175109863281 69.3432693481445312
-32.4613037109375 54.303314208984375 -54.0495109558105469
25.3261127471923828 -75.2895736694335938 -30.3417720794677734
-32.5735130310058594 103.521202087402344 2.59456968307495117
37.8468894958496094 32.1319541931152344 27.7088737487792969
11.3940391540527344 79.243865966796875 -40.829833984375
19.7886085510253906 22.1042556762695312 29.3297863006591797
-2.51352381706237793 -71.3222808837890625 57.844451904296875
-4.38232517242431641 -24.4817619323730469 -45.6327056884765625
10.1388740539550781 -69.287139892578125 77.563385009765625
3.8971402645111084 14.1119508743286133 -43.2127189636230469
-56.6772079467773438 -59.4197883605957031 5.70795726776123047
-32.8146476745605469 39.8786506652832031 49.9775466918945312
4.15747880935668945 73.9781265258789062 -47.5072479248046875
2.31168818473815918 -50.5097312927246094 64.5073394775390625
-55.5522270202636719 72.339996337890625 -15.0896263122558594
6.28063774108886719 101.770416259765625 19.0363254547119141
25.5126705169677734 20.6469440460205078 -3.5685732364654541
16.2118358612060547 -73.49224853515625 83.247650146484375
-34.7555809020996094 28.4322910308837891 -43.5057640075683594
-10.8368434906005859 90.8923797607421875 65.192230224609375
40.7825126647949219 -34.0242652893066406 -7.98788309097290039
9.49834632873535156 -60.7674407958984375 -76.5100784301757812
49.3218231201171875 -68.858551025390625 42.4035377502441406
-3.14935135841369629 96.4504165649414062 47.7259788513183594
20.6917381286621094 22.7215442657470703 -22.8584518432617188
-50.1336517333984375 -3.31772899627685547 -1.51963341236114502
43.251129150390625 -50.6482391357421875 1.83376979827880859
0.915789783000946045 9.12885379791259766 -37.0809364318847656
-52.7507896423339844 84.2288055419921875 -8.2886505126953125
-4.32262182235717773 -6.79116630554199219 -81.0106124877929688
-44.9476966857910156 -30.806976318359375 25.6405086517333984
34.5579414367675781 -61.9037246704101562 -97.1001358032226562
-48.927520751953125 58.8658370971679688 38.878814697265625
17.4485950469970703 57.7036018371582031 45.2408409118652344
-50.9327125549316406 28.7577934265136719 29.7661476135253906
51.9333724975585938 -69.1081314086914062 56.0788116455078125
45.1238594055175781 -31.6905136108398438 -94.7784423828125
-11.5560092926025391 -62.7282142639160156 54.5263137817382812
-9.50559806823730469 9.31216907501220703 65.15264892578125
-22.3963336944580078 -53.0968513488769531 49.1921463012695312
-7.106536865234375 104.981727600097656 -23.0266437530517578
-63.9713821411132812 -53.8411903381347656 -4.03422212600708008
23.0359249114990234 -34.0726127624511719 61.4899826049804688
24.23846435546875 -20.1026153564453125 -27.8413562774658203
46.4055557250976562 -55.4785423278808594 -50.1724014282226562
-52.6532440185546875 47.6762161254882812 -30.0916728973388672
52.1379432678222656 -55.8441009521484375 -77.1985626220703125
7.92979621887207031 29.3965988159179688 44.0509719848632812
28.2008934020996094 -48.8198432922363281 -103.010040283203125
28.3267593383789062 49.7507743835449219 -21.5682373046875
22.9249973297119141 -24.8491573333740234 -89.38201904296875
31.4725933074951172 0.601714134216308594 81.4057388305664062
31.9018592834472656 -39.5270195007324219 -105.240943908691406
24.5315399169921875 -0.458622664213180542 18.2746868133544922
-29.4803581237792969 10.4148178100585938 -46.4965972900390625
-36.2176589965820312 88.7271347045898438 29.9401092529296875
-13.4924860000610352 95.249053955078125 -34.7658576965332031
32.2942428588867188 7.19038820266723633 77.7907562255859375
-54.0802459716796875 79.9071884155273438 -1.10608172416687012
35.6455917358398438 -47.7140388488769531 19.7881011962890625
-35.6348114013671875 16.4093723297119141 -33.2894821166992188
42.75469970703125 -61.8438262939453125 -47.1168785095214844
-28.5862770080566406 104.8128662109375 9.48093128204345703
2.19934988021850586 13.8302364349365234 -84.7249832153320312
-0.71596759557723999 -78.26226806640625 -24.5625629425048828
41.3314857482910156 -31.0231838226318359 -53.6520042419433594
-16.9890060424804688 64.4733352661132812 -71.2337417602539062
-32.8679084777832031 32.5615806579589844 49.4905319213867188
14.2999076843261719 -48.6108245849609375 -83.1172332763671875
4.94516897201538086 4.51420927047729492 77.7424163818359375
-35.6735763549804688 64.4340362548828125 58.1320724487304688
-1.3825840950012207 -51.8341789245605469 -66.2971267700195312
31.6471004486083984 -85.9893646240234375 73.5523452758789062
-44.5647506713867188 -76.0137786865234375 -5.39736127853393555
-26.7567596435546875 53.8707809448242188 56.9395599365234375
39.4674949645996094 -76.1020355224609375 84.9853363037109375
19.6576099395751953 -70.4224624633789062 22.3237819671630859
-5.82273674011230469 -22.9779491424560547 -44.9719924926757812
22.7731189727783203 -1.99989545345306396 33.0652961730957031
-34.7304039001464844 94.0556869506835938 -28.6889915466308594
14.9176015853881836 4.69753170013427734 57.2189483642578125
51.012298583984375 -38.6141624450683594 -57.27337646484375
-48.7280998229980469 60.4110946655273438 40.4608879089355469
32.3195610046386719 -19.5467548370361328 -61.6175003051757812
16.588775634765625 86.1236648559570312 27.7321128845214844
-54.7017860412597656 32.3384933471679688 24.8722209930419922
-19.3241195678710938 -9.82065296173095703 -65.7323150634765625
-55.7160987854003906 75.6415557861328125 0.159887522459030151
43.8857917785644531 -74.7441329956054688 -85.1674423217773438
29.981658935546875 -15.3233156204223633 -20.0326309204101562
46.1928329467773438 46.9370841979980469 21.2233257293701172
-29.3408260345458984 -17.1416301727294922 57.1769943237304688
4.36435508728027344 87.0000839233398438 -49.33154296875
-11.4112377166748047 108.609832763671875 -7.63709020614624023
29.0087699890136719 61.3895606994628906 -4.04281520843505859
44.7320976257324219 -14.3560676574707031 38.2350502014160156
1.83580911159515381 -53.9218635559082031 64.1560134887695312
26.5440711975097656 -65.4798660278320312 -11.7653923034667969
-38.7086830139160156 83.7906646728515625 31.5726757049560547
-20.6982975006103516 108.714065551757812 20.8984088897705078
-18.7615547180175781 61.4396553039550781 -67.4466094970703125
-13.7384223937988281 43.5360908508300781 -57.8213119506835938
13.8066396713256836 10.0520744323730469 22.3865947723388672
-15.7209234237670898 -81.7163619995117188 6.26654052734375
33.8565101623535156 -59.7346611022949219 -6.41179800033569336
-45.582305908203125 -43.2041778564453125 -30.004058837890625
29.5002326965332031 -66.1205825805664062 10.5931606292724609
38.4673843383789062 -10.780451774597168 39.1654281616210938
-32.86700439453125 77.517303466796875 -49.1979255676269531
6.59691810607910156 -80.6655197143554688 55.5393829345703125
12.1971025466918945 73.0302734375 45.5304107666015625
15.8831281661987305 9.79715633392333984 -52.6957778930664062
25.7350559234619141 -3.93925809860229492 -80.7289886474609375
27.6630668640136719 -2.44934439659118652 12.7657909393310547
-1.04746639728546143 -31.5113639831542969 82.3828048706054688
-17.5829029083251953 80.8365478515625 49.9106407165527344
0.705663621425628662 22.2273406982421875 -40.6992378234863281
-53.2756919860839844 -43.2334442138671875 -20.5029048919677734
2.79449987411499023 -43.0905914306640625 62.9899864196777344
-7.43782615661621094 34.3427696228027344 -50.6383056640625
47.097869873046875 -46.7778129577636719 92.6895523071289062
30.3692073822021484 -18.8568382263183594 15.5279092788696289
-1.98589456081390381 -0.0875962451100349426 83.086212158203125
17.6136512756347656 -24.9245719909667969 36.3934440612792969
16.9489631652832031 13.2324800491333008 36.3620796203613281
14.3176326751708984 -51.1716880798339844 89.445831298828125
-24.2887020111083984 -35.9927177429199219 47.721954345703125
-26.491912841796875 0.78906548023223877 -53.4737663269042969
-11.1736907958984375 94.7458038330078125 63.7676162719726562
-2.53444671630859375 85.085601806640625 -54.0981674194335938
2.53590965270996094 -16.1857948303222656 -84.630279541015625
-21.1902217864990234 60.4958038330078125 54.4205398559570312
11.7224273681640625 -43.2281455993652344 83.3134613037109375
-2.18384575843811035 -79.80224609375 -45.3737411499023438
13.1351833343505859 -64.816925048828125 -80.6878204345703125
21.2084083557128906 -82.3880844116210938 50.8288650512695312
40.2216033935546875 59.6586494445800781 0.408092677593231201
-7.1862483024597168 31.1071491241455078 52.0882949829101562
42.30657958984375 -41.9848823547363281 -53.4796791076660156
-53.550262451171875 -44.526947021484375 8.79389858245849609
-19.1146392822265625 19.6486396789550781 48.5787200927734375
43.1305122375488281 -79.0766525268554688 42.1460838317871094
-15.6049947738647461 -2.68935203552246094 77.2307586669921875
17.2278957366943359 17.6157398223876953 -64.0007781982421875
19.1449604034423828 -75.6560516357421875 9.4368133544921875
6.12645339965820312 -70.0077438354492188 -71.236785888671875
-49.0904731750488281 -56.1969070434570312 19.7041606903076172
25.3666324615478516 -81.318695068359375 79.7717208862304688
-2.38627243041992188 31.6932621002197266 50.957977294921875
32.8008193969726562 -36.9420051574707031 18.9693717956542969
-31.9548549652099609 -79.3211212158203125 -8.31154060363769531
27.76263427734375 3.83788061141967773 77.2030410766601562
50.3073883056640625 43.6271743774414062 2.69590544700622559
-16.1927433013916016 76.6734466552734375 -72.669097900390625
29.7296142578125 -18.8958053588867188 22.6916580200195312
-54.2589874267578125 18.7339229583740234 -10.4578132629394531
18.2491188049316406 -38.9062614440917969 72.6409225463867188
9.59738826751708984 48.2753372192382812 -47.53546142578125
54.146240234375 -42.6624221801757812 -75.5718917846679688
-45.3500556945800781 42.3558311462402344 -42.432098388671875
42.69952392578125 -62.1266326904296875 35.3104591369628906
-26.4523487091064453 101.744049072265625 8.24707412719726562
-13.9717683792114258 80.5052642822265625 69.4903335571289062
46.2412910461425781 -40.4079017639160156 -52.9439125061035156
42.4325637817382812 -47.64617919921875 6.80709123611450195
-40.7142906188964844 53.4325523376464844 -45.7442359924316406
-53.7407951354980469 46.1950836181640625 -28.0521602630615234
19.4017181396484375 -26.8001899719238281 34.5748672485351562
-14.6416616439819336 38.6408882141113281 -57.3023338317871094
1.34998178482055664 97.4339218139648438 -39.6188011169433594
25.8538284301757812 -20.52740478515625 -80.509002685546875
25.7866439819335938 -11.6748266220092773 -60.8437423706054688
29.209259033203125 -7.72449970245361328 65.7026824951171875
3.20454192161560059 -12.0155611038208008 88.9318923950195312
-6.06541156768798828 17.653564453125 -76.1571273803710938
1.22517800331115723 -82.2934036254882812 -46.04840087890625
10.0793180465698242 1.09794819355010986 -24.8373203277587891
-26.9302577972412109 -65.4961700439453125 -36.1016731262207031
19.5163669586181641 -53.4522743225097656 -92.3079376220703125
-35.5450935363769531 59.7864456176757812 -50.6840744018554688
52.8528060913085938 -62.5951461791992188 79.349761962890625
-16.6289043426513672 91.4394302368164062 68.8686370849609375
-16.9127883911132812 12.4585199356079102 53.0860939025878906
-54.7353973388671875 28.4324226379394531 22.3614673614501953
-24.5081958770751953 -59.0239219665527344 39.4804306030273438
-45.1998214721679688 -15.4038782119750977 27.9511451721191406
46.0611724853515625 -34.7610511779785156 -96.1270370483398438
14.3112983703613281 -5.70468616485595703 25.6428642272949219
-46.6090240478515625 -32.8975868225097656 -24.2673892974853516
-19.1094818115234375 106.032546997070312 -2.80366826057434082
46.0830726623535156 -40.6493873596191406 -53.1262016296386719
-7.65191650390625 -78.9910736083984375 -19.0985202789306641
45.0702934265136719 -75.4652252197265625 -73.6732025146484375
50.2100448608398438 -64.0803070068359375 40.8450660705566406
20.3012142181396484 -28.6759777069091797 -88.8620986938476562
-29.3955478668212891 0.366210103034973145 58.2213783264160156
-5.55638456344604492 37.6393890380859375 54.7383384704589844
45.8550300598144531 -70.2334136962890625 86.8652877807617188
-36.6749038696289062 -15.1387948989868164 39.02838134765625
41.4757003784179688 -21.5875701904296875 35.6669998168945312
36.4027442932128906 17.8810787200927734 11.6527242660522461
19.3070640563964844 41.0670967102050781 40.8643760681152344
38.3873062133789062 -57.4742469787597656 10.5855493545532227
25.1869316101074219 -17.9382648468017578 -24.9993343353271484
21.0702190399169922 -74.0795135498046875 -12.9290943145751953
27.6589393615722656 52.2021331787109375 -10.7125654220581055
9.35024356842041016 3.93952202796936035 36.6121444702148438
27.8159961700439453 -3.16321086883544922 -8.35574150085449219
35.7869682312011719 -60.4887237548828125 -34.376068115234375
47.8375015258789062 -31.1464958190917969 -89.3141937255859375
-15.819676399230957 4.5775909423828125 70.0279312133789062
11.3293695449829102 -77.8205947875976562 41.6090087890625
16.7729091644287109 -76.3602371215820312 -25.8931789398193359
12.4791393280029297 -80.8018951416015625 48.8798637390136719
29.9859466552734375 45.7382392883300781 -13.9193153381347656
57.2935943603515625 -48.4464263916015625 59.7621078491210938
-39.2877464294433594 -6.765838623046875 -35.2178955078125
32.2675933837890625 71.0367889404296875 0.212023213505744934
25.0122585296630859 -6.83507251739501953 25.1789608001708984
30.8912773132324219 -50.8586769104003906 -106.633331298828125
-35.812469482421875 61.2012062072753906 50.8579216003417969
-45.7116279602050781 -19.7147121429443359 -24.955596923828125
-5.26743412017822266 -78.9668807983398438 1.00396275520324707
-28.2713661193847656 98.0876846313476562 -28.6164836883544922
29.2238426208496094 -22.4185600280761719 -56.8614234924316406
-37.0505790710449219 71.65911865234375 48.2497787475585938
-11.1838626861572266 8.58743572235107422 67.3942489624023438
15.0157833099365234 -15.3602828979492188 -35.6186408996582031
23.2830657958984375 -6.2594752311706543 26.0688133239746094
11.5671453475952148 -21.2129116058349609 31.9372596740722656
-23.3428268432617188 -68.0075225830078125 -36.6163482666015625
29.9470481872558594 -11.9306974411010742 -73.6115646362304688
7.75137090682983398 92.6984481811523438 -32.2396697998046875
40.0693359375 -67.4228897094726562 -45.5262908935546875
43.5620040893554688 -33.1124153137207031 59.9396095275878906
20.1424064636230469 -78.223419189453125 -38.3161735534667969
6.89851284027099609 54.1272811889648438 49.8442268371582031
14.4236583709716797 -32.1132354736328125 62.569427490234375
23.8275165557861328 -68.8493576049804688 -91.0472488403320312
-54.0029678344726562 54.5305862426757812 27.2520961761474609
-53.6433563232421875 79.6610946655273438 -5.67281818389892578
25.4373550415039062 -29.78857421875 75.2712020874023438
-10.9459218978881836 4.32093954086303711 -75.5123138427734375
16.7066421508789062 -28.8674736022949219 62.8899612426757812
-18.6750526428222656 85.861236572265625 -70.2607421875
16.4018745422363281 19.1943893432617188 -63.6431159973144531
44.3056564331054688 27.4967441558837891 0.839838683605194092
34.1688690185546875 -59.6767730712890625 8.78800201416015625
19.4583759307861328 82.57366943359375 28.3402519226074219
-59.5125312805175781 27.2191867828369141 17.1189155578613281
7.61964893341064453 57.0746803283691406 -48.6363601684570312
-8.24691390991210938 -64.3151702880859375 -60.7072525024414062
-15.3366165161132812 -30.1772327423095703 63.9116325378417969
-48.3622894287109375 -18.9704189300537109 -18.5074672698974609
32.889007568359375 -79.3827667236328125 -70.1464080810546875
-32.4859275817871094 -36.9351081848144531 42.6960983276367188
7.34428071975708008 -12.4874734878540039 -43.3952903747558594
42.2776298522949219 -16.5170097351074219 17.2258358001708984
10.6311502456665039 -21.0229206085205078 -68.360931396484375
-11.2305526733398438 40.3878936767578125 53.57696533203125
44.0637893676757812 -68.370819091796875 -85.3152694702148438
12.8792638778686523 11.5955886840820312 -19.2723598480224609
37.2557029724121094 -9.16272354125976562 33.6277046203613281
25.7096614837646484 -1.72006130218505859 -75.943023681640625
26.3589706420898438 -63.28680419921875 -22.8876876831054688
49.7593994140625 33.5789413452148438 12.7085361480712891
-29.5459213256835938 31.9864368438720703 52.3125419616699219
31.1961212158203125 62.592987060546875 19.7211341857910156
-28.94036865234375 -69.3648223876953125 -30.4904975891113281
-62.2006492614746094 -70.363311767578125 -8.08022403717041016
13.2592077255249023 -2.98536396026611328 -25.3084907531738281
-58.6009178161621094 67.0464859008789062 -7.52550125122070312
-24.9128036499023438 -73.6694107055664062 22.0328426361083984
36.5840415954589844 -76.1032028198242188 -91.3245773315429688
40.5791511535644531 -55.5358352661132812 -40.5711860656738281
-18.8823146820068359 91.4381790161132812 60.5279273986816406
8.53906917572021484 -78.6599502563476562 45.7579345703125
16.9076690673828125 3.6938941478729248 -86.8811264038085938
-39.80303955078125 -74.63031005859375 15.9599905014038086
-6.46812629699707031 -16.8081283569335938 -79.6209793090820312
4.760833740234375 80.6738433837890625 43.3527297973632812
11.5793561935424805 3.35816383361816406 54.3294601440429688
22.5099067687988281 66.1981353759765625 27.6907176971435547
14.1950864791870117 -29.1188030242919922 -47.5726318359375
-2.15303397178649902 13.4363021850585938 -34.1076202392578125
46.103302001953125 -54.2212638854980469 -94.945159912109375
-10.7335262298583984 77.3536224365234375 49.2920684814453125
-44.8638725280761719 -22.4467544555664062 27.9768562316894531
-0.67792212963104248 25.9011993408203125 -42.7005348205566406
-4.13765239715576172 -20.0765419006347656 -73.8729324340820312
18.3086318969726562 11.4958629608154297 5.84633636474609375
-21.7673854827880859 -10.6227140426635742 -61.2323074340820312
-42.3997001647949219 63.4003982543945312 -44.1993865966796875
24.6627597808837891 -65.2349700927734375 16.5440921783447266
46.9998512268066406 -58.4063796997070312 -52.1451644897460938
-32.5321235656738281 -62.447418212890625 28.6309947967529297
-17.2617530822753906 108.176826477050781 -4.37908840179443359
16.7568016052246094 -35.8635101318359375 -80.93878173828125
5.81991052627563477 11.2331199645996094 60.1706161499023438
-47.834442138671875 -71.8590240478515625 3.94731330871582031
51.1773681640625 -63.625640869140625 84.7209930419921875
11.8326358795166016 13.5855531692504883 -23.8834629058837891
0.454819053411483765 -42.6942100524902344 61.9916038513183594
-13.4119119644165039 84.0960693359375 53.235992431640625
-10.0312414169311523 -48.9927101135253906 59.6054649353027344
21.2088451385498047 61.5392074584960938 31.2767257690429688
19.3849601745605469 51.2358627319335938 -30.8511734008789062
26.8183784484863281 5.54582405090332031 -2.68797588348388672
-22.1623668670654297 98.81683349609375 -34.72857666015625
36.5876350402832031 -52.3257942199707031 0.15175318717956543
33.1366539001464844 -81.161285400390625 73.5495071411132812
29.2656936645507812 -80.9462051391601562 40.5884933471679688
38.9301872253417969 -29.6353321075439453 9.66269588470458984
-33.805267333984375 0.347849279642105103 -31.7978038787841797
21.7344284057617188 -1.9088289737701416 -50.2157096862792969
35.7416877746582031 -43.4644279479980469 40.4651947021484375
23.8898487091064453 -34.3409919738769531 -37.6840972900390625
-22.6841697692871094 13.5127134323120117 53.4993782043457031
-10.0580434799194336 52.3313026428222656 -60.8318748474121094
-10.925572395324707 12.0401668548583984 58.282257080078125
-31.1570491790771484 21.7694549560546875 -41.2723045349121094
26.6031246185302734 49.5040855407714844 -24.1184482574462891
-19.8662166595458984 66.2449874877929688 55.3121757507324219
-2.24708127975463867 -79.4553146362304688 19.6164150238037109
-0.122798480093479156 84.7776947021484375 -65.5620269775390625
16.5449466705322266 86.4721603393554688 27.0940761566162109
31.3091793060302734 -36.5503921508789062 87.5495147705078125
-28.7910614013671875 -49.8773727416992188 35.4979438781738281
25.1015529632568359 54.8541526794433594 24.6713771820068359
21.0963077545166016 -27.204925537109375 29.4526443481445312
20.0102500915527344 -14.2223920822143555 84.4714202880859375
37.0798530578613281 -78.8829574584960938 -78.5793075561523438
-12.7334365844726562 -28.3787689208984375 -46.850006103515625
38.3983268737792969 -82.9410171508789062 56.2271308898925781
9.75211524963378906 -31.9853343963623047 69.4683303833007812
-40.4748802185058594 -73.6105575561523438 16.7431507110595703
-34.0377006530761719 102.788108825683594 -0.342022627592086792
-19.3773746490478516 100.951461791992188 38.2804603576660156
1.56439208984375 14.0044898986816406 -32.8203620910644531
32.3327522277832031 -86.265350341796875 70.620849609375
-59.656036376953125 57.6424407958984375 -12.7556371688842773
34.0697174072265625 65.1723556518554688 9.23905372619628906
55.4817085266113281 -54.6995201110839844 71.4587173461914062
51.8436470031738281 -53.06024169921875 -81.4970474243164062
-30.4592800140380859 -79.312835693359375 3.29912519454956055
41.9129524230957031 -63.5208320617675781 -93.3873748779296875
-55.0915603637695312 30.3322105407714844 22.3422718048095703
-13.1088695526123047 -81.7615509033203125 -0.92144244909286499
45.5783157348632812 -35.1182098388671875 55.5873069763183594
19.8487796783447266 68.9361190795898438 -37.3879432678222656
13.7920303344726562 -8.16400718688964844 27.5151786804199219
-26.7157325744628906 102.776718139648438 3.31631851196289062
-29.1987991333007812 88.1669692993164062 -44.594451904296875
-49.5805778503417969 53.2207489013671875 35.1202316284179688
-57.45281982421875 33.4148597717285156 -1.96119439601898193
43.8841514587402344 51.0964202880859375 21.4638023376464844
22.579803466796875 -8.86627674102783203 79.5765228271484375
-52.7598419189453125 34.9396896362304688 29.3557643890380859
-20.6111412048339844 26.0001792907714844 -49.9533004760742188
20.5109214782714844 -26.9922752380371094 -74.6253814697265625
45.3154487609863281 -32.2780609130859375 -95.038787841796875
-12.2212743759155273 57.8885993957519531 -57.8038597106933594
21.6207904815673828 -36.5620765686035156 78.8115692138671875
7.0781707763671875 9.16244792938232422 68.8943252563476562
23.6948394775390625 14.2386541366577148 -69.0618896484375
25.9404296875 -39.5829086303710938 96.3102035522460938
37.9960556030273438 -39.9132194519042969 17.3073635101318359
24.1981964111328125 31.4243183135986328 -14.681025505065918
-26.6892471313476562 101.58111572265625 19.7275199890136719
6.00520038604736328 3.30605626106262207 49.1119880676269531
40.2948417663574219 -49.7532806396484375 -40.5623207092285156
-23.9109249114990234 73.1124649047851562 70.86505126953125
-14.7004947662353516 89.5677032470703125 -65.3173370361328125
-2.88188385963439941 -23.7300701141357422 -57.1790237426757812
20.8367671966552734 -75.6578903198242188 -42.1679725646972656
28.2197017669677734 -68.28778076171875 25.1053314208984375
0.920099496841430664 109.117713928222656 2.63120508193969727
36.9070777893066406 -23.7879638671875 -13.9124660491943359
49.4215278625488281 -77.164337158203125 60.1989784240722656
48.1634101867675781 34.7591590881347656 18.0867500305175781
51.7140769958496094 -36.1082344055175781 61.3165321350097656
28.0402812957763672 -20.7549152374267578 -63.7746086120605469
-30.2062644958496094 96.1867294311523438 31.1297206878662109
25.6103878021240234 -6.6837763786315918 36.7529945373535156
10.8429231643676758 4.77089548110961914 36.3442344665527344
12.6562671661376953 48.888702392578125 -43.7061996459960938
38.7435150146484375 -43.1881027221679688 -1.62298870086669922
24.5493068695068359 82.599853515625 -4.27873468399047852
-30.6690902709960938 -21.6426200866699219 46.6178054809570312
3.23718833923339844 35.0223960876464844 -49.2185287475585938
45.2588157653808594 -53.8254241943359375 36.823211669921875
38.9995384216308594 -26.8180999755859375 -55.926971435546875
27.7073822021484375 -17.8472347259521484 23.3427257537841797
16.4189529418945312 8.81627178192138672 -9.76494503021240234
1.4220355749130249 -41.6182060241699219 61.1682815551757812
-41.7831497192382812 2.35808181762695312 -25.236083984375
5.87884283065795898 9.5495758056640625 68.6423873901367188
40.1017608642578125 -21.8484230041503906 41.5295677185058594
38.5290985107421875 -58.7048377990722656 100.058174133300781
-45.848358154296875 0.835446536540985107 -18.2179679870605469
25.6347579956054688 -7.9890289306640625 66.78668212890625
20.7479724884033203 8.52838802337646484 34.9525032043457031
-5.90312290191650391 105.557594299316406 25.5593242645263672
24.6810283660888672 73.19146728515625 -28.43621826171875
-56.621673583984375 -47.3709678649902344 -22.8781394958496094
43.4120445251464844 -67.8181381225585938 -51.7678070068359375
-14.4255466461181641 -18.2128276824951172 -57.3911323547363281
22.7259902954101562 -23.0383930206298828 -75.4076690673828125
-18.9448146820068359 28.3550472259521484 -53.9090461730957031
-5.36327314376831055 61.1265335083007812 55.7280540466308594
28.34033203125 46.8601608276367188 -17.6025161743164062
-50.37506103515625 -70.3548583984375 -0.593781590461730957
4.7889866828918457 108.57159423828125 -5.19421672821044922
-34.1717033386230469 97.180267333984375 -22.0097007751464844
17.7559909820556641 -77.1571197509765625 -4.62970161437988281
24.3730354309082031 -34.5520896911621094 31.7787895202636719
4.51350069046020508 13.6443328857421875 -84.9365158081054688
33.1879386901855469 -24.6703567504882812 14.4035778045654297
24.7199592590332031 -10.7504329681396484 -58.0500907897949219
16.9484996795654297 -62.6137275695800781 94.6866378784179688
26.7256278991699219 -11.0507192611694336 60.903106689453125
-20.0281429290771484 64.6471481323242188 58.3130912780761719
-13.6802253723144531 82.7074661254882812 53.5541000366210938
50.7669792175292969 -41.4306221008300781 62.9251708984375
22.2591972351074219 -27.7450199127197266 -95.1825103759765625
26.9213199615478516 -8.31075954437255859 69.8375320434570312
26.7713794708251953 -81.0323028564453125 40.2570610046386719
46.6528282165527344 -29.4275493621826172 -66.9018173217773438
9.26808261871337891 -23.4465656280517578 -74.023406982421875
-35.0473594665527344 -77.1241455078125 -0.836625576019287109
36.6073684692382812 -56.1950645446777344 -37.1217803955078125
55.654266357421875 -49.6019248962402344 73.396636962890625
1.43700957298278809 11.6947107315063477 59.2235069274902344
-5.03895759582519531 -64.7327804565429688 -63.4131851196289062
-40.6252861022949219 -43.9959449768066406 -35.3645095825195312
-36.6950111389160156 54.3593864440917969 -50.6913986206054688
-32.2088813781738281 86.5517807006835938 42.5528373718261719
47.4581375122070312 -17.3178920745849609 33.9560394287109375
-21.9163494110107422 87.121917724609375 69.68798828125
16.7170467376708984 -19.0194778442382812 -35.57867431640625
12.2443675994873047 9.15667247772216797 -91.7599639892578125
-48.0485382080078125 79.79058837890625 26.8289642333984375
13.7896146774291992 55.9461135864257812 47.4097404479980469
-19.6449623107910156 78.7764358520507812 -71.0048980712890625
-60.4444351196289062 54.2338333129882812 9.08124637603759766
23.5226955413818359 -16.0821609497070312 77.4001998901367188
-18.4361362457275391 -4.40601778030395508 -67.0172576904296875
-27.1296939849853516 -52.2076950073242188 42.3585662841796875
23.7800731658935547 -11.1652088165283203 31.0984249114990234
-60.194091796875 55.36700439453125 10.0756893157958984
49.5319976806640625 -67.8681106567382812 -63.36712646484375
-2.29187965393066406 -74.54315185546875 -56.0502433776855469
9.39712142944335938 62.4426422119140625 -47.8968353271484375
-59.6055755615234375 26.9815044403076172 17.0067787170410156
-7.36053466796875 18.5250682830810547 -71.0960617065429688
1.9776923656463623 -52.9941177368164062 -68.7390594482421875
-54.8223800659179688 -9.07295799255371094 7.33986759185791016
-14.7064580917358398 -20.7269191741943359 -53.6835174560546875
11.9813213348388672 -14.6802530288696289 -35.7498779296875
-37.5205459594726562 -75.8331832885742188 14.0496387481689453
-39.1959495544433594 96.6399154663085938 -4.06375551223754883
-11.4339609146118164 99.7075729370117188 50.1159782409667969
18.2741565704345703 50.7043190002441406 -34.7990264892578125
-7.39537572860717773 -80.514984130859375 -24.8598556518554688
10.0962448120117188 -78.1905899047851562 -30.9848594665527344
17.1771202087402344 -77.674957275390625 -75.6010513305664062
34.5948600769042969 -27.1675033569335938 14.7341823577880859
23.674957275390625 -14.160334587097168 78.28643798828125
3.21086835861206055 -4.55453109741210938 -85.1900711059570312
22.9626445770263672 -20.9569149017333984 -86.624114990234375
-17.5992717742919922 80.5410842895507812 -71.4633712768554688
3.2255406379699707 10.3203392028808594 -84.9221115112304688
17.1630649566650391 -20.6258506774902344 -34.6107673645019531
31.4388847351074219 -19.9574413299560547 27.5832118988037109
-5.94445085525512695 41.517730712890625 55.6153907775878906
-45.6202812194824219 -75.6411590576171875 6.69134902954101562
-24.1702823638916016 107.0484619140625 21.8948554992675781
-29.8068981170654297 21.9999465942382812 43.3479232788085938
50.6622505187988281 -59.8805580139160156 42.0631217956542969
36.3564071655273438 -74.039794921875 -46.1401100158691406
-20.7126121520996094 -23.4223899841308594 -44.13348388671875
23.4689407348632812 -15.5922431945800781 74.432281494140625
-28.6682186126708984 102.253089904785156 -16.7769126892089844
23.5698528289794922 -48.0111198425292969 -97.3073501586914062
19.7750091552734375 81.660491943359375 29.0303764343261719
