ply
format ascii 1.0
element vertex 789
comment vertices
property float x
property float y
property float z
end_header
10.9893016815185547 -97.2046279907226562 -6.52290868759155273
71.264190673828125 -24.6191444396972656 -24.6051292419433594
-2.31253576278686523 2.65873479843139648 104.079681396484375
45.615570068359375 -76.4842147827148438 115.374885559082031
-36.8679580688476562 62.936309814453125 -64.5018844604492188
-79.549560546875 -39.8474464416503906 -7.84597635269165039
-57.259552001953125 -31.0834388732910156 102.250350952148438
17.9498844146728516 169.478897094726562 54.316253662109375
-39.8281669616699219 -88.8600082397460938 41.3025016784667969
-34.9822769165039062 67.605133056640625 -44.7666664123535156
64.6243515014648438 40.3505363464355469 -13.506840705871582
-75.7980422973632812 -77.05316162109375 84.1578445434570312
65.6149749755859375 -94.2761764526367188 76.7330780029296875
56.81512451171875 46.053314208984375 -67.2714996337890625
19.4522781372070312 21.4163570404052734 -92.6623001098632812
-81.8197708129882812 -47.11859130859375 -70.022705078125
-48.3816146850585938 -86.9600830078125 21.9453392028808594
59.2696380615234375 59.6221160888671875 -0.665885269641876221
-18.6148471832275391 -93.4408721923828125 58.6353759765625
-69.6678009033203125 14.1303777694702148 -45.5691642761230469
42.4228782653808594 55.7516441345214844 74.6640853881835938
-76.4480514526367188 -32.2747573852539062 -86.6520462036132812
2.07114863395690918 -96.0679855346679688 26.4077739715576172
-28.1471443176269531 -12.0742359161376953 -106.111091613769531
-15.6937198638916016 -94.1145477294921875 1.04609882831573486
-25.1223316192626953 -53.9720230102539062 119.051948547363281
-8.15892982482910156 40.8633842468261719 60.4665298461914062
9.12846088409423828 177.553863525390625 -29.7880096435546875
67.825042724609375 -37.291259765625 83.1819915771484375
68.1485977172851562 15.9138278961181641 -24.4352054595947266
69.2180938720703125 -22.9222793579101562 44.8907012939453125
0.55389249324798584 197.655410766601562 -19.8089122772216797
-4.9399266242980957 -95.5223236083984375 46.8281593322753906
-77.5074615478515625 -16.3248577117919922 -39.65008544921875
38.953948974609375 -67.0653457641601562 118.510910034179688
-11.1912212371826172 -87.500457763671875 80.3553695678710938
4.66027402877807617 192.09454345703125 11.5797252655029297
-80.466705322265625 -67.5224609375 -32.5101547241210938
-51.0618705749511719 48.7419166564941406 63.8817634582519531
-68.8344879150390625 13.3573589324951172 -69.0853271484375
62.8413352966308594 55.6234779357910156 76.4084854125976562
-45.1913108825683594 -25.4904594421386719 114.599220275878906
11.7628965377807617 50.9688873291015625 -64.9089279174804688
67.7631378173828125 42.0631217956542969 36.2606239318847656
-53.847991943359375 7.38042449951171875 -105.61004638671875
63.513031005859375 -18.5723800659179688 94.830810546875
56.6291236877441406 27.7801303863525391 -64.2876510620117188
15.6831140518188477 -96.9009933471679688 44.8208122253417969
67.09149169921875 -76.783843994140625 -110.2706298828125
58.4283714294433594 64.9309921264648438 34.4906768798828125
-77.6403045654296875 -63.9489936828613281 -104.094482421875
62.7328987121582031 -26.7693672180175781 101.523109436035156
49.7238655090332031 -92.5594635009765625 96.8537673950195312
-17.0422801971435547 150.359893798828125 -52.6581687927246094
9.11734294891357422 60.5128059387207031 -50.1125717163085938
-21.4245376586914062 -94.34417724609375 -12.6967391967773438
62.3976669311523438 24.2587909698486328 -44.4655799865722656
15.177302360534668 69.9886627197265625 -18.1494846343994141
-79.4249267578125 -58.5656013488769531 -30.8015117645263672
35.8949966430664062 67.9432144165039062 35.5894317626953125
67.5272369384765625 -86.5427093505859375 -72.0099029541015625
67.58807373046875 -33.5445747375488281 84.602386474609375
64.8221282958984375 42.6693916320800781 -4.32229804992675781
-49.4899635314941406 -56.8652725219726562 -120.277313232421875
-16.4414787292480469 70.610260009765625 21.6381053924560547
28.3169898986816406 134.705184936523438 71.2335968017578125
47.8913726806640625 67.894073486328125 43.9254951477050781
-78.7753982543945312 -56.1381607055664062 16.1538181304931641
-67.8952484130859375 -75.7122039794921875 -113.248855590820312
-58.9506416320800781 -76.1270294189453125 -108.948265075683594
14.5985918045043945 149.010833740234375 -58.7529296875
41.6574516296386719 68.8783187866210938 -30.3720836639404297
68.6220321655273438 -92.9928436279296875 69.3933334350585938
-14.4470720291137695 -95.5999679565429688 -37.0805854797363281
59.8639907836914062 56.0481605529785156 -21.5651607513427734
54.8554649353027344 -85.7868728637695312 -112.74334716796875
38.55755615234375 62.781463623046875 -12.6506624221801758
68.8778839111328125 -92.967620849609375 55.0956649780273438
-58.0774612426757812 45.3367729187011719 49.3380928039550781
20.7926292419433594 48.061859130859375 64.9273223876953125
-14.6558446884155273 146.353790283203125 -57.9689598083496094
-79.8707046508789062 -43.2087478637695312 -85.7706832885742188
-75.3433456420898438 -48.007232666015625 -100.130722045898438
-15.362579345703125 -96.1584243774414062 -52.9662666320800781
-28.2791404724121094 123.941436767578125 -68.623809814453125
-78.5330734252929688 -34.8178558349609375 -2.20224118232727051
-44.8865089416503906 56.0269012451171875 -94.514007568359375
47.174713134765625 75.591552734375 80.9448928833007812
-69.826507568359375 -80.8827590942382812 -102.26263427734375
-69.6278152465820312 -12.3498678207397461 76.1084136962890625
-3.93717074394226074 -81.7711410522460938 -99.5981521606445312
71.454742431640625 -12.2048215866088867 -8.90721511840820312
-74.8700942993164062 -1.73799717426300049 -32.0263252258300781
-28.5934009552001953 116.568145751953125 -63.1580276489257812
29.2423381805419922 -22.8768539428710938 115.198493957519531
-29.2821426391601562 94.129486083984375 74.915557861328125
-78.6614227294921875 -23.5793590545654297 -61.6412391662597656
-60.4135017395019531 44.5051727294921875 16.0678119659423828
35.0672531127929688 -97.0648574829101562 43.1633987426757812
-57.72711181640625 -84.0643539428710938 22.0959415435791016
69.0243682861328125 -3.08645296096801758 -26.3595046997070312
17.6428775787353516 21.124267578125 -94.6765594482421875
47.4061698913574219 45.9645881652832031 -89.47540283203125
-81.23516845703125 -44.6597213745117188 -58.4519691467285156
-7.42644882202148438 61.4848747253417969 34.9600181579589844
-25.88385009765625 -93.7089157104492188 -18.5538082122802734
67.5887222290039062 18.2625675201416016 70.4600982666015625
-38.4433708190917969 52.7369537353515625 92.4872665405273438
-76.4739227294921875 -15.4780550003051758 19.3388309478759766
38.6409225463867188 3.64150714874267578 96.6005172729492188
-15.4143037796020508 60.6418380737304688 44.5952529907226562
-56.6488914489746094 -69.9421844482421875 117.164398193359375
-3.21895384788513184 -88.3120040893554688 -91.1034698486328125
15.2487754821777344 61.9617996215820312 -38.9430274963378906
-77.0694961547851562 -20.5590839385986328 0.825026333332061768
47.0262298583984375 42.9356231689453125 93.2357559204101562
-56.8844146728515625 60.9876441955566406 -1.15740275382995605
0.542006194591522217 186.808395385742188 44.2914009094238281
-39.0542869567871094 -91.4419631958007812 -31.3469448089599609
41.0085906982421875 105.187637329101562 80.2978286743164062
62.0083732604980469 21.8732337951660156 87.8314208984375
-51.9104728698730469 52.2477302551269531 -85.0274124145507812
55.0267677307128906 -94.7834930419921875 73.8672409057617188
33.5583686828613281 90.6393280029296875 -68.9422988891601562
-1.81607377529144287 74.3611679077148438 -22.2402877807617188
-36.5256462097167969 60.5767936706542969 -70.8140106201171875
-51.0160408020019531 -36.1926078796386719 -111.649459838867188
32.6874885559082031 68.9662094116210938 39.9315338134765625
-41.6162261962890625 -62.5126686096191406 115.159904479980469
-72.4621047973632812 -8.9314422607421875 64.3452606201171875
16.3437957763671875 -60.8731651306152344 117.574440002441406
-50.4156150817871094 -1.12454628944396973 107.350273132324219
25.4504547119140625 -88.5102615356445312 -103.158615112304688
-41.7463340759277344 78.4470672607421875 -17.98175048828125
21.7436466217041016 5.80796480178833008 108.271339416503906
13.9706459045410156 27.1447124481201172 84.8011016845703125
44.5448684692382812 -96.941314697265625 15.1520423889160156
67.186798095703125 -2.87567543983459473 -41.7772102355957031
69.8393936157226562 -77.5548248291015625 -63.2567367553710938
-80.62835693359375 -65.1759033203125 -4.93366861343383789
-43.3295135498046875 76.6528854370117188 16.2097988128662109
70.9925918579101562 -34.5759696960449219 -37.4445381164550781
-61.5035896301269531 47.8445930480957031 -10.4116239547729492
64.6250839233398438 33.9320793151855469 -32.1001548767089844
-34.2480087280273438 21.8866481781005859 98.9789352416992188
64.4978256225585938 56.5301589965820312 62.6238784790039062
-12.1847963333129883 -96.545257568359375 -66.7437057495117188
49.1202507019042969 -39.8673973083496094 -115.711830139160156
34.6299514770507812 66.566986083984375 29.5019321441650391
-12.0977773666381836 -84.1118392944335938 -97.955474853515625
56.6939849853515625 33.6923141479492188 95.063018798828125
28.8954410552978516 -30.3124141693115234 -116.858856201171875
71.0056838989257812 -87.3858642578125 79.0634384155273438
67.426788330078125 35.3153495788574219 2.62768793106079102
57.3429183959960938 -62.7100372314453125 -94.3728256225585938
50.9292221069335938 67.4174270629882812 -80.848785400390625
-53.140411376953125 68.067108154296875 -77.639984130859375
68.076812744140625 -31.8510665893554688 80.5656051635742188
64.1205520629882812 11.9060945510864258 -49.2642250061035156
36.8539047241210938 -21.0444564819335938 -108.617530822753906
43.4289398193359375 -93.8608551025390625 83.4235687255859375
71.1003494262695312 -17.9702072143554688 12.0156927108764648
-44.9504318237304688 -21.386688232421875 114.813499450683594
36.6092681884765625 -97.4960861206054688 18.9333000183105469
4.46144866943359375 33.3975143432617188 -92.8661651611328125
-47.8533554077148438 58.3660812377929688 83.2946395874023438
-2.33965730667114258 5.1759953498840332 107.180229187011719
-78.652008056640625 -34.7270050048828125 38.7267341613769531
-35.6646537780761719 87.1665267944335938 78.8084564208984375
38.4042739868164062 52.6089935302734375 -57.1685714721679688
-46.8452720642089844 33.1943016052246094 -97.3285598754882812
6.0864872932434082 200.50836181640625 21.4611320495605469
-57.3459892272949219 20.1304454803466797 87.1581497192382812
-65.38507080078125 -28.6718425750732422 -104.036911010742188
33.0378646850585938 62.6769180297851562 -48.0532264709472656
29.4356861114501953 103.708854675292969 -78.7510757446289062
-20.7511806488037109 135.951171875 -56.5879325866699219
36.9061470031738281 -91.8465423583984375 93.5488204956054688
58.1094322204589844 62.4325370788574219 1.23647820949554443
23.8335628509521484 140.0301513671875 71.6810760498046875
-0.136976122856140137 17.5879554748535156 82.7134628295898438
-63.2103347778320312 19.8527793884277344 73.6239471435546875
3.34657049179077148 36.4606361389160156 60.9508857727050781
47.4234390258789062 68.6247024536132812 32.7447586059570312
-67.85101318359375 26.4384479522705078 6.0504307746887207
-53.2548294067382812 28.9657344818115234 93.0432281494140625
-44.0479774475097656 51.4580230712890625 97.7123489379882812
-1.46298110485076904 195.005508422851562 16.4519901275634766
68.963714599609375 -25.1228790283203125 46.8868446350097656
71.5564651489257812 -71.76837158203125 -18.9425373077392578
58.6793327331542969 -67.5182342529296875 -115.879554748535156
-59.341644287109375 46.7176170349121094 11.6419811248779297
59.0825233459472656 59.3415565490722656 -15.3893651962280273
-31.9437046051025391 -60.0164260864257812 116.50006103515625
14.1157388687133789 67.9256362915039062 -26.4805641174316406
-18.0341949462890625 -87.618621826171875 -93.874755859375
62.2662315368652344 29.9344234466552734 82.8595352172851562
69.1142730712890625 -86.8580169677734375 -25.641204833984375
-73.7845840454101562 -60.5381355285644531 102.045181274414062
8.11558914184570312 191.822738647460938 11.2291231155395508
-49.2592315673828125 -27.6736259460449219 117.298309326171875
-46.7080879211425781 -77.3150253295898438 -105.583106994628906
-84.0423355102539062 -60.9621200561523438 60.4800910949707031
68.0320663452148438 -24.3165569305419922 79.1375885009765625
-10.0519523620605469 11.6271038055419922 102.238784790039062
65.7840118408203125 7.07450485229492188 -45.1570510864257812
-45.6593437194824219 28.8031654357910156 -96.1444625854492188
-79.7889328002929688 -73.4823150634765625 23.305328369140625
54.3979148864746094 -96.0582275390625 30.3147315979003906
-81.4628448486328125 -63.5867538452148438 -57.6665306091308594
-53.620849609375 -84.9242477416992188 -86.1250839233398438
-52.5403175354003906 65.80206298828125 -9.18526840209960938
29.3890457153320312 -96.9481582641601562 -50.8264312744140625
52.3113784790039062 -67.5641326904296875 119.588722229003906
-13.835566520690918 164.785079956054688 -46.8121604919433594
9.84133625030517578 191.477127075195312 35.6984062194824219
53.2346153259277344 30.6962165832519531 101.344131469726562
35.6954383850097656 -42.0297660827636719 119.507148742675781
62.1363639831542969 57.2800331115722656 37.0823402404785156
-1.2460860013961792 194.58441162109375 17.0159683227539062
43.2253150939941406 18.1044883728027344 91.834747314453125
22.8094558715820312 -61.9049644470214844 -122.045516967773438
60.3934593200683594 -71.1681442260742188 -116.405113220214844
-61.3477821350097656 -83.7784423828125 -15.5672683715820312
67.556793212890625 34.9521102905273438 66.6588821411132812
68.5013427734375 -68.8853683471679688 14.8820695877075195
-36.3248138427734375 -1.14909052848815918 -97.8229446411132812
-79.299957275390625 -76.4464874267578125 -84.2947769165039062
70.4649581909179688 11.3984584808349609 5.01199674606323242
67.1849594116210938 -38.1783676147460938 88.60711669921875
58.8011398315429688 59.1014976501464844 -24.7909870147705078
26.3161163330078125 69.1079483032226562 16.5259380340576172
44.5733146667480469 43.3237648010253906 -71.49444580078125
42.9818344116210938 68.5777587890625 -15.8686952590942383
47.4005546569824219 -96.1068038940429688 57.6416053771972656
0.110046863555908203 -29.1407928466796875 123.182304382324219
32.7972183227539062 19.1101760864257812 -93.4320602416992188
-64.8594894409179688 1.75289082527160645 80.48480224609375
-26.6082897186279297 2.54183220863342285 106.201560974121094
54.0103721618652344 -93.97698974609375 88.432220458984375
60.8638076782226562 35.5448799133300781 -47.6675262451171875
-0.0118834851309657097 69.4081649780273438 -41.4214248657226562
-38.7472305297851562 -42.5604400634765625 118.915603637695312
64.3836898803710938 -20.3853988647460938 -70.8715438842773438
-42.5893173217773438 -27.6136493682861328 109.920051574707031
24.1392860412597656 39.8511619567871094 77.1260528564453125
-11.3168754577636719 -62.7527313232421875 115.5435791015625
-78.9017868041992188 -30.9337368011474609 53.6951446533203125
-54.8856735229492188 14.9635429382324219 94.6394729614257812
-39.4983100891113281 63.1411857604980469 -82.8076095581054688
-76.0709075927734375 -3.74628257751464844 -3.84826374053955078
-63.2251472473144531 -21.475006103515625 -103.489265441894531
64.7111663818359375 -48.204376220703125 -76.5765838623046875
-76.343963623046875 -77.5132598876953125 51.0086479187011719
70.5586318969726562 1.97996675968170166 20.4700927734375
49.9094047546386719 57.0717124938964844 94.0443801879882812
69.9947128295898438 19.9751968383789062 40.3216094970703125
70.0709228515625 9.73399257659912109 -9.96137332916259766
-39.2303543090820312 51.3112449645996094 87.5823898315429688
-60.67864990234375 -80.2235946655273438 -96.6918716430664062
-15.5549020767211914 61.6867599487304688 42.8623504638671875
-22.0940971374511719 -90.40576171875 73.6396484375
44.3009452819824219 27.617767333984375 -85.0382766723632812
49.6661949157714844 78.0489578247070312 85.0404739379882812
69.0703506469726562 -26.367584228515625 41.2537689208984375
51.5299263000488281 -58.4773445129394531 119.835159301757812
-80.0367050170898438 -68.6370010375976562 15.9774017333984375
39.7200126647949219 -42.8293342590332031 118.494125366210938
5.34633398056030273 1.80022656917572021 -108.820335388183594
-31.5973339080810547 -35.7520561218261719 -118.211570739746094
34.6320533752441406 51.5690422058105469 67.5732192993164062
5.70408058166503906 64.7733840942382812 -41.9574394226074219
-15.1071977615356445 -71.7255630493164062 -107.957252502441406
-77.0978164672851562 -46.0616836547851562 -95.6861114501953125
54.7879524230957031 -52.2797813415527344 -108.540542602539062
-24.6789703369140625 -55.2722091674804688 -121.700454711914062
-47.6707763671875 64.8889617919921875 69.832061767578125
46.2456474304199219 44.9667472839355469 -97.6363296508789062
-27.7831249237060547 71.7093734741210938 -28.3514900207519531
37.9647102355957031 -96.1622543334960938 -33.9424781799316406
-17.5990562438964844 -82.918304443359375 -100.941558837890625
-0.459629267454147339 198.699859619140625 -16.5364723205566406
-40.6506462097167969 35.1723670959472656 -79.6886138916015625
-44.4988899230957031 75.9707107543945312 23.4514751434326172
-45.0149879455566406 -1.97370147705078125 113.12109375
20.8269004821777344 125.347419738769531 -72.4514923095703125
44.9976425170898438 79.6871261596679688 -78.4809799194335938
34.3758354187011719 -20.6179485321044922 110.955513000488281
15.5231084823608398 37.983978271484375 -80.2282028198242188
44.9996070861816406 27.0594196319580078 -100.375503540039062
70.1250228881835938 16.0072116851806641 13.7212257385253906
67.578887939453125 21.0291576385498047 -23.5516719818115234
-4.67114496231079102 -96.9458389282226562 -47.6862106323242188
-14.4577970504760742 159.49298095703125 -48.8745689392089844
-44.4557304382324219 71.8594131469726562 -62.8336219787597656
34.0208282470703125 62.01727294921875 -2.39531898498535156
-22.4709854125976562 -83.8393630981445312 -99.5815048217773438
-34.4145927429199219 67.4035797119140625 86.8592453002929688
-15.5727157592773438 -82.5920333862304688 97.5571517944335938
69.6519241333007812 25.9892997741699219 55.2510261535644531
-21.5135135650634766 56.8216934204101562 52.5179405212402344
64.9869232177734375 16.4781475067138672 -41.8255691528320312
41.8172073364257812 -96.1827621459960938 59.1000900268554688
-29.5022621154785156 73.5252685546875 -23.9887866973876953
-82.4215621948242188 -71.2337417602539062 72.862823486328125
-63.6815261840820312 21.4031276702880859 69.7595291137695312
56.5880775451660156 14.9778461456298828 -72.0777511596679688
-42.395721435546875 68.8483810424804688 41.2386856079101562
-68.399810791015625 -24.8051090240478516 81.3967819213867188
63.8700675964355469 53.3669700622558594 38.0333633422851562
-67.1052093505859375 28.7351436614990234 -21.0437908172607422
69.768157958984375 -18.9962635040283203 33.247406005859375
4.20277643203735352 53.9895820617675781 -68.7349166870117188
-44.9144821166992188 74.6185989379882812 -68.6226882934570312
49.8440399169921875 14.7399110794067383 -97.4619216918945312
11.5798196792602539 71.7732009887695312 -22.9841461181640625
-25.3850326538085938 129.6123046875 -64.2187576293945312
-46.1815910339355469 63.9398231506347656 -87.1674957275390625
35.6269264221191406 -95.7681045532226562 64.12353515625
1.0893017053604126 -9.649261474609375 -115.040802001953125
30.3724880218505859 -30.9083766937255859 117.199211120605469
-68.4069061279296875 14.8124351501464844 -69.1433563232421875
63.2369003295898438 56.4236297607421875 46.8549766540527344
1.04422187805175781 186.975799560546875 -32.0714302062988281
10.6778316497802734 198.749465942382812 -8.92332363128662109
-75.6236572265625 -11.9892816543579102 40.4380340576171875
68.3351898193359375 -64.3653793334960938 10.6126718521118164
-65.0628738403320312 32.2393035888671875 28.3371467590332031
-36.8242111206054688 -90.0678253173828125 26.51513671875
-66.9960479736328125 -62.3194694519042969 -114.643218994140625
10.8146648406982422 -80.4651870727539062 103.79241943359375
-32.8194808959960938 -72.6213455200195312 -111.991455078125
67.3041915893554688 11.0420398712158203 -35.0765838623046875
35.6836318969726562 65.4929122924804688 25.1426353454589844
-48.6791038513183594 72.9037246704101562 10.5964021682739258
-69.9196929931640625 8.61373805999755859 31.7062759399414062
-37.6741409301757812 69.2238998413085938 -58.2835578918457031
28.6942291259765625 -6.72158193588256836 107.1922607421875
-24.1645488739013672 111.146415710449219 -63.9536247253417969
69.9808425903320312 -1.35123705863952637 34.5240402221679688
-46.4979095458984375 51.4034004211425781 95.3115921020507812
33.7961845397949219 -5.15351724624633789 -102.565567016601562
17.8832511901855469 -53.0910682678222656 121.3980712890625
-45.313934326171875 76.8679275512695312 -53.4186897277832031
67.8183135986328125 -43.8263282775878906 28.7244911193847656
-77.8810882568359375 -17.6360721588134766 -27.7127285003662109
-0.59541618824005127 197.13311767578125 27.6656856536865234
-53.9657402038574219 60.6794090270996094 -43.7188606262207031
-36.7300834655761719 -78.1123580932617188 107.252143859863281
-30.7551040649414062 -58.7720985412597656 -120.583183288574219
-69.6754302978515625 -7.07214593887329102 72.899200439453125
62.9569549560546875 -51.6260528564453125 -80.1845855712890625
23.6059246063232422 114.773963928222656 -63.1801338195800781
-73.1861114501953125 -21.502532958984375 -85.7469482421875
-63.8654327392578125 -25.2547206878662109 -104.369316101074219
-8.51695060729980469 -52.5637054443359375 -120.570030212402344
-58.4285850524902344 52.1191444396972656 -34.0886688232421875
-79.4657211303710938 -31.9247646331787109 -16.3988170623779297
31.5021934509277344 131.34027099609375 74.5737533569335938
15.9389171600341797 57.3851432800292969 -46.3488502502441406
36.7260246276855469 99.41595458984375 77.069580078125
-60.0362014770507812 -85.55731201171875 -76.3434829711914062
44.8525199890136719 69.6846466064453125 71.0084152221679688
55.1134147644042969 -56.5467758178710938 -100.609306335449219
63.5565567016601562 -94.6310195922851562 57.8043556213378906
-0.771823227405548096 202.50762939453125 0.275256693363189697
-12.2251205444335938 132.5125732421875 73.413330078125
63.3223075866699219 44.1088485717773438 -17.3579216003417969
-81.8809585571289062 -47.5705642700195312 -71.1324462890625
-20.8786106109619141 -93.1822738647460938 50.1113128662109375
-40.6579208374023438 -3.55105280876159668 -97.458892822265625
37.5152664184570312 87.7381744384765625 -71.5207977294921875
6.7424616813659668 171.415817260742188 42.7318496704101562
68.546173095703125 -89.3524856567382812 -15.1157865524291992
-71.9569549560546875 -4.58013534545898438 59.2821235656738281
67.13677978515625 15.3533391952514648 73.8510971069335938
36.5338783264160156 54.8468093872070312 64.0767593383789062
-50.1947250366210938 -86.91473388671875 4.00708484649658203
13.2040309906005859 37.6819725036621094 72.032806396484375
32.13665771484375 59.1685409545898438 -29.8666954040527344
-3.28368926048278809 59.2428474426269531 -61.8156394958496094
9.82948112487792969 194.25115966796875 -5.8266596794128418
-74.5407180786132812 -59.053314208984375 90.9969711303710938
66.0436553955078125 -61.36309814453125 -75.0092620849609375
70.0423355102539062 15.8245878219604492 4.6896061897277832
-70.59619140625 -37.343536376953125 -100.903656005859375
48.0923652648925781 88.1218795776367188 76.41839599609375
-45.7597541809082031 54.7611465454101562 94.5174026489257812
-11.4809913635253906 -0.606508553028106689 -109.402107238769531
-70.4720916748046875 10.9351520538330078 -41.8924407958984375
0.762041449546813965 -97.7308731079101562 -48.59381103515625
46.8709297180175781 -8.96361827850341797 109.443580627441406
53.0643157958984375 -0.00995116680860519409 107.862274169921875
-49.0247611999511719 -88.3150558471679688 -24.2356204986572266
20.0095062255859375 145.574569702148438 66.557708740234375
-73.3377456665039062 4.29000711441040039 -24.1340351104736328
68.262054443359375 17.4952621459960938 -19.0558357238769531
60.0924415588378906 48.1498832702636719 85.83489990234375
54.4718513488769531 -11.1332502365112305 -92.4011688232421875
61.7368812561035156 -90.2626800537109375 -97.8151092529296875
43.43414306640625 32.547698974609375 -100.693794250488281
19.9100151062011719 -57.9479637145996094 119.741104125976562
71.4226455688476562 -1.93068253993988037 -1.52723240852355957
-58.1020164489746094 51.8972663879394531 -16.7379570007324219
59.4994735717773438 59.1936531066894531 0.19675600528717041
-69.2864990234375 10.6198253631591797 24.8204708099365234
61.3032493591308594 -65.0487823486328125 -84.2950973510742188
-5.08751535415649414 -52.7967643737792969 -120.5614013671875
8.55187511444091797 -94.0724105834960938 71.264190673828125
-9.46032333374023438 -93.2695541381835938 -83.0063858032226562
-50.6484413146972656 -18.774261474609375 -112.475730895996094
-52.167999267578125 62.3959846496582031 -43.2374114990234375
-65.975494384765625 27.7723808288574219 -37.03436279296875
-5.06023550033569336 197.595321655273438 4.9736323356628418
29.0528602600097656 -16.4808387756347656 112.813026428222656
61.7961387634277344 -94.4732589721679688 26.122406005859375
-47.0777435302734375 -90.3280029296875 -50.2386245727539062
-68.8331222534179688 5.63778495788574219 65.723663330078125
8.34909343719482422 14.3864707946777344 95.1140899658203125
-58.7327003479003906 56.9087409973144531 -0.00233874237164855003
-11.3925247192382812 42.4308662414550781 -69.97808837890625
-48.107574462890625 -25.9839859008789062 -106.358917236328125
67.7297286987304688 1.71873152256011963 -36.2034721374511719
29.3737697601318359 62.0660934448242188 -8.75084686279296875
-78.3803329467773438 -75.5117568969726562 -32.9557456970214844
-35.035736083984375 66.9254989624023438 40.1828193664550781
65.7906494140625 -94.4685287475585938 52.6970138549804688
23.9376449584960938 -77.3892593383789062 -114.608673095703125
54.0070304870605469 7.92687368392944336 104.76593017578125
-80.9926376342773438 -67.9519119262695312 -44.426116943359375
69.3956680297851562 -12.9639053344726562 53.6707649230957031
-83.6926956176757812 -61.9603157043457031 58.4638938903808594
65.2301788330078125 50.7429351806640625 41.9612312316894531
-40.6452751159667969 48.697845458984375 -69.1761093139648438
-60.8761825561523438 41.0198707580566406 38.2762794494628906
66.0659866333007812 13.2442703247070312 79.3372726440429688
-81.5124740600585938 -71.4170303344726562 -100.865447998046875
13.3159885406494141 -6.86119651794433594 -111.359352111816406
-39.0894241333007812 61.3144149780273438 57.2994956970214844
58.9603042602539062 55.6337356567382812 -40.0144729614257812
-79.98358154296875 -67.92352294921875 -29.2199668884277344
-58.0382156372070312 48.4248428344726562 10.497776985168457
-83.0131912231445312 -60.650054931640625 53.7739181518554688
-74.2803115844726562 -79.0549545288085938 -13.0411701202392578
22.8568992614746094 112.448684692382812 -72.6171340942382812
28.7430057525634766 -45.5438232421875 -120.250526428222656
46.4323844909667969 36.8327064514160156 -89.0292205810546875
-13.2943716049194336 -9.32167530059814453 -112.516098022460938
-58.5802040100097656 -77.4132843017578125 107.05780029296875
-50.65118408203125 -85.4210739135742188 48.8456993103027344
-30.1043949127197266 44.3248100280761719 -76.8626556396484375
-26.7720680236816406 -19.5053863525390625 117.805168151855469
69.8677139282226562 -40.0616950988769531 -54.81689453125
-82.4911041259765625 -69.6754837036132812 59.8448066711425781
71.9280548095703125 -32.8005332946777344 -19.2023849487304688
-80.5157470703125 -36.1552886962890625 -57.7382011413574219
-29.3237667083740234 -90.1689834594726562 64.8475799560546875
52.7364082336425781 55.0618515014648438 -77.6102066040039062
31.5602760314941406 -92.8326034545898438 85.0819320678710938
48.389312744140625 76.1064529418945312 -16.6243324279785156
9.500152587890625 151.589569091796875 -49.3960304260253906
-14.9192962646484375 67.4728012084960938 -43.060638427734375
29.8826732635498047 39.4451980590820312 80.3107223510742188
-29.7669448852539062 -88.930450439453125 73.4289169311523438
-76.8714370727539062 -28.16070556640625 19.7886638641357422
26.6401729583740234 59.8539009094238281 -25.473876953125
-80.57562255859375 -66.2501296997070312 -10.7876596450805664
-81.183349609375 -50.8325691223144531 -51.2680206298828125
-80.48974609375 -36.033477783203125 -57.0914268493652344
68.4195556640625 35.1684341430664062 24.9145221710205078
-79.0863265991210938 -73.8794097900390625 -111.565505981445312
-19.0123252868652344 -20.0422172546386719 -115.766716003417969
-39.4111709594726562 -40.0034446716308594 -116.375686645507812
16.6300086975097656 -97.5809860229492188 -23.0825996398925781
11.8712396621704102 166.400039672851562 -52.2871665954589844
-72.3060150146484375 5.91218185424804688 10.5645570755004883
69.3421707153320312 -15.7257404327392578 50.1720428466796875
22.2365875244140625 -94.5193328857421875 72.2281036376953125
-42.986541748046875 3.94850373268127441 -99.500457763671875
-45.9024505615234375 -24.9724025726318359 115.722785949707031
61.6663589477539062 41.0441970825195312 -43.1547966003417969
-29.1947269439697266 -92.2583541870117188 11.7370719909667969
-76.9586334228515625 -9.38260269165039062 0.438655346632003784
-76.63739013671875 -79.8077163696289062 -59.4918632507324219
-67.4733657836914062 9.35967540740966797 68.3930435180664062
30.8870925903320312 33.9258193969726562 -77.7377777099609375
-61.1247634887695312 -80.9104995727539062 88.31536865234375
-17.8991775512695312 65.9124526977539062 33.2253646850585938
18.0949592590332031 -82.1105804443359375 -107.248268127441406
41.9963760375976562 73.7673492431640625 -68.3683547973632812
53.190521240234375 74.763458251953125 72.9959793090820312
67.7610244750976562 -38.8697166442871094 84.2234954833984375
59.4920845031738281 40.3303489685058594 -54.9100379943847656
65.5063018798828125 -60.6019134521484375 51.8716087341308594
-68.7887039184570312 -22.8743305206298828 -95.6747970581054688
-79.887237548828125 -62.7298202514648438 -31.6009273529052734
-52.4520950317382812 64.4573898315429688 -13.1225214004516602
19.1668319702148438 155.84588623046875 59.3862686157226562
66.3208084106445312 -68.6470108032226562 -76.0900039672851562
49.3386650085449219 19.9006938934326172 105.136154174804688
-0.460531800985336304 34.0505638122558594 62.0271797180175781
2.4931190013885498 -96.1547317504882812 27.0053482055664062
-32.9965400695800781 63.524688720703125 49.8092575073242188
-3.56447696685791016 -94.6581802368164062 -82.4233627319335938
-69.6057510375976562 -15.3997287750244141 -89.3918991088867188
-78.7606582641601562 -74.868011474609375 35.581298828125
42.8289413452148438 21.5197563171386719 89.0564956665039062
5.78205633163452148 164.271682739257812 -42.2843971252441406
-44.7444305419921875 -33.9721946716308594 -108.860809326171875
69.2319488525390625 32.9105300903320312 51.2217025756835938
35.1426963806152344 51.5456085205078125 67.8608551025390625
-11.6431941986083984 157.770843505859375 -54.2598342895507812
-66.2494964599609375 -42.9229316711425781 -108.805831909179688
65.2373733520507812 -65.3900833129882812 93.690155029296875
-54.0720596313476562 40.5837440490722656 78.062957763671875
32.2143363952636719 113.462890625 75.0678329467773438
-75.352935791015625 -59.0111236572265625 84.3193817138671875
58.1646690368652344 6.6755375862121582 96.7254180908203125
-73.0115737915039062 7.33860206604003906 2.72783756256103516
-76.1983108520507812 -8.21290874481201172 -52.6908378601074219
64.956787109375 -55.9803657531738281 -75.9200210571289062
53.4121475219726562 72.9729766845703125 42.4606781005859375
-73.4331130981445312 -80.17852783203125 -29.1279029846191406
31.1208896636962891 -76.13787841796875 110.882301330566406
-39.3463630676269531 71.252227783203125 91.7464065551757812
-54.9955558776855469 46.6715850830078125 47.0821952819824219
22.6163005828857422 -97.5480728149414062 -14.2209978103637695
-73.7454910278320312 -79.3870086669921875 -20.9991588592529297
59.1884651184082031 -62.8994560241699219 -88.5615158081054688
42.4744796752929688 -63.3406753540039062 -121.007575988769531
7.27884101867675781 199.319747924804688 -15.0237092971801758
-1.62797391414642334 71.1402359008789062 -35.2797584533691406
-78.0535812377929688 -26.7428474426269531 -6.18060541152954102
-69.3052749633789062 17.4922561645507812 -57.7734603881835938
71.2882461547851562 -31.1370086669921875 -30.6374683380126953
-35.60797119140625 -11.8165884017944336 107.3470458984375
-80.4141845703125 -58.5882949829101562 -2.67915511131286621
70.39105224609375 -5.68799257278442383 22.6906318664550781
-73.30718994140625 -7.54886150360107422 -73.4393539428710938
-40.1805877685546875 64.1036911010742188 47.5015869140625
-21.3386325836181641 113.476364135742188 81.3562850952148438
55.0826072692871094 62.0369644165039062 -65.7995147705078125
-41.5392036437988281 -7.47705793380737305 110.413551330566406
-64.5020980834960938 -13.2322359085083008 86.7779388427734375
-8.80188274383544922 -83.785003662109375 87.6836013793945312
66.0576858520507812 -94.2131576538085938 74.0993194580078125
-9.13844871520996094 -25.8289470672607422 -119.090118408203125
66.8500213623046875 29.1240329742431641 -18.9533863067626953
-62.8898811340332031 27.9134521484375 64.9439010620117188
1.39461159706115723 -41.7251968383789062 -125.790443420410156
26.033447265625 58.6214179992675781 54.2737503051757812
-54.3382453918457031 -43.6212501525878906 -118.497817993164062
60.4386177062988281 46.7557525634765625 85.5637588500976562
-83.1673507690429688 -55.8063278198242188 52.5001792907714844
-61.0768356323242188 -82.633087158203125 -89.4877471923828125
64.8669509887695312 11.3192014694213867 -46.7511711120605469
45.4557647705078125 -49.822662353515625 -117.950309753417969
70.4970474243164062 -81.9449005126953125 54.5320510864257812
-57.7668304443359375 55.1156005859375 -49.5724525451660156
48.6768798828125 76.032012939453125 -13.0511131286621094
-56.0640487670898438 -53.0802536010742188 119.753578186035156
18.5125846862792969 -97.7476806640625 -37.6196327209472656
45.2258949279785156 25.4527759552001953 -104.16107177734375
-65.772674560546875 -80.8675155639648438 57.5418586730957031
61.4824142456054688 -32.8688735961914062 -87.1016387939453125
-73.0897445678710938 -0.281429320573806763 33.476470947265625
-53.7221488952636719 -50.5533599853515625 -118.030731201171875
-80.5521087646484375 -58.4856681823730469 -11.6423168182373047
36.2575607299804688 -96.4838943481445312 -20.0334129333496094
14.6115751266479492 195.82891845703125 12.1752433776855469
-14.2127885818481445 -17.1846275329589844 120.792884826660156
69.7152099609375 -0.856859147548675537 46.5613784790039062
51.0939369201660156 41.5760536193847656 -85.9046401977539062
69.183441162109375 -89.083038330078125 107.679237365722656
-78.7582168579101562 -51.7179908752441406 22.3579902648925781
1.75229644775390625 62.3140335083007812 24.0640220642089844
48.9094429016113281 6.77326774597167969 -101.840744018554688
54.7161178588867188 66.4038009643554688 -49.8099288940429688
60.3999977111816406 13.3164777755737305 -60.4031333923339844
32.3900833129882812 -96.638275146484375 -54.5847282409667969
-77.7627182006835938 -15.5010995864868164 -21.321014404296875
-50.8878593444824219 -41.3424034118652344 119.80133056640625
-39.8789405822753906 14.281315803527832 109.953483581542969
30.9382305145263672 -35.2979011535644531 -117.889274597167969
22.6488780975341797 125.259010314941406 -63.8883705139160156
-13.7069501876831055 -60.7148704528808594 -117.44403076171875
63.7264633178710938 27.6808147430419922 -38.0676422119140625
-19.3049449920654297 73.51690673828125 12.56256103515625
64.6454391479492188 2.43493509292602539 -52.95220947265625
-6.51347589492797852 -30.1215648651123047 122.175491333007812
68.1478271484375 -36.804443359375 70.212646484375
-55.0284576416015625 -85.1418304443359375 3.07222223281860352
-80.1365814208984375 -39.4066276550292969 60.04266357421875
20.6250381469726562 149.134002685546875 63.7519416809082031
12.8889408111572266 171.101303100585938 -41.2725906372070312
-46.7035789489746094 72.664337158203125 30.2529449462890625
33.2150611877441406 -21.4975757598876953 -110.758979797363281
-67.2957000732421875 -49.369384765625 -109.173240661621094
-79.208740234375 -60.8041763305664062 13.6571340560913086
3.03014135360717773 175.548416137695312 -39.179290771484375
-45.5918617248535156 -87.072601318359375 38.4810676574707031
68.9184188842773438 -92.5962905883789062 61.4464225769042969
61.3564414978027344 58.768341064453125 26.1962890625
48.7374534606933594 31.0727176666259766 100.049026489257812
69.3465118408203125 15.5184516906738281 -8.47624301910400391
-58.4567413330078125 -78.6457748413085938 104.601165771484375
-46.3926467895507812 76.043212890625 -83.6029510498046875
60.2868881225585938 66.7949066162109375 68.2502899169921875
25.8426952362060547 -97.2588882446289062 -36.9118309020996094
-15.7172212600708008 -12.8107433319091797 -113.634201049804688
-14.9907217025756836 -27.7415313720703125 -118.606201171875
70.856353759765625 -25.9667472839355469 -31.0649223327636719
-48.1432037353515625 -52.5204849243164062 -118.021217346191406
23.2878971099853516 -95.17578125 67.7819061279296875
-26.1585884094238281 10.0654544830322266 103.497215270996094
70.9823150634765625 -0.172197118401527405 12.2112722396850586
-56.6287841796875 41.412506103515625 68.5259170532226562
67.3337554931640625 -18.5324459075927734 80.1403884887695312
-5.2127079963684082 27.9154891967773438 77.082550048828125
30.8566913604736328 -15.1268386840820312 -109.494094848632812
45.1102142333984375 19.606109619140625 97.9235992431640625
2.21835422515869141 190.310302734375 20.0397129058837891
63.6804847717285156 -9.48024749755859375 -66.159576416015625
-55.302032470703125 -46.2802581787109375 111.525489807128906
-5.1926875114440918 -96.267852783203125 -37.6543807983398438
53.5970954895019531 -84.9890975952148438 -113.689064025878906
41.1540374755859375 17.4578323364257812 -87.2891387939453125
24.6911983489990234 117.952621459960938 -70.759674072265625
6.4453577995300293 -82.152130126953125 100.247764587402344
-50.0068321228027344 44.5771064758300781 -94.5689697265625
66.9223175048828125 -86.4425582885742188 -82.6062393188476562
35.8150062561035156 -12.2074003219604492 105.253379821777344
50.2022743225097656 -91.4619064331054688 -102.306930541992188
28.4950275421142578 30.0257091522216797 90.16790771484375
2.03298854827880859 -97.29754638671875 -32.8113021850585938
-39.2743492126464844 71.611328125 -45.8445243835449219
44.3314323425292969 4.41107845306396484 95.4869613647460938
-59.9124259948730469 -54.4124946594238281 116.726821899414062
18.5996036529541016 66.2519302368164062 -19.4725933074951172
-30.7086219787597656 -6.56684160232543945 108.468070983886719
68.1063766479492188 -24.1142616271972656 78.6792831420898438
-49.0262489318847656 23.0428981781005859 100.1043701171875
2.06726717948913574 194.288253784179688 -25.4672966003417969
-34.8536911010742188 38.7010498046875 -73.625396728515625
-0.781773507595062256 9.43435764312744141 94.0877914428710938
-43.0496444702148438 76.3472900390625 -51.2070884704589844
-43.9265022277832031 -85.650146484375 77.5178985595703125
61.1717948913574219 -8.82470798492431641 -72.6302871704101562
-51.9061737060546875 -84.8240737915039062 42.18310546875
56.0662727355957031 34.8815498352050781 -67.90240478515625
53.7417221069335938 68.6254959106445312 -43.3278732299804688
51.4564552307128906 -1.69614660739898682 110.60418701171875
-9.11680412292480469 -95.7676544189453125 -38.9428672790527344
69.470947265625 -9.85645294189453125 58.4409904479980469
-34.7985191345214844 74.4264373779296875 -17.5228843688964844
-36.5230865478515625 -7.86713171005249023 -99.1184921264648438
-39.258331298828125 64.3902664184570312 46.3078880310058594
-49.6284523010253906 51.2221755981445312 82.674896240234375
51.6110916137695312 74.5549468994140625 23.0527057647705078
-65.9596633911132812 -78.6873321533203125 102.691207885742188
-81.3944854736328125 -45.0535697937011719 -59.524932861328125
-12.4060125350952148 71.70648193359375 17.2862777709960938
63.3084182739257812 -92.4013671875 -35.6539459228515625
-79.157867431640625 -76.3038787841796875 -63.8216629028320312
42.0360069274902344 -95.6908645629882812 -49.4386863708496094
54.57904052734375 62.9195594787597656 -68.90289306640625
48.5855484008789062 73.8433761596679688 18.1011524200439453
28.8571281433105469 -96.2967376708984375 -75.8451995849609375
-3.11345505714416504 200.420196533203125 -5.68672990798950195
-80.5837020874023438 -69.16375732421875 17.7421836853027344
68.2213592529296875 35.4031715393066406 17.7805862426757812
-54.4376029968261719 -87.6675872802734375 -68.9736862182617188
-34.6243858337402344 -92.2818374633789062 -67.3081588745117188
50.6672477722167969 73.1096343994140625 -37.91766357421875
2.44390010833740234 177.0086669921875 -37.1761398315429688
8.93503570556640625 -96.1381607055664062 58.310546875
66.7973480224609375 27.7080364227294922 -22.4851226806640625
-41.4458961486816406 -77.4608993530273438 109.684898376464844
71.5869522094726562 -75.4709320068359375 -16.2256450653076172
-54.1374549865722656 26.2976951599121094 92.8346481323242188
-40.3262443542480469 28.8307456970214844 -79.222412109375
1.77123677730560303 193.463897705078125 -2.84688282012939453
-78.5778427124023438 -76.7711334228515625 -95.6159133911132812
-44.5002632141113281 -87.4077529907226562 41.7914085388183594
47.8643798828125 -74.5582351684570312 -120.749603271484375
-33.3737525939941406 -18.4019737243652344 -107.115463256835938
49.1953620910644531 -96.277679443359375 19.0966720581054688
69.6313247680664062 -15.4693174362182617 38.4502143859863281
-29.0647182464599609 101.944290161132812 -62.4436759948730469
34.9237899780273438 -40.2864570617675781 -118.170921325683594
-73.3124618530273438 -22.1007003784179688 71.5764007568359375
25.1416378021240234 -95.7441787719726562 62.4896774291992188
69.4758377075195312 -9.67721652984619141 53.7661933898925781
68.0235519409179688 -40.5357742309570312 30.4187355041503906
3.11930680274963379 -95.2017822265625 63.7841720581054688
-14.9181480407714844 167.031753540039062 -48.3391380310058594
-7.91167259216308594 9.56034088134765625 101.66229248046875
71.9044647216796875 -45.9321670532226562 -33.1264877319335938
52.7226448059082031 59.0195884704589844 95.470977783203125
39.4235305786132812 51.9635429382324219 71.0755767822265625
60.2533035278320312 24.4960231781005859 -52.0930900573730469
-39.4516105651855469 71.7740631103515625 57.5272369384765625
-61.3124160766601562 -82.0204620361328125 52.8810157775878906
-54.6754531860351562 64.855010986328125 -66.6296844482421875
-51.6922645568847656 -75.3804244995117188 112.660011291503906
-47.9234886169433594 57.5810470581054688 -88.7489395141601562
-3.97364163398742676 43.3206253051757812 -76.7564239501953125
18.0692768096923828 -5.77568149566650391 114.246795654296875
-78.8644943237304688 -32.7020339965820312 43.7071418762207031
56.0598068237304688 65.2251358032226562 -26.5135955810546875
-17.4329566955566406 -94.1565093994140625 -1.36686241626739502
70.7257537841796875 -20.8513221740722656 17.9880771636962891
-42.0399398803710938 7.60007953643798828 -95.5273208618164062
-80.2436599731445312 -46.2422637939453125 -20.6827125549316406
42.1369972229003906 67.6494522094726562 33.5893783569335938
-32.6034698486328125 70.4943771362304688 28.1393566131591797
-38.2843856811523438 96.336700439453125 -71.0715866088867188
-25.7214431762695312 -17.9695682525634766 -111.292655944824219
68.8419570922851562 -73.4264602661132812 19.4663658142089844
-4.43967628479003906 34.3356590270996094 66.34197998046875
-54.703216552734375 -85.8710556030273438 -15.7560892105102539
44.2447624206542969 17.3028030395507812 96.6551055908203125
-64.9013595581054688 20.1628990173339844 46.0801811218261719
-52.0391616821289062 71.710601806640625 -61.6768150329589844
-23.3812847137451172 -94.4991073608398438 -32.979034423828125
-82.4008941650390625 -60.9895668029785156 -92.9004745483398438
45.1335601806640625 31.1270751953125 -91.6265106201171875
-13.6396293640136719 50.7662010192871094 -63.6546669006347656
-17.4846153259277344 10.9052734375 -100.622215270996094
-1.3562774658203125 -72.43792724609375 110.435691833496094
7.08130216598510742 36.4895210266113281 64.0681533813476562
-76.752471923828125 -21.2648468017578125 8.57742786407470703
68.3020401000976562 -36.4902267456054688 74.546051025390625
-14.1368627548217773 -60.5587196350097656 116.38262939453125
58.3199996948242188 -93.4737930297851562 -4.31783437728881836
3.55858469009399414 196.647933959960938 30.80645751953125
60.5396537780761719 44.7216949462890625 85.8441085815429688
51.4816398620605469 74.7578887939453125 19.5695171356201172
30.1361408233642578 -54.1288108825683594 118.43695068359375
55.8429489135742188 -9.39797306060791016 106.044670104980469
30.7267436981201172 -70.8296279907226562 115.39306640625
-80.7337799072265625 -58.4479217529296875 -41.1220932006835938
61.089263916015625 41.4508934020996094 85.1700057983398438
45.7054443359375 77.2414093017578125 -51.2439765930175781
45.92431640625 80.1424102783203125 79.47174072265625
-80.0960464477539062 -72.1848678588867188 97.0297393798828125
-36.2170486450195312 73.88427734375 -71.15557861328125
69.8035049438476562 24.3897781372070312 40.1053352355957031
68.6201553344726562 -28.5826549530029297 56.1623420715332031
46.9986572265625 2.04755258560180664 -107.493278503417969
1.3441089391708374 63.9227676391601562 -51.5669097900390625
-35.0915336608886719 -86.5322418212890625 81.3634414672851562
-23.1226539611816406 -93.0365676879882812 20.803863525390625
-27.7950782775878906 43.5921669006347656 83.50115966796875
-74.4882888793945312 -26.5399951934814453 -86.989471435546875
-76.2435455322265625 -5.52231359481811523 -19.4486579895019531
-74.7573699951171875 0.755789101123809814 0.360073179006576538
-79.7055130004882812 -47.8374557495117188 1.24680721759796143
-81.98040771484375 -56.5285263061523438 -63.8733711242675781
-27.4276981353759766 105.290321350097656 -67.7583770751953125
-16.1886081695556641 140.700241088867188 -60.4834251403808594
-0.779344379901885986 -85.9382247924804688 92.8531570434570312
-33.57843017578125 23.7132701873779297 95.3197555541992188
-47.259063720703125 -89.8233566284179688 -62.7492332458496094
-19.6580791473388672 11.4254894256591797 -97.3569793701171875
42.4989509582519531 61.9967994689941406 -75.9294815063476562
-25.0732440948486328 24.137054443359375 100.573165893554688
-46.5627861022949219 -81.5563201904296875 94.5819778442382812
-52.5154342651367188 34.1729393005371094 87.84014892578125
31.1530838012695312 -96.760772705078125 -53.1218757629394531
-18.4214019775390625 146.54095458984375 -54.1988601684570312
-65.51336669921875 -14.6084356307983398 -96.604827880859375
46.1285934448242188 48.8716812133789062 -67.0100555419921875
64.7856597900390625 -92.7296829223632812 -5.19076919555664062
62.6739044189453125 37.4316253662109375 -40.2165794372558594
-76.296234130859375 -19.2011871337890625 38.7962570190429688
47.8312950134277344 -8.13446235656738281 -108.488693237304688
24.4470939636230469 -68.5473098754882812 115.542518615722656
58.7691535949707031 57.6002883911132812 -34.7655143737792969
37.8517799377441406 -96.201507568359375 -45.3251762390136719
-80.6434402465820312 -66.5620880126953125 -8.19001483917236328
18.2887134552001953 69.8226242065429688 26.1721324920654297
23.3668880462646484 -97.6133346557617188 2.95475268363952637
-35.2258377075195312 -46.0170516967773438 -121.022796630859375
-25.4166660308837891 15.9267635345458984 102.334213256835938
17.8234233856201172 125.834243774414062 -66.4611282348632812
-77.1489028930664062 -76.8632354736328125 63.578948974609375
66.1807861328125 -69.1236038208007812 54.8971748352050781
-23.2023029327392578 -75.2726974487304688 107.78240966796875
