ply
format ascii 1.0
element vertex 789
comment vertices
property float x
property float y
property float z
end_header
-34.4652175903320312 96.9828262329101562 41.6913948059082031
-66.364837646484375 2.75518560409545898 128.181747436523438
-71.6723861694335938 3.49905586242675781 -129.917190551757812
-49.7631645202636719 51.021087646484375 -138.721481323242188
43.25225830078125 7.09435224533081055 -145.550872802734375
-13.4982681274414062 -115.616218566894531 60.8700981140136719
63.5010566711425781 -106.56341552734375 76.01263427734375
-70.6394805908203125 58.4048957824707031 -22.5691585540771484
-41.385040283203125 -111.294380187988281 25.4308795928955078
75.3152618408203125 47.5797767639160156 44.0004005432128906
-34.3089332580566406 -112.71160888671875 101.565696716308594
-67.7979583740234375 5.1953883171081543 108.130691528320312
-62.3073921203613281 -25.5212879180908203 141.709503173828125
-75.6926422119140625 -47.1387825012207031 -108.838859558105469
-32.9832954406738281 109.833465576171875 -52.3369636535644531
34.4885749816894531 -35.4806289672851562 -150.73480224609375
70.343017578125 -57.5552749633789062 35.5835418701171875
42.0084800720214844 32.6007080078125 -143.246841430664062
71.1755523681640625 19.8486785888671875 -48.2835960388183594
0.163348644971847534 -92.003265380859375 -144.4228515625
-46.6016044616699219 -108.440895080566406 -112.879188537597656
28.5256500244140625 -53.441375732421875 -152.385391235351562
-12.8220319747924805 -16.625579833984375 -150.479904174804688
1.89664077758789062 15.2269268035888672 -146.191604614257812
14.8432216644287109 -117.990455627441406 -19.2057018280029297
-45.435089111328125 -121.669502258300781 81.306396484375
-18.3369789123535156 96.9318771362304688 64.5679931640625
-55.2035789489746094 -109.771995544433594 111.401771545410156
-28.9039325714111328 -110.005332946777344 -114.386390686035156
71.2112808227539062 50.9162178039550781 -68.7480392456054688
70.9897232055664062 14.0670509338378906 -50.4666786193847656
-16.6567840576171875 147.174652099609375 -42.6990432739257812
27.3471221923828125 50.6832466125488281 145.694442749023438
-71.3770828247070312 -33.8869819641113281 42.9789886474609375
-30.6123256683349609 40.7741241455078125 -141.181488037109375
-49.7734375 20.5941963195800781 144.4822998046875
36.9802894592285156 12.1108951568603516 145.196792602539062
-60.5300254821777344 -108.416366577148438 26.7607784271240234
-67.7559814453125 -10.8000154495239258 122.457069396972656
-69.1834335327148438 -47.7939186096191406 118.627716064453125
35.2162361145019531 132.246841430664062 -63.8240852355957031
68.3083953857421875 -66.3761520385742188 -13.6654014587402344
-14.8405351638793945 -116.294647216796875 -87.5304031372070312
-41.2606620788574219 96.37738037109375 29.0833759307861328
55.5544204711914062 -36.6231307983398438 146.893539428710938
66.6506271362304688 -102.47589111328125 77.50634765625
-18.0810222625732422 36.5563430786132812 144.496917724609375
75.2939300537109375 31.3117656707763672 61.465606689453125
-73.8160476684570312 -27.2357769012451172 -47.2454338073730469
-39.5038375854492188 96.8199539184570312 20.7485427856445312
-11.529505729675293 72.44915771484375 135.351898193359375
-73.8953170776367188 28.1082820892333984 -113.726264953613281
-70.8247756958007812 -94.2451858520507812 76.933380126953125
-10.3499488830566406 -102.987930297851562 -133.79254150390625
48.163604736328125 -114.340690612792969 82.638458251953125
-23.0886039733886719 -106.5556640625 130.749130249023438
-42.824127197265625 86.6732635498046875 -115.080650329589844
-11.5664920806884766 68.0916061401367188 138.36383056640625
22.3486480712890625 99.9770278930664062 39.3788528442382812
-61.4025192260742188 -108.006904602050781 1.38146293163299561
65.305389404296875 -50.6443290710449219 -113.951705932617188
17.3268833160400391 4.21536350250244141 149.451919555664062
71.10833740234375 28.9253730773925781 -55.10223388671875
-73.7963943481445312 -39.4477653503417969 -31.9017200469970703
46.1285629272460938 -113.102836608886719 9.11327838897705078
14.1640119552612305 91.037078857421875 110.856048583984375
-7.3540959358215332 -117.088630676269531 -37.1248970031738281
61.7556419372558594 -57.9319381713867188 145.101348876953125
-30.3815822601318359 -112.800537109375 -24.3211231231689453
30.9685726165771484 125.916160583496094 56.1138916015625
-73.2734451293945312 -55.3995399475097656 -136.7332763671875
44.7856788635253906 -115.000740051269531 93.4311447143554688
33.5557746887207031 34.2995109558105469 144.0889892578125
68.4038543701171875 -34.7656478881835938 -61.9951438903808594
-53.2034912109375 92.5229263305664062 -14.2103233337402344
68.5577239990234375 48.0493698120117188 -118.246559143066406
-5.59470987319946289 -67.59771728515625 155.8035888671875
-11.1773080825805664 -117.429733276367188 -60.8646736145019531
-68.8725433349609375 71.3002395629882812 -5.71458339691162109
-70.509490966796875 -45.9968338012695312 83.34161376953125
20.6619834899902344 -65.4006271362304688 152.174362182617188
70.6190338134765625 -26.1588668823242188 -16.8006038665771484
70.3800582885742188 -19.1388015747070312 -27.8441696166992188
71.4622955322265625 -44.6744918823242188 48.0845565795898438
-69.7289505004882812 -35.361083984375 96.62371826171875
13.5090980529785156 -116.836502075195312 78.0683975219726562
-52.7248573303222656 16.477325439453125 -142.661712646484375
-70.155517578125 -31.8550491333007812 79.993377685546875
-66.1082305908203125 38.9027099609375 116.5242919921875
69.539947509765625 -93.6992950439453125 67.4495620727539062
60.6800956726074219 89.0824813842773438 -31.8898849487304688
50.5163803100585938 106.971298217773438 67.070892333984375
-25.1186332702636719 -114.552047729492188 -39.1169090270996094
69.0765609741210938 75.2105636596679688 -78.6496200561523438
-71.326568603515625 41.5405120849609375 -28.0419750213623047
67.9085311889648438 -19.5117645263671875 -99.2112503051757812
-68.1742095947265625 -4.75452375411987305 108.509666442871094
2.15589380264282227 98.9031906127929688 70.605865478515625
-14.4778375625610352 -115.968025207519531 -19.9586734771728516
-70.2098922729492188 1.66668856143951416 41.3923492431640625
-14.9504623413085938 -82.5555648803710938 153.167724609375
-38.57244873046875 114.414710998535156 -76.362335205078125
-62.8102073669433594 19.6504878997802734 -137.947189331054688
73.8539352416992188 13.7063694000244141 36.2620429992675781
15.1055965423583984 153.313262939453125 21.7556114196777344
-39.8900108337402344 -43.0002555847167969 153.025314331054688
-75.2670440673828125 -43.0830879211425781 -89.3215255737304688
75.0633544921875 62.0111541748046875 18.8857479095458984
31.5053901672363281 70.1547317504882812 132.5775146484375
73.0960845947265625 -45.5475196838378906 104.033271789550781
-19.4799652099609375 140.872085571289062 -52.0109634399414062
-72.622772216796875 -29.6562404632568359 -3.75568222999572754
58.9646720886230469 -106.531661987304688 -31.7542266845703125
58.9983940124511719 -105.624725341796875 -48.581939697265625
33.9847221374511719 90.6103439331054688 104.350410461425781
-0.875502943992614746 -117.989700317382812 8.33913612365722656
-53.4809646606445312 52.68328857421875 -137.508071899414062
52.735382080078125 -110.470916748046875 -37.6787681579589844
68.6173171997070312 -9.46360206604003906 -73.8188095092773438
71.8003768920898438 31.0185470581054688 -38.1743125915527344
-62.295379638671875 -64.5862197875976562 146.1614990234375
55.1723213195800781 -7.88147640228271484 -142.1697998046875
47.5111885070800781 107.376182556152344 -53.1798477172851562
-69.600738525390625 -18.9884681701660156 82.8900909423828125
-25.1738605499267578 -2.22536039352416992 -148.839996337890625
-1.69171881675720215 -117.150489807128906 -33.4428749084472656
-44.3397026062011719 -94.0049057006835938 -138.350234985351562
18.0998191833496094 -77.6110763549804688 -149.266616821289062
-61.5597076416015625 -45.1324996948242188 -147.66497802734375
70.0939178466796875 4.72722911834716797 -53.7257614135742188
-21.3476238250732422 36.1506385803222656 -145.198501586914062
18.7573375701904297 -99.9532852172851562 138.658065795898438
-69.115264892578125 -55.3853836059570312 122.700767517089844
36.3075714111328125 105.616104125976562 -54.8120231628417969
66.0839920043945312 2.27902817726135254 -125.153755187988281
2.13441038131713867 -116.4503173828125 65.4428176879882812
74.067230224609375 57.0295639038085938 -4.1678776741027832
-66.8724136352539062 54.0476112365722656 86.231231689453125
-14.2221231460571289 -97.3914108276367188 -139.5777587890625
18.9564628601074219 100.149139404296875 -98.3532485961914062
31.7234344482421875 90.658203125 -110.811767578125
14.531193733215332 23.4429798126220703 148.99676513671875
35.7041778564453125 34.44830322265625 143.938552856445312
-55.6383094787597656 -110.266799926757812 44.8640213012695312
25.1559467315673828 53.796417236328125 -139.57891845703125
33.5413398742675781 128.895248413085938 57.8542556762695312
-13.0245237350463867 148.909500122070312 -45.1027069091796875
-25.7890853881835938 -6.40672731399536133 148.018524169921875
35.3685111999511719 24.0082664489746094 -144.144775390625
69.6195220947265625 -9.10357093811035156 -49.5179290771484375
-59.2627983093261719 -105.486625671386719 119.746025085449219
-73.80938720703125 -4.93921327590942383 -67.7425003051757812
-27.9315567016601562 114.046066284179688 75.0014419555664062
51.4531478881835938 56.4677543640136719 -136.688583374023438
-73.4885482788085938 -37.5071296691894531 -23.8609714508056641
-36.6316413879394531 87.4824447631835938 115.069129943847656
22.5075626373291016 143.614364624023438 -46.8239822387695312
-69.30340576171875 -61.5906410217285156 121.300689697265625
71.0492172241210938 -36.8477859497070312 19.4171562194824219
33.6106796264648438 -117.012825012207031 87.0195236206054688
14.363957405090332 -116.718421936035156 -96.1678466796875
73.0053176879882812 43.0651473999023438 -15.7753448486328125
-70.6954269409179688 68.0268020629882812 -43.6554832458496094
-33.0360603332519531 102.901947021484375 -76.0725860595703125
32.6446876525878906 18.9885234832763672 145.00885009765625
72.8851318359375 10.7630147933959961 8.54172992706298828
-56.5760345458984375 -49.210906982421875 -149.946670532226562
69.9930419921875 -27.1091651916503906 -35.4584083557128906
50.4339866638183594 94.6708145141601562 -0.61889958381652832
69.7229080200195312 -69.0819244384765625 33.3605194091796875
-58.7790489196777344 86.6546630859375 29.7696723937988281
-54.2077369689941406 -33.2425155639648438 149.60040283203125
64.4380416870117188 -55.9756011962890625 -124.752113342285156
-76.0066680908203125 -58.6030502319335938 -120.608055114746094
39.4931221008300781 -116.088905334472656 57.5658340454101562
-70.5799789428710938 -51.8382301330566406 85.9423141479492188
-74.4952239990234375 -88.660797119140625 -118.452346801757812
17.3263473510742188 98.780792236328125 73.4084243774414062
-55.4595451354980469 -98.2585678100585938 135.439544677734375
-69.7091064453125 -3.97377920150756836 63.5976715087890625
-65.6033477783203125 -104.830474853515625 34.103424072265625
50.2432937622070312 -110.227058410644531 -79.8738250732421875
36.7038459777832031 -80.6703109741210938 146.184539794921875
-25.3713283538818359 40.6816635131835938 -144.438735961914062
58.1546516418457031 91.0924835205078125 -26.7617702484130859
-72.2440185546875 -35.2337989807128906 -135.989898681640625
-15.6169567108154297 32.8611869812011719 -145.688751220703125
72.5241165161132812 15.3587684631347656 -5.88506889343261719
0.201306775212287903 47.1534805297851562 -141.7161865234375
36.8581390380859375 19.5246295928955078 -144.600723266601562
73.9243698120117188 73.6517257690429688 95.8731231689453125
-23.9549961090087891 -113.574920654296875 75.1701126098632812
69.6445388793945312 -26.4962673187255859 -44.6504440307617188
-57.6720161437988281 56.4331779479980469 131.607757568359375
-71.5789794921875 36.9840507507324219 -32.1199989318847656
47.1303367614746094 106.743789672851562 73.9984130859375
69.3350296020507812 68.2462921142578125 118.940559387207031
1.56341099739074707 99.153228759765625 67.2115936279296875
42.3538475036621094 -9.72085857391357422 144.920425415039062
72.3028793334960938 2.55020666122436523 18.2155838012695312
56.0278396606445312 -109.682502746582031 -6.36100149154663086
-24.5421772003173828 -114.499504089355469 43.4131431579589844
16.4055557250976562 -115.0198974609375 -79.2570877075195312
-12.7667512893676758 -73.593231201171875 155.33624267578125
72.7584075927734375 -33.5020256042480469 68.1183929443359375
60.9017486572265625 89.6599578857421875 51.238128662109375
-5.22804069519042969 150.047073364257812 26.9913444519042969
-2.09111428260803223 15.7912178039550781 -144.721237182617188
9.38602828979492188 102.516319274902344 -19.9638309478759766
42.83270263671875 -32.5136337280273438 -150.55462646484375
-27.6131057739257812 -13.4695005416870117 148.873016357421875
-5.59534740447998047 88.2305984497070312 117.498939514160156
55.895965576171875 92.90362548828125 48.8121376037597656
-68.6972274780273438 58.499114990234375 35.3371086120605469
-27.5661659240722656 97.8100738525390625 -7.7666468620300293
-48.5432891845703125 -110.519393920898438 -19.6899452209472656
-14.1375274658203125 -95.5936279296875 -141.63934326171875
25.2407512664794922 -66.4636154174804688 149.04742431640625
-73.6657028198242188 -49.4219551086425781 -15.9906835556030273
-32.3855972290039062 36.2141075134277344 -141.540664672851562
-72.7253570556640625 -45.6767768859863281 11.7511425018310547
-73.0842208862304688 -2.31322383880615234 -46.8594856262207031
-60.8363189697265625 54.5763664245605469 128.114501953125
-74.9525146484375 -65.2004776000976562 -50.408966064453125
-6.52841854095458984 141.54766845703125 33.4251022338867188
-74.4617156982421875 -38.8775482177734375 -131.448944091796875
-70.1456832885742188 -96.8452911376953125 74.0806503295898438
67.3857879638671875 -69.1687774658203125 -34.8504180908203125
36.0020103454589844 40.2378044128417969 -142.422897338867188
67.28314208984375 -36.8482780456542969 -86.0668792724609375
-63.0643768310546875 59.1598129272460938 -129.021987915039062
10.5482463836669922 -118.96649169921875 -53.6824188232421875
66.0836563110351562 -13.9735383987426758 -119.424850463867188
20.3976039886474609 -119.068649291992188 51.2477073669433594
-6.54274082183837891 99.6409530639648438 -88.4933929443359375
32.2739105224609375 28.1027145385742188 144.57904052734375
71.9120330810546875 27.6725940704345703 -32.587921142578125
71.817657470703125 7.04315185546875 131.882217407226562
70.450225830078125 -71.1357269287109375 63.2114791870117188
0.565883755683898926 48.6583137512207031 -141.5400390625
33.3512382507324219 19.4255943298339844 -144.5128173828125
-32.9698524475097656 -10.3072261810302734 -145.823043823242188
52.20391845703125 -66.3024673461914062 -149.53399658203125
11.0876054763793945 14.1657438278198242 148.315704345703125
-51.2764320373535156 -5.29193830490112305 147.2216796875
-5.32518911361694336 -118.187644958496094 14.2328433990478516
-11.7227640151977539 163.051803588867188 -5.66388130187988281
-35.7234001159667969 -111.429962158203125 9.98279476165771484
49.7635269165039062 -93.1385116577148438 139.62103271484375
40.2110939025878906 95.7978591918945312 22.8836040496826172
-71.7423324584960938 -67.3791961669921875 65.3800201416015625
-72.0949325561523438 -44.3337364196777344 31.5489158630371094
-65.7840728759765625 75.7371902465820312 36.6104393005371094
70.2269363403320312 -24.2306137084960938 -26.6332263946533203
53.4636192321777344 93.6429367065429688 -2.44846820831298828
28.8319053649902344 88.0469512939453125 115.026542663574219
-48.299530029296875 -111.279289245605469 51.1659049987792969
67.3072586059570312 -27.4645214080810547 -100.864814758300781
-73.6418228149414062 -68.480072021484375 6.77358484268188477
11.3192634582519531 -116.984756469726562 74.2776260375976562
-53.5122146606445312 -108.1512451171875 -111.505020141601562
-44.2365455627441406 -21.7279453277587891 150.836395263671875
-18.8534812927246094 -115.485145568847656 27.9422512054443359
1.62256205081939697 102.871879577636719 -13.1651458740234375
52.7428970336914062 -67.2813568115234375 148.878219604492188
48.2608108520507812 -82.2447891235351562 145.694503784179688
70.6068649291992188 47.7699241638183594 -80.0943832397460938
-31.2945270538330078 98.3018646240234375 -70.8332901000976562
68.34991455078125 -62.6388626098632812 -18.0897407531738281
-36.6421585083007812 -112.563262939453125 101.1795654296875
67.8220977783203125 -95.7837371826171875 118.699020385742188
7.35338783264160156 -119.977485656738281 -38.9078712463378906
-75.5892333984375 -75.5616378784179688 -74.3315811157226562
62.0890159606933594 -19.5918140411376953 -136.507614135742188
41.3182411193847656 -37.2769851684570312 148.119888305664062
-20.3030796051025391 97.6208038330078125 30.3675136566162109
74.927032470703125 72.3306045532226562 73.684417724609375
-50.4240455627441406 -112.863540649414062 -71.13751220703125
26.4326877593994141 53.1823387145996094 145.268569946289062
67.9271392822265625 -60.3815231323242188 -31.4830532073974609
-35.114593505859375 97.9550018310546875 -39.6714744567871094
72.8423233032226562 -42.1422538757324219 89.6869735717773438
71.7251129150390625 10.7608518600463867 -27.8654308319091797
66.4697494506835938 17.4036006927490234 137.229293823242188
-37.70831298828125 117.65673828125 -65.6306915283203125
47.4565467834472656 -112.492851257324219 -23.8811664581298828
-51.671234130859375 91.3028182983398438 53.8184089660644531
68.4049148559570312 -10.1519479751586914 -76.6695327758789062
33.6028556823730469 62.3322601318359375 -136.743392944335938
-55.4249000549316406 -108.528144836425781 -108.175003051757812
17.0639438629150391 102.302139282226562 -86.1784210205078125
-70.7623519897460938 -49.8411445617675781 79.6386032104492188
69.6448745727539062 -25.0095500946044922 -46.2362823486328125
57.1928596496582031 -107.767082214355469 118.324028015136719
8.23738956451416016 -119.948211669921875 -29.9279918670654297
72.5971450805664062 -15.8414478302001953 47.4116706848144531
-64.0386199951171875 60.5805015563964844 115.678901672363281
-67.1504058837890625 -44.8187103271484375 135.729873657226562
-7.99885463714599609 -120.375724792480469 -63.6720848083496094
-70.631256103515625 -71.8368911743164062 96.8075332641601562
-25.8840522766113281 -112.803619384765625 -93.5435028076171875
-66.3191070556640625 40.8197364807128906 111.406059265136719
54.4019432067871094 -58.4240798950195312 -148.537063598632812
-2.3513188362121582 17.0732879638671875 148.873733520507812
60.3828849792480469 -81.2638168334960938 -134.73785400390625
67.6381988525390625 48.7624053955078125 -121.606956481933594
-69.5923080444335938 -47.2383918762207031 109.554718017578125
-69.0277862548828125 -48.5509300231933594 121.807243347167969
15.4842844009399414 98.5051498413085938 78.020599365234375
55.3863601684570312 92.64385986328125 -32.9302177429199219
53.2779006958007812 27.1684818267822266 -140.908309936523438
-42.9208793640136719 3.18460679054260254 148.150482177734375
-12.0884008407592773 163.092071533203125 -13.244624137878418
-42.949737548828125 -10.8716983795166016 149.621658325195312
-16.7323417663574219 97.9261550903320312 54.1067237854003906
-75.8359451293945312 -46.9076118469238281 -121.040008544921875
-33.0943946838378906 121.522674560546875 -69.3366775512695312
26.7441120147705078 -113.125747680664062 -36.5282440185546875
62.7690544128417969 69.8462677001953125 -118.773590087890625
62.5319061279296875 -108.033714294433594 100.334266662597656
-0.101039931178092957 -69.6786117553710938 -151.4840087890625
-33.277801513671875 111.110176086425781 60.8119239807128906
53.7717666625976562 -110.498245239257812 -19.3223438262939453
39.5106086730957031 117.865211486816406 70.6459808349609375
-25.85040283203125 -79.5143508911132812 -152.1085205078125
-36.2154426574707031 86.7772979736328125 -115.787239074707031
-21.9151172637939453 -98.9304122924804688 140.062591552734375
70.6098480224609375 -36.1555671691894531 2.61159086227416992
-58.7634010314941406 -109.170150756835938 30.8390979766845703
68.0938568115234375 -9.71705245971679688 -84.2159271240234375
51.0719642639160156 67.32855224609375 132.0068359375
14.6045875549316406 34.5620155334472656 148.267059326171875
-30.7005882263183594 76.0546798706054688 129.387557983398438
33.2308731079101562 -107.991371154785156 123.545967102050781
-26.7706012725830078 -53.8174285888671875 153.688827514648438
67.6569900512695312 -85.8516693115234375 -13.4353752136230469
-10.7708120346069336 102.608039855957031 -37.6454315185546875
-11.4019813537597656 92.7563858032226562 111.113166809082031
11.3641395568847656 96.8884429931640625 89.23291015625
-45.6725921630859375 -110.4527587890625 -52.1114501953125
-74.1788253784179688 -64.5796279907226562 -18.5257110595703125
-50.7097396850585938 11.8649539947509766 145.185150146484375
-51.5665702819824219 -41.3813056945800781 151.6119384765625
-56.8470611572265625 -116.12359619140625 -74.9194183349609375
1.43525445461273193 -119.680816650390625 -53.8560218811035156
-4.90887212753295898 -117.235610961914062 -21.4728336334228516
-31.6798419952392578 97.2298126220703125 32.0424232482910156
9.12819671630859375 94.4578399658203125 102.938400268554688
-71.0450286865234375 -61.3107261657714844 79.7071533203125
-25.2993526458740234 37.9109916687011719 -144.753768920898438
18.6578083038330078 -113.282577514648438 -43.472747802734375
65.918304443359375 -22.8837089538574219 -127.46917724609375
6.84775114059448242 -63.9788703918457031 -153.2259521484375
35.8046607971191406 -113.651847839355469 12.0961666107177734
-23.1694679260253906 96.0225448608398438 88.8709716796875
72.09246826171875 19.4996604919433594 -21.9462165832519531
9.83815288543701172 -120.504791259765625 21.5720252990722656
-74.6744308471679688 -38.9797706604003906 -130.723068237304688
49.6981239318847656 37.1860275268554688 -141.281723022460938
73.2777023315429688 2.12602806091308594 44.9264297485351562
22.3601303100585938 -76.6217575073242188 147.68621826171875
-70.1622390747070312 -55.2748336791992188 99.124969482421875
50.7440757751464844 -111.478424072265625 -31.8160343170166016
-74.6682281494140625 -63.841064453125 -38.5152320861816406
-65.5120086669921875 -105.390174865722656 -42.8786048889160156
67.1211395263671875 -36.9628829956054688 -89.9578704833984375
-73.1504974365234375 -95.9418716430664062 -43.7211341857910156
68.1591644287109375 -54.5954208374023438 -34.0157928466796875
-1.3546292781829834 -111.198257446289062 -123.699554443359375
-30.9324989318847656 111.914039611816406 54.6908340454101562
68.2209243774414062 -97.702545166015625 52.2310066223144531
-62.1037979125976562 -27.7983608245849609 142.27520751953125
68.697845458984375 -87.4571990966796875 20.0671844482421875
34.0343437194824219 66.8515701293945312 -134.437164306640625
31.6317138671875 95.9096527099609375 30.7636241912841797
70.1834182739257812 12.5074338912963867 -71.0281524658203125
73.519775390625 36.2809562683105469 5.53486490249633789
5.08228063583374023 -15.2365798950195312 -148.800918579101562
67.6541671752929688 53.6213760375976562 -119.723991394042969
-70.9645462036132812 2.70608973503112793 16.454681396484375
63.5553932189941406 75.691680908203125 -110.311759948730469
73.4180755615234375 -38.2650985717773438 103.584091186523438
-51.5321235656738281 88.15203857421875 98.9913558959960938
46.0459938049316406 -117.088966369628906 72.6025161743164062
75.6656875610351562 50.9930763244628906 49.9009742736816406
-20.4295291900634766 -113.769157409667969 115.983566284179688
58.4830169677734375 -110.779151916503906 82.8116607666015625
37.1248855590820312 104.340965270996094 -87.7772140502929688
-66.648193359375 -104.104240417480469 14.5913457870483398
-13.3307065963745117 102.377609252929688 8.0759429931640625
71.8942031860351562 -34.8372421264648438 42.3383598327636719
-43.3716888427734375 -9.92867565155029297 149.497467041015625
-75.9250717163085938 -55.0072402954101562 -120.681831359863281
70.7962112426757812 20.5963249206542969 -59.4723930358886719
-46.0582733154296875 95.1912078857421875 15.3062896728515625
-48.131805419921875 -110.746078491210938 4.12968254089355469
68.1628494262695312 -6.9212489128112793 -83.7534255981445312
73.5975189208984375 74.4728851318359375 56.5017204284667969
-51.5068855285644531 18.5442523956298828 144.001052856445312
2.38802242279052734 -85.8388519287109375 146.526443481445312
-22.6788043975830078 -114.477470397949219 14.6346826553344727
-52.5193138122558594 101.379768371582031 -79.9961318969726562
-73.96649169921875 -30.05126953125 -48.9650993347167969
69.4876708984375 -96.0592041015625 110.568603515625
-27.591705322265625 100.441909790039062 67.8262176513671875
-35.0729827880859375 125.6455078125 -70.185211181640625
10.4016294479370117 80.332733154296875 -127.906822204589844
66.9198150634765625 78.067230224609375 -92.27703857421875
-5.52301359176635742 152.919082641601562 -7.24205541610717773
-50.0821418762207031 -12.1350831985473633 -146.233566284179688
71.693267822265625 -40.6051368713378906 47.5840263366699219
30.6325244903564453 -113.021553039550781 110.934722900390625
-27.6806983947753906 -112.983734130859375 109.713302612304688
17.6301383972167969 -113.793647766113281 -71.634002685546875
64.3557052612304688 81.4039306640625 -96.4136886596679688
63.9780235290527344 -84.5407257080078125 -101.545974731445312
-64.0165786743164062 -106.40069580078125 0.592978835105895996
-74.5384368896484375 -38.9106636047363281 -60.6563529968261719
65.0253067016601562 -63.4240913391113281 -101.711860656738281
73.6188888549804688 27.2813472747802734 16.6627292633056641
31.8379096984863281 131.798965454101562 61.5532302856445312
50.78155517578125 -111.308029174804688 -37.1656990051269531
-63.5373992919921875 -87.5230178833007812 136.911285400390625
-5.46174240112304688 164.312210083007812 -21.6644077301025391
30.1038265228271484 8.08220672607421875 -145.263092041015625
-74.6517486572265625 -16.7761936187744141 -88.4485855102539062
33.2301139831542969 90.9757843017578125 103.397994995117188
67.9216156005859375 80.4532012939453125 -40.1930732727050781
45.1252517700195312 -72.8033370971679688 148.70208740234375
-70.35626220703125 57.7232284545898438 -12.8225917816162109
23.8319816589355469 -113.740730285644531 6.57012462615966797
34.9586677551269531 -115.712059020996094 -75.0810699462890625
23.2467708587646484 96.9333648681640625 93.3395309448242188
-66.5849990844726562 -12.2710256576538086 131.097305297851562
-67.9902267456054688 -99.9482574462890625 91.9436721801757812
-72.9701156616210938 -28.0207386016845703 -16.3065624237060547
34.9273033142089844 -95.1334381103515625 138.54473876953125
52.1318588256835938 94.299041748046875 -44.5034904479980469
-61.5904121398925781 86.9015350341796875 -91.451080322265625
37.0793533325195312 101.274444580078125 75.9245681762695312
71.3759307861328125 46.7014083862304688 -60.5745964050292969
33.5678672790527344 126.192138671875 48.0945091247558594
9.76434230804443359 100.055831909179688 -97.9728012084960938
-66.300537109375 49.1214675903320312 -129.639236450195312
46.8480339050292969 -114.574371337890625 83.63739013671875
73.695526123046875 -23.8521862030029297 120.621551513671875
69.2459716796875 -0.51417076587677002 -64.3267059326171875
-71.7007598876953125 -7.96762752532958984 4.0301666259765625
22.8797111511230469 101.912811279296875 -16.4134769439697266
55.036590576171875 -111.021598815917969 19.3754863739013672
-19.6403865814208984 -0.524704694747924805 146.96038818359375
70.9633941650390625 -83.2793502807617188 122.655075073242188
-1.30556774139404297 100.476356506347656 46.1685256958007812
-47.0362548828125 -79.2825775146484375 -147.54901123046875
-68.59381103515625 -41.5602264404296875 126.074211120605469
-39.2326469421386719 -111.099342346191406 -34.8418655395507812
51.5413742065429688 93.7786788940429688 41.4478950500488281
61.8786849975585938 -97.0014877319335938 -100.942741394042969
69.3270263671875 47.9916915893554688 -110.588150024414062
12.8766937255859375 -115.843284606933594 -113.861343383789062
-42.4447441101074219 -99.5181350708007812 -132.66607666015625
-73.1915054321289062 21.2498073577880859 -73.0719757080078125
69.5097274780273438 -87.2228469848632812 48.0461463928222656
69.338104248046875 74.0569534301757812 111.473678588867188
-3.32304859161376953 101.709678649902344 -45.1995697021484375
68.9890518188476562 -87.7121658325195312 30.9910240173339844
-30.6152458190917969 -112.341270446777344 -7.50287771224975586
-3.44690370559692383 156.039215087890625 4.41547632217407227
5.13736438751220703 70.783660888671875 135.448287963867188
21.4278011322021484 -113.133071899414062 -10.7520513534545898
-62.5809898376464844 -99.6085968017578125 -125.964729309082031
71.411224365234375 72.8496170043945312 -42.0284996032714844
-33.6477012634277344 75.884674072265625 129.594146728515625
52.2298774719238281 66.96917724609375 -131.127899169921875
-61.7732353210449219 -102.800254821777344 -121.143989562988281
-17.9356212615966797 140.052490234375 -42.9146385192871094
-22.9713554382324219 -57.0899658203125 -154.068832397460938
3.57144689559936523 -65.5451812744140625 -152.162567138671875
-75.8560638427734375 -82.8779525756835938 -87.8953094482421875
-69.2356643676757812 37.8773956298828125 38.9249649047851562
-64.9816513061523438 49.0357017517089844 120.423881530761719
-0.267988711595535278 158.000869750976562 17.4415969848632812
-69.47283935546875 61.9444580078125 9.73638439178466797
76.7965316772460938 63.9085464477539062 69.055145263671875
71.0761947631835938 -36.5645828247070312 19.7713413238525391
-71.4763870239257812 52.4495735168457031 -43.788604736328125
-3.6251530647277832 91.0197525024414062 -115.807411193847656
-25.3133888244628906 -26.4231815338134766 150.095626831054688
-56.4184761047363281 -65.0359115600585938 -150.35955810546875
-50.8799476623535156 53.2472763061523438 138.570968627929688
-28.1357460021972656 112.277694702148438 58.1689872741699219
-27.1920280456542969 -5.12102365493774414 148.061019897460938
76.0674667358398438 22.59564208984375 91.7087554931640625
15.0228176116943359 99.3491668701171875 66.3386154174804688
-74.0403366088867188 -26.9736499786376953 -54.7805290222167969
58.0428085327148438 -47.6926002502441406 146.715850830078125
-73.2316513061523438 -52.2683143615722656 -136.57147216796875
-70.8370819091796875 61.3786888122558594 -32.5328598022460938
-29.8325214385986328 129.437973022460938 -62.3620529174804688
75.9933395385742188 68.45648193359375 67.5022811889648438
-64.5978012084960938 -90.300079345703125 -135.377548217773438
-74.42657470703125 -34.777435302734375 -61.0800437927246094
70.9406814575195312 26.6650466918945312 -58.2817802429199219
57.648773193359375 91.6483383178710938 26.7971897125244141
-19.078155517578125 73.481475830078125 131.077499389648438
-39.9751243591308594 -112.10614013671875 108.247291564941406
-75.4246673583984375 -26.9485549926757812 -120.069564819335938
-24.3156566619873047 96.6616668701171875 75.859588623046875
19.121185302734375 146.276290893554688 -27.2862129211425781
-42.3319778442382812 80.141448974609375 123.861289978027344
29.0883274078369141 -118.649673461914062 86.068695068359375
69.6996841430664062 -93.9693145751953125 76.707977294921875
59.0101394653320312 -100.575408935546875 128.181747436523438
31.9293880462646484 -31.7602500915527344 147.706283569335938
62.9305992126464844 86.3665771484375 -50.6240425109863281
70.5813980102539062 39.6358795166015625 -76.069488525390625
-9.90631389617919922 -117.091087341308594 -100.783706665039062
57.661865234375 -5.878509521484375 -140.128814697265625
-41.4173851013183594 96.6975479125976562 0.35638996958732605
-3.35571742057800293 157.310867309570312 20.7786808013916016
73.6758575439453125 43.77740478515625 0.170316576957702637
-74.4585800170898438 -1.13637495040893555 -96.950286865234375
49.665435791015625 -110.694969177246094 -73.4850234985351562
-75.5035934448242188 -88.5413894653320312 -73.358551025390625
4.10008430480957031 101.279197692871094 23.2455615997314453
-69.3129196166992188 -31.0214900970458984 104.082588195800781
7.02296638488769531 -117.793228149414062 -98.956573486328125
-0.195218384265899658 -77.0666122436523438 151.704437255859375
-73.7956619262695312 -62.7576522827148438 -5.35574150085449219
-71.1539077758789062 49.9443893432617188 -30.8418331146240234
54.4893989562988281 -76.1117782592773438 146.805694580078125
73.0474319458007812 -0.767182111740112305 41.9284210205078125
-69.214111328125 44.0207672119140625 34.2087745666503906
59.3646583557128906 97.908721923828125 -76.1445236206054688
-51.1771240234375 -105.550857543945312 -120.55059814453125
75.2742385864257812 27.1068248748779297 65.5579147338867188
77.1384201049804688 30.5388946533203125 116.186996459960938
37.6130027770996094 -114.89202880859375 95.4273681640625
-65.012115478515625 74.8773727416992188 61.8714561462402344
75.12945556640625 38.9495811462402344 50.1470260620117188
69.6962127685546875 -85.0597610473632812 53.1537704467773438
8.41306018829345703 -12.0758371353149414 -148.862106323242188
3.3286130428314209 -118.788658142089844 -30.1446361541748047
-70.2846755981445312 21.8605518341064453 19.6470794677734375
73.1289596557617188 -51.9155006408691406 125.782089233398438
-57.34320068359375 -109.595115661621094 65.1181182861328125
-54.6535987854003906 -110.5045166015625 49.5316543579101562
-66.681671142578125 -103.467788696289062 49.0356369018554688
-69.9204483032226562 56.7000503540039062 1.42176663875579834
74.5725326538085938 71.9931793212890625 97.1939849853515625
-48.2372055053710938 93.7988204956054688 36.4208717346191406
-59.1794166564941406 78.1799850463867188 105.577713012695312
21.3380718231201172 10.1610870361328125 -144.425033569335938
20.7698307037353516 -116.852523803710938 86.183349609375
50.7096595764160156 65.9899520874023438 -132.489471435546875
-71.7316970825195312 14.3806238174438477 -20.4380302429199219
67.0433883666992188 -93.4583511352539062 -16.3363246917724609
-75.4201507568359375 -43.4123573303222656 -128.238967895507812
41.828582763671875 -112.8321533203125 -35.4350700378417969
-23.0522861480712891 98.0604934692382812 -74.07867431640625
69.0383453369140625 32.09552001953125 -108.495208740234375
-68.877349853515625 -95.5439682006835938 110.538833618164062
70.82757568359375 -33.394256591796875 3.8996882438659668
29.4293746948242188 93.1104736328125 100.3387451171875
-4.52357149124145508 -111.614082336425781 101.751815795898438
13.2312154769897461 -44.6511116027832031 151.29241943359375
-71.6930618286132812 47.70989990234375 -46.0287284851074219
-5.55593299865722656 153.143707275390625 30.0607414245605469
-1.93685805797576904 50.6313095092773438 -141.363876342773438
-46.778564453125 -111.868034362792969 96.801666259765625
-1.97407448291778564 -65.8626556396484375 154.114730834960938
-1.229789137840271 -117.139083862304688 -32.63287353515625
-65.7043991088867188 31.6227321624755859 123.504981994628906
19.7892322540283203 86.7421951293945312 -119.709510803222656
-25.5325145721435547 63.9440994262695312 -138.627883911132812
-45.8183059692382812 98.7617874145507812 -85.5332260131835938
54.3951835632324219 86.690582275390625 -107.684814453125
-49.8166656494140625 49.0298652648925781 -139.154769897460938
66.3975296020507812 -33.4781608581542969 -110.8245849609375
-56.9248161315917969 -116.397598266601562 -77.1512908935546875
69.5528106689453125 68.0538253784179688 118.818702697753906
44.7278480529785156 83.3319091796875 116.929031372070312
39.2409248352050781 27.4772682189941406 144.118362426757812
38.8253173828125 -78.9268035888671875 146.910049438476562
-17.4291400909423828 96.11492919921875 86.0125198364257812
62.0545425415039062 -105.801956176757812 16.6021671295166016
73.2363739013671875 -51.225830078125 117.565650939941406
-72.9050979614257812 23.13690185546875 -64.7498931884765625
-13.4844961166381836 -116.316604614257812 -2.56524968147277832
71.4297866821289062 56.281341552734375 -69.5061187744140625
-75.942047119140625 -74.315093994140625 -106.757034301757812
-69.6964187622070312 13.9241123199462891 45.1500320434570312
73.5080795288085938 13.1056652069091797 26.5184001922607422
-3.40297436714172363 -29.5744400024414062 153.660385131835938
31.9440174102783203 97.6285324096679688 -90.9932937622070312
-44.1759109497070312 95.070892333984375 49.1905250549316406
-5.5800328254699707 99.3391342163085938 82.2462921142578125
63.3692779541015625 -99.3209686279296875 -55.17010498046875
-70.4412155151367188 -62.0602073669433594 -141.594268798828125
-63.78057861328125 -106.566001892089844 -6.87659025192260742
-74.598602294921875 -51.8529129028320312 -48.9652519226074219
-72.9217987060546875 -8.70092010498046875 -34.4735488891601562
-71.4466171264648438 30.5888462066650391 -22.8703346252441406
-74.4627609252929688 -93.2075653076171875 -72.2429656982421875
-74.1571502685546875 -64.4256820678710938 -18.1341171264648438
-51.05291748046875 82.7485733032226562 113.261177062988281
-74.3428268432617188 -89.1486587524414062 -11.4179534912109375
28.6041049957275391 95.8808975219726562 71.6038589477539062
-47.0585899353027344 94.7268295288085938 19.4532146453857422
-17.0511817932128906 -84.3245925903320312 152.607177734375
18.6259078979492188 -99.3388748168945312 139.141342163085938
-45.5441932678222656 -110.463081359863281 -51.9662361145019531
56.9322433471679688 91.6597824096679688 -42.2616004943847656
74.3553237915039062 -3.97086215019226074 118.253608703613281
15.2842006683349609 -115.076011657714844 -102.138687133789062
76.7608261108398438 40.325775146484375 90.2363357543945312
54.85430908203125 -107.151840209960938 -86.6021041870117188
-32.0089225769042969 104.289039611816406 -53.7259368896484375
-69.143341064453125 36.2330780029296875 42.845245361328125
76.3277359008789062 52.5308303833007812 66.2038726806640625
-4.21446466445922852 167.101409912109375 -7.4586634635925293
-54.3273849487304688 99.9749679565429688 -78.19171142578125
34.6478614807128906 62.089508056640625 -136.90557861328125
63.3261489868164062 -99.6289596557617188 123.724472045898438
-4.51217889785766602 162.89239501953125 24.3903427124023438
71.9227523803710938 -5.25630807876586914 13.5429840087890625
-23.7875423431396484 -30.68902587890625 150.520309448242188
-7.59488391876220703 -99.2238998413085938 -138.474517822265625
-0.497946798801422119 54.9723167419433594 143.64178466796875
49.4365997314453125 -45.6410102844238281 148.6407470703125
-75.3889923095703125 -76.5153274536132812 -61.7967529296875
70.5866622924804688 5.97819709777832031 -49.4010772705078125
66.2714385986328125 84.9880905151367188 48.8429679870605469
-37.1602630615234375 -90.1387786865234375 145.614990234375
-48.565185546875 -103.238853454589844 131.939682006835938
26.9940280914306641 -96.549072265625 137.2991943359375
-64.5724334716796875 81.7923431396484375 -17.2291336059570312
59.5381317138671875 100.77838134765625 75.4885635375976562
-69.38116455078125 -0.922012507915496826 70.2155227661132812
59.9998817443847656 -85.2609176635742188 -132.71832275390625
1.14893472194671631 -39.6156806945800781 152.92236328125
65.6582107543945312 -67.7156906127929688 -79.5673904418945312
63.1212844848632812 5.77327585220336914 140.459884643554688
-73.3482208251953125 -52.1181793212890625 -1.59648215770721436
65.4626235961914062 -87.2566986083984375 -66.8737258911132812
19.5348186492919922 102.852264404296875 -75.6985549926757812
-52.6710624694824219 -29.7532005310058594 149.873779296875
-24.3747806549072266 -113.831314086914062 -13.6847944259643555
-63.0389976501464844 83.3611907958984375 -4.71608829498291016
-32.4502105712890625 98.4269485473632812 -45.2080726623535156
-10.7233667373657227 -112.167640686035156 -116.315338134765625
42.8856620788574219 96.190826416015625 -6.03275489807128906
-75.3177566528320312 -48.9635543823242188 -86.9916458129882812
-73.9879913330078125 18.3375377655029297 -118.599891662597656
-53.688385009765625 92.7027359008789062 -39.2167510986328125
51.1838951110839844 102.351303100585938 83.9603500366210938
-58.5739631652832031 -109.276458740234375 16.4250030517578125
59.3794174194335938 -33.6119880676269531 -142.490020751953125
17.7154788970947266 101.966026306152344 3.22496151924133301
-54.638580322265625 -88.3648452758789062 144.145553588867188
71.1041107177734375 -36.7371635437011719 20.8488311767578125
-27.9356231689453125 124.437065124511719 53.8674507141113281
26.1948032379150391 98.7985458374023438 33.6737480163574219
68.6590652465820312 -69.127197265625 -0.821161627769470215
64.013641357421875 -44.7034378051757812 -133.792465209960938
-73.2158432006835938 -23.6714344024658203 -29.5223045349121094
-27.9949321746826172 97.26898193359375 43.105987548828125
-72.5766754150390625 -0.371115803718566895 -31.3250522613525391
0.134869158267974854 -41.3618965148925781 153.041549682617188
-3.36848616600036621 -9.75478076934814453 -147.994918823242188
-43.5771484375 20.4044933319091797 -142.832778930664062
-35.1458244323730469 -112.776161193847656 -52.5764274597167969
-69.9954757690429688 46.3524551391601562 8.34041595458984375
73.0478363037109375 23.4333896636962891 129.219482421875
59.9009208679199219 -3.28117680549621582 141.376815795898438
-74.4895706176757812 -51.8143768310546875 -43.5824699401855469
-64.2991714477539062 84.1035003662109375 -63.0452690124511719
76.274444580078125 25.4616584777832031 95.603271484375
-50.9153556823730469 -113.042579650878906 71.0423431396484375
-19.9759082794189453 96.5840988159179688 78.177764892578125
-68.8810348510742188 73.2562942504882812 -103.244850158691406
76.7305450439453125 45.9242668151855469 84.9045028686523438
57.0241546630859375 10.8483619689941406 143.031509399414062
-10.9819908142089844 -116.682624816894531 -11.7669992446899414
2.16640305519104004 -94.7129058837890625 -142.690902709960938
76.2067718505859375 69.1068572998046875 85.6764984130859375
-27.3455696105957031 97.0878982543945312 89.08514404296875
-69.6006851196289062 47.8873062133789062 19.0376815795898438
-14.4622430801391602 -116.29425048828125 -86.926544189453125
44.6720542907714844 -93.27435302734375 -141.599441528320312
72.2711944580078125 49.3071708679199219 -41.6850738525390625
-66.0910186767578125 53.851409912109375 104.777999877929688
-70.5008773803710938 29.0832386016845703 6.77856588363647461
-75.9928359985351562 -62.8544845581054688 -119.4732666015625
-9.78493785858154297 147.386520385742188 -29.8185672760009766
-54.0767707824707031 -110.471168518066406 29.8399066925048828
-74.15704345703125 7.61519527435302734 -95.897125244140625
73.024993896484375 -55.9677162170410156 121.810997009277344
71.0990982055664062 -15.6816396713256836 -7.35452795028686523
-72.7457199096679688 12.2323999404907227 -50.3674392700195312
-18.884796142578125 -115.23614501953125 -26.1286449432373047
-47.7110748291015625 -110.477485656738281 -30.3417987823486328
71.5967864990234375 -57.3055953979492188 79.1698684692382812
-25.7782764434814453 -28.2835254669189453 -151.422531127929688
-65.061614990234375 83.2812957763671875 -66.5485305786132812
17.7050685882568359 -120.726402282714844 58.9874305725097656
-4.48862314224243164 -121.838737487792969 -82.5627059936523438
21.8343238830566406 99.0313873291015625 69.1337127685546875
-54.1786727905273438 92.6577606201171875 -48.4783248901367188
67.0867462158203125 38.1665191650390625 -124.570999145507812
-57.7731781005859375 89.0956039428710938 -10.4781255722045898
-71.3047943115234375 51.1465797424316406 -37.1333770751953125
-13.2280740737915039 102.070976257324219 16.5879726409912109
-63.328338623046875 20.3793125152587891 -137.4599609375
37.7257156372070312 -110.442031860351562 -118.35052490234375
71.0155105590820312 4.15211105346679688 -25.4650840759277344
-72.2133331298828125 -2.57522964477539062 -129.791168212890625
-36.9595870971679688 -112.673454284667969 92.925323486328125
-72.2948455810546875 -88.742767333984375 61.5374603271484375
-53.8788833618164062 -112.258872985839844 -70.5903778076171875
-32.8460693359375 92.574920654296875 -105.602157592773438
-74.7771377563476562 -84.427886962890625 -23.8458156585693359
-72.0219497680664062 54.6143264770507812 -67.679168701171875
-4.61249399185180664 59.5931549072265625 141.721603393554688
15.8973836898803711 152.249618530273438 7.45750999450683594
47.500823974609375 -105.268791198730469 -125.719017028808594
70.82342529296875 -39.3137893676757812 16.5285625457763672
75.1433334350585938 12.6222667694091797 76.4443740844726562
-27.8829460144042969 115.049842834472656 65.9593582153320312
-69.8085479736328125 -15.594660758972168 74.0047531127929688
54.9905357360839844 -112.926353454589844 96.52789306640625
76.6453628540039062 58.7249488830566406 65.404205322265625
64.4304580688476562 85.9335174560546875 -16.8782730102539062
22.4228763580322266 79.2820663452148438 -125.550888061523438
50.878509521484375 8.98142337799072266 -143.8914794921875
-60.8828239440917969 -73.7481613159179688 -147.247573852539062
0.299114108085632324 -117.918113708496094 2.87418818473815918
67.9480209350585938 -29.5687923431396484 138.601730346679688
11.983367919921875 -114.404609680175781 -119.474510192871094
7.07823991775512695 -77.399627685546875 -151.401397705078125
-25.1728649139404297 4.85890007019042969 147.090103149414062
76.4589080810546875 51.1984100341796875 73.3054046630859375
-72.25030517578125 -72.9325332641601562 55.6863555908203125
-5.7863621711730957 149.231246948242188 29.2280979156494141
70.361419677734375 -29.9204673767089844 -18.0490608215332031
-12.6142358779907227 -96.8257217407226562 -140.498382568359375
17.6750812530517578 102.403228759765625 -11.1931324005126953
-74.7418746948242188 -69.7391510009765625 -36.1267890930175781
-25.7265300750732422 -115.326469421386719 -61.7323989868164062
67.5749893188476562 -1.7196192741394043 -101.137107849121094
10.9293384552001953 103.224601745605469 -21.3399124145507812
71.2270278930664062 -71.494903564453125 89.3483963012695312
-15.4954748153686523 -114.023429870605469 74.5673065185546875
24.8503074645996094 -113.179183959960938 -55.271881103515625
69.7136154174804688 79.7985458374023438 6.76308822631835938
-45.5070686340332031 -110.820365905761719 0.233445897698402405
60.8762474060058594 -102.212776184082031 -67.1551284790039062
71.6739349365234375 45.314422607421875 -51.897857666015625
-20.8568801879882812 -114.87908935546875 63.5215034484863281
20.614776611328125 -107.310127258300781 126.811515808105469
71.7753219604492188 2.12684416770935059 6.01745176315307617
51.4870376586914062 68.1144638061523438 -130.785354614257812
53.1811447143554688 -63.8297309875488281 148.989852905273438
-68.098236083984375 18.7237262725830078 87.8577117919921875
75.0986785888671875 65.88916015625 21.3905296325683594
-2.13303208351135254 100.996261596679688 -90.4565200805664062
14.7138938903808594 -118.4764404296875 19.6618442535400391
35.6109695434570312 103.831108093261719 -61.2228126525878906
-48.1180076599121094 44.6935615539550781 -139.981597900390625
-49.9010162353515625 -65.81549072265625 -150.879974365234375
-70.9222259521484375 71.66192626953125 -84.1654586791992188
71.2615127563476562 74.1797637939453125 -31.0205020904541016
-71.3586273193359375 19.3819580078125 -11.7546176910400391
-75.3391799926757812 -45.0956268310546875 -91.4067611694335938
5.84750747680664062 21.1417903900146484 -145.538848876953125
37.1032791137695312 83.6252670288085938 -120.412086486816406
-0.561605751514434814 -74.3330230712890625 -150.743255615234375
65.1463623046875 -73.4889373779296875 -85.0875625610351562
14.8740997314453125 -116.811088562011719 -83.3485488891601562
35.3653411865234375 -26.9564437866210938 147.382675170898438
77.6221847534179688 43.8104782104492188 111.364448547363281
27.6351413726806641 3.4701542854309082 146.051956176757812
-11.256922721862793 -114.254287719726562 -105.129951477050781
25.6891975402832031 -115.472801208496094 -78.6918106079101562
-15.6518850326538086 -70.460693359375 -153.886917114257812
67.9504852294921875 10.7687253952026367 -120.079269409179688
-74.3986053466796875 -58.1484565734863281 -33.4281578063964844
71.5623092651367188 -52.6385917663574219 64.816680908203125
-68.9564971923828125 41.6594467163085938 43.0647087097167969
