ply
format ascii 1.0
element vertex 787
comment vertices
property float x
property float y
property float z
end_header
40.1887664794921875 43.2187614440917969 52.74322509765625
38.7497215270996094 -7.50654983520507812 -17.4090805053710938
-40.0856170654296875 -4.7294306755065918 -61.4209785461425781
17.9556541442871094 -62.7348136901855469 63.86138916015625
-44.4779815673828125 1.00179827213287354 27.2612991333007812
33.9586601257324219 50.93768310546875 49.0115623474121094
-48.6216011047363281 -23.5152797698974609 -43.3600082397460938
8.05754852294921875 47.6227035522460938 -91.273529052734375
27.2141990661621094 -2.68985342979431152 73.4031600952148438
-3.27694344520568848 45.3940200805664062 85.1791534423828125
15.1079368591308594 59.4375839233398438 -71.1650009155273438
-1.95866978168487549 -57.1281585693359375 -48.2094497680664062
-25.8370380401611328 -4.11069965362548828 -95.4764633178710938
23.9608306884765625 52.7159385681152344 -27.9016628265380859
-21.1883640289306641 45.4979515075683594 -96.15948486328125
-9.57665061950683594 -56.027587890625 61.0256423950195312
8.61964225769042969 39.70489501953125 -90.0501937866210938
21.475311279296875 -28.2741317749023438 64.5138626098632812
13.4181766510009766 71.446441650390625 -39.4942245483398438
36.5321121215820312 -40.9687843322753906 -34.9950027465820312
-5.01423740386962891 -55.8106231689453125 -21.9405784606933594
14.9747676849365234 73.4042739868164062 -10.7904844284057617
13.7866706848144531 70.182159423828125 41.88995361328125
-44.7884559631347656 -18.0678615570068359 29.0024261474609375
-45.4878120422363281 39.1740875244140625 -37.9659080505371094
-17.9095039367675781 56.9902153015136719 -35.2241668701171875
-38.7815322875976562 -58.0223846435546875 -10.0876550674438477
7.32609128952026367 65.6864700317382812 -15.4573974609375
38.6125221252441406 14.5145664215087891 -1.13870704174041748
-37.2196235656738281 40.9063224792480469 25.8863697052001953
-32.1603775024414062 -42.9855690002441406 90.3438949584960938
-16.0760059356689453 51.8072929382324219 -45.4553413391113281
-28.7205295562744141 63.7439460754394531 78.720001220703125
13.145298957824707 57.8425025939941406 -93.2368316650390625
-26.6052360534667969 -62.8374671936035156 63.5192832946777344
-32.0071868896484375 -47.0992088317871094 90.0201339721679688
-48.8843994140625 -40.9021568298339844 9.6106719970703125
-44.1855812072753906 -54.8820266723632812 56.0801963806152344
17.6214427947998047 66.418548583984375 -47.3748321533203125
-7.49260711669921875 -54.0604629516601562 -45.7445755004882812
29.4593467712402344 -44.7407035827636719 81.6208648681640625
-19.0884914398193359 58.7377738952636719 -26.8190689086914062
-36.9530487060546875 -18.5875530242919922 53.3075103759765625
-10.6370944976806641 36.5641403198242188 -2.48237347602844238
5.06605672836303711 47.700775146484375 -88.04443359375
-7.16831874847412109 -56.6015968322753906 47.265899658203125
24.8772239685058594 53.9205360412597656 19.9017982482910156
-39.3113899230957031 -44.4231491088867188 -87.5421600341796875
18.9237232208251953 -28.3365707397460938 90.56634521484375
20.350128173828125 -58.2339210510253906 -2.89852261543273926
14.4156856536865234 68.0519332885742188 34.2935829162597656
-7.90405416488647461 -51.2374343872070312 -56.7398185729980469
-32.4068832397460938 57.87445068359375 69.943572998046875
-32.7243118286132812 -57.285552978515625 -33.4329605102539062
-50.1243972778320312 -13.5381736755371094 -9.73105812072753906
-31.7722568511962891 53.2541007995605469 69.0640182495117188
-29.8215885162353516 32.7149238586425781 -103.675804138183594
-38.0480537414550781 3.08182382583618164 -64.8512954711914062
-5.55059957504272461 1.52067744731903076 -110.983757019042969
27.8847904205322266 48.9700088500976562 -33.0446090698242188
-1.29139220714569092 66.1016693115234375 40.5736885070800781
-37.07818603515625 -32.6549034118652344 69.52972412109375
-49.5286064147949219 -31.1041374206542969 -47.9031143188476562
17.7304725646972656 68.934356689453125 21.7754230499267578
30.1862602233886719 54.4383468627929688 -55.0827598571777344
46.0112380981445312 38.285858154296875 5.63189840316772461
2.37863922119140625 68.008758544921875 23.1114654541015625
-16.8087863922119141 36.765716552734375 37.1407928466796875
-14.5643177032470703 54.72247314453125 19.8223419189453125
16.9735755920410156 -59.846893310546875 -30.9187602996826172
-42.8798713684082031 -16.5980434417724609 39.2450065612792969
39.3293609619140625 27.1955146789550781 -54.664886474609375
-31.2983226776123047 64.7366104125976562 -41.4436874389648438
-26.0885105133056641 25.5584335327148438 66.6625518798828125
-31.8671989440917969 19.386077880859375 52.2651176452636719
14.3168745040893555 64.4691696166992188 -67.379364013671875
-46.4803009033203125 -30.1540489196777344 34.6524620056152344
-7.19009304046630859 -61.2238845825195312 22.3710556030273438
12.6244468688964844 -33.8382759094238281 -98.3081283569335938
28.9796333312988281 -49.7687149047851562 -4.31951093673706055
-24.6522026062011719 -27.1339950561523438 -95.1858062744140625
33.8670730590820312 -28.2923679351806641 -7.81408357620239258
34.7524909973144531 45.3999557495117188 -69.09210205078125
5.61850976943969727 -54.1276588439941406 90.9347991943359375
-14.3580389022827148 -54.7733497619628906 -17.4190673828125
41.4554710388183594 13.5301780700683594 49.7445259094238281
19.4052600860595703 -36.1490020751953125 90.0615310668945312
-48.088653564453125 -9.80359649658203125 5.85877704620361328
15.4562253952026367 -26.1532630920410156 -87.3188323974609375
38.744415283203125 -11.0429401397705078 -54.8991317749023438
-9.37694644927978516 -56.9032783508300781 -37.3582801818847656
9.72213649749755859 14.9508247375488281 -100.221649169921875
-35.0446968078613281 54.7395668029785156 58.2738075256347656
-38.4216575622558594 -49.5663642883300781 -79.9605484008789062
40.0378494262695312 25.3310317993164062 -55.0244979858398438
-5.51582765579223633 60.8732261657714844 60.7714653015136719
19.8549842834472656 -56.5183334350585938 -18.6077060699462891
19.5303916931152344 67.7539901733398438 51.5456428527832031
33.3996238708496094 47.7971115112304688 -61.4120826721191406
18.2195606231689453 47.8850212097167969 -78.7010116577148438
3.11218380928039551 -44.8124351501464844 101.708709716796875
-40.7461013793945312 -5.16745996475219727 41.9570846557617188
-0.0400382727384567261 8.67479705810546875 104.183517456054688
18.8455524444580078 -60.8640213012695312 47.5897407531738281
-40.4729080200195312 30.8684558868408203 7.32710075378417969
25.3173866271972656 -13.4360208511352539 69.3817367553710938
36.3778953552246094 -9.12516021728515625 3.29664111137390137
-21.6116561889648438 -55.8943214416503906 -41.0503425598144531
-28.8227748870849609 -59.6964263916015625 10.7630825042724609
-16.2049922943115234 48.0654945373535156 33.6858634948730469
-42.7438201904296875 40.5996971130371094 -51.6071319580078125
27.458465576171875 55.2790565490722656 -58.8259544372558594
-38.054718017578125 54.07318115234375 35.5512046813964844
17.8038387298583984 70.1379013061523438 52.5747642517089844
-17.5837421417236328 -26.6801013946533203 -93.8431472778320312
-47.209442138671875 -33.5509719848632812 -55.8885421752929688
-2.54142498970031738 -12.2152748107910156 105.940147399902344
-12.1152524948120117 56.66693115234375 25.8746395111083984
35.5344581604003906 43.496551513671875 -61.2799301147460938
-38.0949134826660156 -45.2613029479980469 -90.9815902709960938
-41.9762840270996094 51.94915771484375 -12.7984037399291992
-26.0819053649902344 -62.4807701110839844 62.2398033142089844
-33.3626327514648438 20.7253799438476562 49.2757644653320312
-13.8849811553955078 57.963134765625 47.067901611328125
33.1028480529785156 44.8529434204101562 8.03005599975585938
35.057586669921875 1.66003179550170898 -79.7455520629882812
9.50286197662353516 70.49066162109375 -46.2521133422851562
15.3658542633056641 -62.7481575012207031 37.525115966796875
4.66138744354248047 -20.9437389373779297 -102.857795715332031
35.9305534362792969 -4.60554218292236328 -70.769317626953125
-13.4656143188476562 47.3289566040039062 87.2862472534179688
27.7514972686767578 -38.7339591979980469 39.0786933898925781
24.1359615325927734 37.3171882629394531 73.8567733764648438
-29.8607044219970703 -25.8040962219238281 90.05615234375
12.5180873870849609 16.1115684509277344 -84.4859619140625
16.4613723754882812 -59.8053817749023438 -18.924560546875
-46.2169151306152344 -49.8574714660644531 18.1115779876708984
-37.9844703674316406 -63.6300277709960938 53.011444091796875
12.3114109039306641 -0.781758666038513184 96.3081817626953125
-2.21983504295349121 14.9232864379882812 106.183601379394531
30.6204547882080078 -29.8591461181640625 -85.106048583984375
14.0195236206054688 -63.0959548950195312 49.5719795227050781
24.7956008911132812 57.5673141479492188 26.7569465637207031
38.3907127380371094 -5.40502357482910156 -63.7428474426269531
-10.3875207901000977 -10.7452173233032227 -109.628463745117188
-7.25853538513183594 47.9111976623535156 -5.75742530822753906
8.49095439910888672 34.7965469360351562 105.948646545410156
26.0363559722900391 54.6859970092773438 19.1820850372314453
-0.973074078559875488 27.3519496917724609 -111.035408020019531
-12.2779521942138672 59.0698127746582031 48.3784217834472656
33.6723861694335938 -16.1368160247802734 7.86258649826049805
31.0473003387451172 -49.143463134765625 -63.6186904907226562
-17.0594959259033203 19.9563751220703125 104.254280090332031
-7.56672000885009766 -62.1788749694824219 6.29167461395263672
3.98900461196899414 48.5751838684082031 -89.5884475708007812
38.6558074951171875 -4.32213592529296875 -5.13199567794799805
-17.2611732482910156 42.7573318481445312 13.7881994247436523
14.1410331726074219 71.54034423828125 1.26743745803833008
32.4518051147460938 -45.3139076232910156 -34.3459243774414062
-44.5696487426757812 51.5063018798828125 -8.68362331390380859
-32.6045913696289062 63.2714462280273438 -61.0954818725585938
22.0190486907958984 54.7306747436523438 -21.9464473724365234
36.92138671875 -0.285624325275421143 -67.12957763671875
19.0280170440673828 -60.6961784362792969 44.9175758361816406
11.9643316268920898 -8.94081401824951172 93.9863815307617188
21.8682937622070312 -23.8304767608642578 -81.3369293212890625
21.4245853424072266 -23.2872867584228516 52.9662399291992188
13.6910991668701172 70.9222946166992188 75.8136672973632812
26.8884658813476562 -46.6432075500488281 -79.84783935546875
-50.4774017333984375 -5.97194480895996094 -17.7344112396240234
-34.2764396667480469 3.18959617614746094 58.0095252990722656
30.6734638214111328 -45.9393844604492188 15.3393535614013672
-38.3175773620605469 -25.4339160919189453 60.5224952697753906
-40.7126922607421875 34.5355567932128906 -44.7023429870605469
-3.2670750617980957 -31.3443641662597656 -102.243988037109375
-29.0563545227050781 34.3384284973144531 64.1341323852539062
-12.9493522644042969 -56.6195411682128906 81.8674087524414062
-40.545135498046875 35.1816864013671875 2.07887792587280273
27.9116973876953125 -51.5338668823242188 12.3682374954223633
14.9929256439208984 60.490447998046875 93.8543930053710938
-23.5899276733398438 25.4719562530517578 -112.630653381347656
22.1799087524414062 -52.4045448303222656 55.2216644287109375
-32.8912925720214844 43.5457000732421875 -84.25762939453125
35.7905006408691406 0.300737917423248291 59.464996337890625
21.7808094024658203 -28.1061630249023438 47.7269248962402344
-31.7127609252929688 29.4883174896240234 -75.536895751953125
26.9149990081787109 51.7964706420898438 18.5860404968261719
-45.1615943908691406 -2.79057574272155762 -31.9086284637451172
-14.3119325637817383 27.0905647277832031 -112.016952514648438
30.0461349487304688 -31.7415084838867188 5.11404848098754883
-35.477508544921875 -33.0506210327148438 75.930023193359375
22.3273830413818359 -31.1613578796386719 89.3227920532226562
-50.2832679748535156 -31.2303256988525391 -10.7921342849731445
17.3683185577392578 -44.5404510498046875 -79.6976242065429688
19.3349056243896484 -55.5938262939453125 77.4102096557617188
42.9965057373046875 27.3008384704589844 19.8126735687255859
37.4183731079101562 -7.9385228157043457 -56.0714988708496094
29.5238323211669922 -9.49271583557128906 44.2105827331542969
-37.206329345703125 -12.465235710144043 -77.2231063842773438
5.39172697067260742 -60.0257682800292969 71.0191268920898438
33.3285446166992188 47.243255615234375 -16.5409564971923828
-39.3857383728027344 -14.2894105911254883 -72.3110733032226562
43.9240570068359375 19.1770668029785156 53.2620925903320312
40.4245643615722656 44.7125625610351562 10.6623725891113281
-42.8967361450195312 47.5087471008300781 -3.05143260955810547
-5.46414422988891602 -44.2223968505859375 -73.490966796875
-25.1434383392333984 -42.9887733459472656 -75.2768707275390625
-41.4031829833984375 3.79883790016174316 39.1922645568847656
16.0670547485351562 35.4582405090332031 86.9363555908203125
-10.6402750015258789 59.5727767944335938 36.5203742980957031
-16.5189399719238281 -47.7133445739746094 -52.8995208740234375
7.62433481216430664 69.5909347534179688 10.4929094314575195
10.4725971221923828 -2.14171242713928223 99.45208740234375
35.316802978515625 52.0238685607910156 -57.1266822814941406
35.9478569030761719 -27.3842144012451172 -46.3622970581054688
15.8272037506103516 67.5501327514648438 80.8822250366210938
-25.6769428253173828 -30.2065505981445312 -97.718719482421875
-33.1725425720214844 60.777862548828125 41.3173942565917969
17.1075191497802734 -51.4381523132324219 -79.4269027709960938
-34.2265281677246094 -49.7336883544921875 -58.6923980712890625
-43.2910614013671875 -56.8377456665039062 7.40439081192016602
-50.3698616027832031 -39.1749801635742188 -27.1572437286376953
6.32693052291870117 42.9046669006347656 -103.8779296875
18.4995479583740234 57.7756309509277344 76.2160110473632812
-22.947845458984375 28.2007045745849609 80.2804641723632812
-14.8353786468505859 -30.1373157501220703 106.975067138671875
16.6627178192138672 63.4518699645996094 59.855010986328125
-18.5719394683837891 57.1097946166992188 -9.3037261962890625
-25.4764270782470703 5.24310541152954102 87.7376708984375
-18.9155864715576172 46.519287109375 -94.5940475463867188
-20.9040069580078125 60.9816322326660156 -78.5689773559570312
29.1008949279785156 -51.5526351928710938 -58.7909774780273438
30.2490768432617188 -28.3945274353027344 -68.1963729858398438
25.1852703094482422 50.5270156860351562 35.3638916015625
-1.36597800254821777 61.5815544128417969 74.3051300048828125
-45.2326469421386719 3.83162689208984375 16.7867565155029297
-34.9208450317382812 -34.0929946899414062 69.4812850952148438
-14.7924709320068359 44.6775894165039062 -97.1018753051757812
25.7982406616210938 57.2545547485351562 75.3512954711914062
4.61706399917602539 41.2483406066894531 112.171783447265625
-12.9349193572998047 58.2775993347167969 43.4411201477050781
21.3510704040527344 -49.1878852844238281 -70.3395462036132812
-13.0217552185058594 43.7574234008789062 71.4698333740234375
39.355316162109375 15.9694490432739258 -66.3334121704101562
20.3094749450683594 -51.8808212280273438 26.2022762298583984
-30.0427780151367188 63.5420036315917969 84.2445602416992188
-35.0571250915527344 -32.8037147521972656 76.9620895385742188
19.5753669738769531 -58.5053443908691406 83.2752838134765625
-12.3810720443725586 34.6486549377441406 34.6741065979003906
33.9660148620605469 -0.0244940146803855896 22.4163627624511719
19.8734073638916016 -57.2829322814941406 -19.6450653076171875
-46.913818359375 -36.6391716003417969 36.8624649047851562
12.4629116058349609 -3.999542236328125 -88.0813064575195312
4.08340549468994141 -58.6859397888183594 -35.1056900024414062
-46.0882835388183594 -52.586639404296875 -7.73360395431518555
-44.3744392395019531 -55.660552978515625 -0.33087456226348877
33.8942413330078125 -3.82122707366943359 31.3111896514892578
5.80678701400756836 64.1640167236328125 -59.3059844970703125
-25.9476737976074219 -15.5496377944946289 94.40338134765625
-46.2293777465820312 2.85260915756225586 11.4324264526367188
-28.1321792602539062 50.9878005981445312 -99.8965682983398438
23.7342872619628906 54.4466629028320312 -13.4711437225341797
-50.5567550659179688 -7.45994663238525391 -18.1516056060791016
9.30185317993164062 -63.5005264282226562 35.6943206787109375
-41.52197265625 31.28558349609375 2.54456257820129395
42.1903762817382812 -1.24759936332702637 -16.0732345581054688
22.0542240142822266 53.2380142211914062 -31.0299606323242188
-20.3489570617675781 -61.4188690185546875 36.0039749145507812
-40.1051406860351562 -44.83367919921875 -75.721099853515625
-1.32114267349243164 48.8027305603027344 81.7942581176757812
-37.5788345336914062 -53.6460800170898438 -47.9165611267089844
-1.22705674171447754 -6.18491315841674805 104.315521240234375
-46.6429672241210938 -5.33789682388305664 16.0340728759765625
36.6547317504882812 2.8752906322479248 60.1849250793457031
-22.0947494506835938 -55.2744674682617188 -16.8638324737548828
-24.6346092224121094 10.0473136901855469 79.1654281616210938
34.3386268615722656 49.2923774719238281 -70.3513107299804688
-40.2474784851074219 31.8020896911621094 -44.9267196655273438
17.5892581939697266 14.8061380386352539 -78.672576904296875
-16.2041721343994141 43.9089431762695312 16.3843479156494141
-18.1379299163818359 59.7014884948730469 64.5499038696289062
-20.2656822204589844 59.2260475158691406 4.75699996948242188
16.3581981658935547 -59.9923896789550781 -11.227787971496582
33.1447563171386719 48.6970329284667969 42.7542877197265625
16.3929443359375 57.0673675537109375 -60.5321884155273438
-36.8590621948242188 -43.4191322326660156 -81.0947799682617188
21.8612308502197266 1.21648168563842773 83.0361862182617188
-12.9777956008911133 56.9728546142578125 28.2350349426269531
3.60952615737915039 41.5354194641113281 112.224723815917969
38.5415611267089844 -28.9334506988525391 -32.4835357666015625
-44.114654541015625 -57.4717597961425781 41.9234619140625
-30.0937023162841797 46.1856346130371094 83.171630859375
6.14510583877563477 -47.510162353515625 -91.227264404296875
16.3659992218017578 -60.2257957458496094 85.5451126098632812
4.05826187133789062 -12.6017370223999023 104.439102172851562
-49.7101058959960938 -9.53188705444335938 -6.85032796859741211
-15.4673614501953125 39.0081138610839844 0.67151033878326416
22.5951824188232422 -26.3275318145751953 89.478240966796875
-38.6346855163574219 -3.78135275840759277 -67.4210357666015625
-47.4104843139648438 -15.9320211410522461 -41.9173393249511719
-22.3906097412109375 -9.89046382904052734 98.204681396484375
24.4008674621582031 52.1682701110839844 -21.4829559326171875
9.7643890380859375 -49.6419410705566406 -87.88165283203125
-15.5844602584838867 48.1070785522460938 84.59716796875
42.4052200317382812 28.5779590606689453 -35.0417022705078125
28.4205684661865234 48.7459793090820312 -49.0602645874023438
-22.8350276947021484 -28.8561325073242188 107.991996765136719
-48.200408935546875 -17.5918483734130859 -40.3517379760742188
16.7498302459716797 70.2945175170898438 -39.3909492492675781
-34.65374755859375 14.8206462860107422 -87.4404983520507812
-18.157684326171875 60.7408409118652344 -58.7149772644042969
-34.2267265319824219 2.85037350654602051 -77.08856201171875
16.03228759765625 69.7304229736328125 22.3104419708251953
41.9470062255859375 26.5401954650878906 39.5253410339355469
-4.86595678329467773 58.4413871765136719 0.111018583178520203
30.7586860656738281 -45.2987022399902344 -53.8173713684082031
22.8234634399414062 53.896453857421875 -49.1446189880371094
-19.6322669982910156 59.7857398986816406 -28.3134288787841797
-43.459716796875 -35.3939132690429688 -66.4704055786132812
-50.6788253784179688 -24.6851596832275391 -29.9417324066162109
-19.31781005859375 -46.747802734375 -53.2450218200683594
25.616455078125 -47.7041549682617188 -79.7200698852539062
-43.5386123657226562 45.4274368286132812 -37.2661781311035156
36.7155418395996094 -22.3515663146972656 -18.0760688781738281
17.6756839752197266 63.4539985656738281 -37.6852340698242188
-49.6571884155273438 -21.6028690338134766 -4.94133567810058594
23.1501083374023438 -14.9750518798828125 82.83160400390625
-31.0500755310058594 5.58496379852294922 -92.9598846435546875
27.7052574157714844 -16.3648490905761719 46.5735359191894531
-23.9977264404296875 64.3276443481445312 -59.2253608703613281
-12.1133413314819336 54.6741676330566406 19.226959228515625
-8.16158103942871094 -53.6339569091796875 84.8884429931640625
-22.5740127563476562 1.57103538513183594 -102.783538818359375
-48.9290542602539062 -29.7491874694824219 2.30861210823059082
19.23492431640625 -57.5516090393066406 -20.9863491058349609
-0.856139659881591797 65.5096969604492188 20.6837921142578125
22.7805995941162109 27.4917087554931641 80.70306396484375
-30.1061496734619141 24.6906204223632812 -107.667587280273438
25.2977371215820312 54.8134117126464844 33.1302299499511719
15.5375251770019531 -9.24162006378173828 -83.6958084106445312
-33.3869400024414062 -35.7023200988769531 -80.3743515014648438
-28.3178558349609375 3.33264899253845215 77.0703582763671875
38.0512161254882812 8.73930931091308594 -42.4756393432617188
-35.3173713684082031 15.3409748077392578 -73.492584228515625
45.0732002258300781 27.3442115783691406 -6.4024653434753418
41.1873703002929688 24.9129543304443359 -44.3010177612304688
-44.6143646240234375 -7.59412050247192383 -43.2769508361816406
-24.8837108612060547 32.10205078125 87.0384368896484375
-37.3078117370605469 58.7634735107421875 -36.9646797180175781
9.83827400207519531 -55.1149711608886719 -64.3245773315429688
17.0345554351806641 55.9013214111328125 77.1346588134765625
-33.5226097106933594 62.3789024353027344 -14.0476436614990234
18.4334316253662109 71.8567657470703125 -8.09112262725830078
-32.9192581176757812 43.5808296203613281 -84.5540084838867188
10.9205856323242188 71.981292724609375 -66.59808349609375
-35.5117759704589844 20.7236137390136719 43.9734420776367188
-30.5055370330810547 29.0668411254882812 -103.499679565429688
-38.7528305053710938 16.1171207427978516 -62.5657234191894531
-29.6688327789306641 61.0697860717773438 -75.9516677856445312
34.7216644287109375 -3.50354266166687012 25.2278537750244141
38.75323486328125 17.4545192718505859 10.3961200714111328
31.4305458068847656 45.9581756591796875 -66.7578811645507812
-15.0284032821655273 -57.7226676940917969 52.3494834899902344
-13.9512138366699219 37.7629280090332031 -105.94171142578125
-46.7637596130371094 -52.6014251708984375 -43.5322685241699219
33.1069297790527344 48.9880294799804688 68.3729248046875
38.5155715942382812 -29.8432712554931641 -32.6021232604980469
-45.288177490234375 10.7218990325927734 -39.4226951599121094
-30.5992317199707031 -50.2025375366210938 -58.081329345703125
1.10122466087341309 63.4548606872558594 -16.7451648712158203
-49.9517784118652344 0.210309162735939026 -17.1457405090332031
34.126739501953125 3.00390100479125977 65.0973129272460938
13.3939857482910156 -19.3587112426757812 -87.0761566162109375
-29.3262958526611328 41.816070556640625 -94.4994049072265625
36.835113525390625 -39.8424758911132812 -33.5100593566894531
44.1338424682617188 41.6937751770019531 44.24554443359375
-45.7985153198242188 -32.8290328979492188 -62.4078521728515625
30.9477977752685547 -3.36455059051513672 -83.1477584838867188
29.6259498596191406 51.0400009155273438 38.1331253051757812
-45.5985908508300781 -39.1647148132324219 -60.4930839538574219
28.4137516021728516 -37.6593437194824219 36.64385986328125
-44.1363410949707031 -20.9485855102539062 39.0188217163085938
-26.1297817230224609 45.4100494384765625 -101.749458312988281
37.2224769592285156 5.66465520858764648 -75.2083282470703125
20.3820343017578125 -21.3275146484375 57.1265373229980469
39.6471443176269531 41.8708076477050781 -57.3119964599609375
39.5840110778808594 22.0859394073486328 -37.3079910278320312
17.8058452606201172 73.0342330932617188 -16.3558750152587891
-28.4220046997070312 -26.3908596038818359 92.8531494140625
-43.8752059936523438 -41.4700851440429688 54.7432136535644531
34.1630287170410156 3.18699550628662109 45.360992431640625
-44.1321754455566406 7.99296092987060547 27.5286331176757812
-15.2480802536010742 50.1938285827636719 40.7885665893554688
-3.40685749053955078 61.5696220397949219 12.465327262878418
32.5400238037109375 -45.7501029968261719 -25.4111652374267578
-18.2830924987792969 56.5756340026855469 -4.30023050308227539
20.0188350677490234 59.4293251037597656 59.4128952026367188
35.3998146057128906 -39.3518562316894531 -16.0249824523925781
37.3665351867675781 29.9999656677246094 70.0277481079101562
46.1249427795410156 36.2084693908691406 23.3679370880126953
29.4700946807861328 52.8579063415527344 -28.8976860046386719
23.0913314819335938 -37.1386604309082031 46.5809860229492188
-47.5418205261230469 13.1177921295166016 -11.2513961791992188
13.1299123764038086 70.0757369995117188 -67.71533203125
-18.9602203369140625 43.2122611999511719 40.8489646911621094
36.8481025695800781 -17.3037166595458984 -13.9519166946411133
34.6350517272949219 41.2010459899902344 -73.5689468383789062
41.2868804931640625 30.5417690277099609 32.6176071166992188
10.0693044662475586 58.095001220703125 -78.1748809814453125
11.4482955932617188 23.4300098419189453 -84.075958251953125
23.0381984710693359 -6.64832210540771484 87.1443099975585938
-25.9891262054443359 17.0662593841552734 77.282928466796875
17.33380126953125 -56.4191741943359375 89.308502197265625
-30.0624351501464844 -62.9016990661621094 87.851348876953125
34.635986328125 0.526822745800018311 17.7314128875732422
22.0576114654541016 -44.17279052734375 1.10106182098388672
-49.382110595703125 -40.8396339416503906 16.9393119812011719
-42.367431640625 -25.6645030975341797 -67.0121688842773438
36.3235549926757812 55.0256500244140625 67.5686569213867188
-47.2175445556640625 -51.6955490112304688 -49.9421844482421875
44.6940269470214844 31.4071407318115234 22.5444831848144531
18.67724609375 69.8565444946289062 -6.66401052474975586
13.4330606460571289 71.2352447509765625 -2.57751369476318359
-38.7348899841308594 -6.36464929580688477 -69.816375732421875
43.9488067626953125 34.58648681640625 -21.1943511962890625
38.6479530334472656 17.4371929168701172 -62.1041221618652344
20.9638652801513672 52.0151290893554688 48.6188316345214844
-11.075596809387207 -13.5899343490600586 108.095954895019531
-19.217864990234375 -36.1032981872558594 103.928977966308594
-23.3525257110595703 9.81317234039306641 86.7640609741210938
39.7357139587402344 21.1373844146728516 -52.150238037109375
-34.3352508544921875 -38.8030204772949219 -81.6971359252929688
-42.4697647094726562 37.0663528442382812 -5.11356973648071289
37.6080055236816406 -2.29868268966674805 2.23031067848205566
23.7924976348876953 53.4245986938476562 0.370115906000137329
-17.7128086090087891 -58.5152473449707031 -30.762176513671875
-42.0400543212890625 47.9855384826660156 -21.8748321533203125
-28.1180992126464844 -33.337310791015625 95.917816162109375
16.2300052642822266 -62.381072998046875 71.76055908203125
41.8682022094726562 -13.6264533996582031 -17.8781318664550781
20.8686447143554688 55.262847900390625 56.7509346008300781
26.0305728912353516 31.7801322937011719 75.2787094116210938
-17.5672473907470703 56.9257278442382812 25.1737728118896484
-6.10746431350708008 57.7603912353515625 5.96270227432250977
15.8179311752319336 65.4822158813476562 55.2549209594726562
-35.7254676818847656 -45.1147193908691406 79.4658966064453125
4.04710245132446289 67.912078857421875 12.4267597198486328
-39.2457389831542969 -37.5011825561523438 -68.90228271484375
9.72725200653076172 43.2620086669921875 -96.560821533203125
-20.4945049285888672 -44.4045448303222656 -57.9426040649414062
29.0944271087646484 -27.8632335662841797 14.4616794586181641
20.4234409332275391 -50.7877006530761719 31.1888771057128906
34.39227294921875 -27.3695392608642578 -50.7854499816894531
-46.4088325500488281 -28.5243358612060547 33.7108573913574219
27.8529109954833984 51.0119400024414062 12.2952308654785156
-11.3619089126586914 -26.4148883819580078 107.204551696777344
-19.9903564453125 -57.0878868103027344 -37.9820327758789062
29.7632522583007812 -41.9333381652832031 -82.5651779174804688
-45.962646484375 -3.23468255996704102 19.0996742248535156
-15.4549264907836914 55.8472824096679688 7.5980677604675293
24.4969291687011719 -50.9367256164550781 -24.5358524322509766
-32.7408714294433594 61.16845703125 41.945465087890625
9.65760707855224609 -62.8512382507324219 51.7236328125
16.0881786346435547 -14.8357563018798828 85.9575424194335938
41.8095779418945312 32.8355789184570312 32.1032791137695312
-38.2455177307128906 -52.2822151184082031 74.52447509765625
-36.3250846862792969 -56.0435943603515625 78.3214111328125
-25.7331104278564453 -31.8441562652587891 100.895561218261719
-31.1417388916015625 25.112213134765625 48.1570625305175781
-12.4854879379272461 -2.16053628921508789 -109.749443054199219
-45.2786750793457031 -51.9328994750976562 -20.3751983642578125
37.3294219970703125 9.94191837310791016 -72.7034759521484375
-40.648773193359375 49.9540939331054688 3.02547717094421387
28.6873455047607422 19.8063201904296875 72.3520660400390625
30.5908946990966797 -6.28083896636962891 -84.1630783081054688
-47.7155189514160156 -14.4011020660400391 13.8248081207275391
-19.0160732269287109 30.830718994140625 99.9121246337890625
36.8122291564941406 -7.20007610321044922 -63.7115440368652344
-37.7125205993652344 -2.97879266738891602 47.3619880676269531
-39.2496109008789062 -22.7791652679443359 55.4580879211425781
31.3531990051269531 -21.2540569305419922 17.8205051422119141
24.1563720703125 58.5368194580078125 28.9021415710449219
28.6926593780517578 55.6068229675292969 -45.2044677734375
37.3033103942871094 -8.28007793426513672 -67.9436416625976562
42.9162635803222656 26.7961330413818359 -34.5662956237792969
-34.2816390991210938 -42.0351028442382812 -101.277717590332031
-17.4620819091796875 46.0691871643066406 -95.1489715576171875
-31.5624771118164062 -58.0019340515136719 -11.8550710678100586
27.9506702423095703 51.54241943359375 44.5604286193847656
-38.0876617431640625 53.3471107482910156 38.9638633728027344
-50.2447662353515625 -20.7749900817871094 -30.9344730377197266
2.11589717864990234 64.0361404418945312 3.30086350440979004
38.0869598388671875 -2.40975022315979004 0.683443307876586914
32.2914619445800781 46.2574234008789062 0.245170637965202332
-47.12579345703125 -33.0947227478027344 16.7355918884277344
-40.0643424987792969 -5.48167657852172852 38.4139251708984375
-40.1053352355957031 27.3755302429199219 -50.8587989807128906
-50.0257530212402344 -4.13145065307617188 -12.0786781311035156
-21.8059864044189453 50.3395614624023438 76.7679901123046875
13.8915109634399414 -18.9822235107421875 85.865875244140625
31.4483909606933594 27.2103652954101562 -80.9832000732421875
8.78378963470458984 -12.1095504760742188 -103.06298828125
37.039703369140625 -29.0000247955322266 -24.3991584777832031
-43.2984657287597656 27.6045818328857422 -27.2246112823486328
-12.4637441635131836 43.7168388366699219 24.0018959045410156
-42.7222900390625 47.0958366394042969 -0.533881247043609619
26.4158344268798828 -43.6242103576660156 86.202484130859375
36.9142112731933594 3.42734432220458984 9.00801563262939453
-0.53790968656539917 48.3577308654785156 -92.0370330810546875
-40.9755210876464844 17.4591770172119141 26.6937923431396484
6.55281352996826172 -23.9480342864990234 -100.872291564941406
-19.6431732177734375 -43.53955078125 -67.9046096801757812
-37.8612442016601562 -58.3434715270996094 -7.04739761352539062
39.7835960388183594 13.7234640121459961 -12.8832950592041016
-44.861602783203125 -18.9620742797851562 -51.371002197265625
-35.7386665344238281 58.32891845703125 26.3687953948974609
-46.991485595703125 -27.2590312957763672 23.1240806579589844
35.2739791870117188 -33.1980552673339844 -20.1464061737060547
-27.137451171875 29.1519756317138672 -95.7205581665039062
26.2917461395263672 -34.0297889709472656 16.4494438171386719
2.94662833213806152 -30.8006973266601562 -102.31060791015625
-9.91470909118652344 50.7522544860839844 -48.0559730529785156
14.1023321151733398 14.4516086578369141 86.862213134765625
-3.22836494445800781 59.0814971923828125 -16.0754756927490234
-16.1811370849609375 48.1274032592773438 -8.79125404357910156
39.5155754089355469 12.4656867980957031 61.3070945739746094
-43.5449371337890625 43.1154937744140625 -3.69956088066101074
38.9737014770507812 7.41267633438110352 49.0107574462890625
8.30056571960449219 65.8965530395507812 -15.7955894470214844
18.6719131469726562 -51.9475593566894531 -33.0971565246582031
27.4482460021972656 2.24799156188964844 73.8689651489257812
-22.4690608978271484 40.8425827026367188 -100.021675109863281
-24.15435791015625 -32.7164573669433594 104.687995910644531
6.80425739288330078 -63.5321197509765625 20.1742782592773438
-33.2785758972167969 -0.494142830371856689 -89.1850738525390625
-29.2983226776123047 18.95599365234375 63.0101165771484375
31.9215202331542969 -40.6284523010253906 23.7701282501220703
35.2689170837402344 -43.587432861328125 -36.6108055114746094
39.4049797058105469 17.7881050109863281 -59.7972984313964844
36.4904708862304688 -23.5563220977783203 -11.3951244354248047
17.4084548950195312 -60.9196586608886719 -22.3040351867675781
31.1757049560546875 46.6076431274414062 -45.9870414733886719
-35.0724411010742188 27.090087890625 -68.5952835083007812
-9.51140213012695312 -50.4673194885253906 -48.0942497253417969
-32.2455291748046875 43.588226318359375 -95.6241302490234375
-45.7023887634277344 18.8274936676025391 3.10486054420471191
-16.9908332824707031 37.8752098083496094 16.8830299377441406
46.0106620788574219 33.2480354309082031 0.696036994457244873
-29.6537666320800781 -50.3307838439941406 -57.2721138000488281
-21.8875751495361328 22.7664585113525391 -112.539482116699219
19.96661376953125 11.3080673217773438 -77.6722488403320312
44.9512138366699219 26.8567981719970703 -12.8966035842895508
33.7645339965820312 10.9481401443481445 68.3533706665039062
-21.5025196075439453 48.8192825317382812 80.9845504760742188
29.5074920654296875 0.396328568458557129 -85.4630355834960938
-44.9829139709472656 -57.2713966369628906 43.3311538696289062
-50.143524169921875 -40.6981468200683594 11.3276147842407227
29.8676719665527344 -43.8169822692871094 -68.0707778930664062
37.2926139831542969 48.5248260498046875 -36.5111351013183594
19.7873592376708984 -11.0984697341918945 -78.6285171508789062
40.4915504455566406 15.9086427688598633 -60.7201156616210938
-40.0651283264160156 52.4556655883789062 4.50596523284912109
25.1414279937744141 52.8894767761230469 20.0683670043945312
-22.0828266143798828 -41.6309967041015625 103.671119689941406
-34.479827880859375 52.2084426879882812 52.0123786926269531
16.7952022552490234 17.8718757629394531 -78.9735946655273438
-39.3471641540527344 -52.38861083984375 -53.5878944396972656
24.6531963348388672 -49.8862113952636719 21.8416328430175781
31.3819770812988281 37.2810173034667969 -82.2025375366210938
-38.5186119079589844 -38.3641891479492188 67.0037765502929688
-37.3308639526367188 -34.6915435791015625 64.5138168334960938
-18.4148941040039062 40.9675559997558594 38.5038604736328125
32.7986679077148438 -43.919647216796875 2.44487333297729492
29.0930347442626953 7.67039680480957031 72.3025054931640625
-48.8283309936523438 -16.1078090667724609 1.2727733850479126
28.1056442260742188 -20.5418682098388672 24.3981971740722656
23.7909221649169922 51.7949981689453125 -8.74906253814697266
-26.4637851715087891 -40.3653755187988281 98.9438018798828125
18.0698623657226562 -57.7881813049316406 -63.9133224487304688
-34.4390983581542969 25.8449668884277344 -68.0292510986328125
-18.6707935333251953 43.6842193603515625 -98.1378860473632812
25.8321914672851562 51.7618675231933594 17.9512500762939453
-47.9803962707519531 -29.2214908599853516 9.02064990997314453
-48.6915931701660156 6.00107955932617188 2.88442683219909668
36.7886009216308594 47.7390174865722656 -7.09551715850830078
-3.13579463958740234 -51.8199043273925781 96.1431121826171875
33.0235481262207031 19.4353446960449219 -74.07550048828125
22.6153125762939453 -3.94712471961975098 -77.9956588745117188
33.122894287109375 -3.07586574554443359 39.1616172790527344
-24.3151950836181641 -37.14520263671875 101.135490417480469
37.6795845031738281 -20.9335155487060547 -14.4094266891479492
-25.8982925415039062 51.6048202514648438 92.760009765625
8.00963783264160156 -42.2902488708496094 -95.571075439453125
-22.9647388458251953 60.7977218627929688 -26.6374530792236328
39.1278572082519531 -7.99948883056640625 -17.0154781341552734
-47.3821449279785156 -6.56333684921264648 9.17649173736572266
-43.3085556030273438 -56.0662765502929688 33.5314292907714844
-27.4380111694335938 18.0847091674804688 69.8825607299804688
38.697784423828125 -5.07628440856933594 -69.0829925537109375
-1.24691367149353027 48.5235557556152344 83.5483245849609375
-48.747650146484375 -44.1052284240722656 -28.9374275207519531
21.9573707580566406 -28.3574619293212891 -79.3749313354492188
21.4386558532714844 -57.0386543273925781 -58.8255805969238281
-13.2533149719238281 44.4582405090332031 103.877586364746094
-28.6000652313232422 32.3221969604492188 56.5452766418457031
-23.6708259582519531 -9.41401576995849609 -92.8419189453125
2.04870843887329102 63.9883804321289062 -16.2836971282958984
21.3626708984375 66.0708160400390625 62.1931610107421875
6.17576360702514648 -13.7324399948120117 104.047836303710938
-29.2674884796142578 27.0627403259277344 -86.6725311279296875
33.3446083068847656 45.231781005859375 1.64741611480712891
-12.9257373809814453 -58.7763900756835938 -28.0938301086425781
39.7384109497070312 -6.56956291198730469 -34.5534477233886719
-32.9894218444824219 62.7949600219726562 -18.7931632995605469
16.4298572540283203 10.057398796081543 -82.1628189086914062
33.6727256774902344 1.85544991493225098 38.4339332580566406
14.8627176284790039 -56.8013572692871094 -41.7615127563476562
28.709503173828125 8.13129711151123047 76.9657135009765625
-43.9349822998046875 44.7315025329589844 -26.6527557373046875
-45.2350883483886719 -57.1270751953125 35.7143020629882812
9.42197036743164062 -59.7095489501953125 74.3124542236328125
8.27156639099121094 -37.6778068542480469 -97.662628173828125
-35.8770637512207031 -6.26906299591064453 -79.6478805541992188
22.9089374542236328 -52.0583992004394531 -53.9576797485351562
-30.5836582183837891 22.6461887359619141 53.4452362060546875
13.3967428207397461 65.0653152465820312 93.0969772338867188
22.3655300140380859 -33.3149948120117188 -84.1376190185546875
-16.6618747711181641 47.4002647399902344 -7.53688764572143555
25.0640068054199219 -42.4447975158691406 85.5549240112304688
19.1785488128662109 67.3131256103515625 -52.4909934997558594
-24.7392215728759766 -62.2372398376464844 66.4124526977539062
29.4542388916015625 52.5896873474121094 19.6794509887695312
1.51966142654418945 60.9649848937988281 -41.6662788391113281
-42.8970680236816406 -56.5583534240722656 43.51214599609375
-25.2337417602539062 -3.10176587104797363 84.9174728393554688
9.54412364959716797 26.1307315826416016 -88.8841018676757812
-19.4625930786132812 58.9987449645996094 89.5406951904296875
20.2662887573242188 -58.4182929992675781 -59.4618606567382812
11.339634895324707 29.1422939300537109 -100.333419799804688
-20.7484226226806641 56.2905540466308594 37.4982948303222656
-31.5027980804443359 -35.6018638610839844 83.9653778076171875
21.9645767211914062 28.6094417572021484 -78.2553634643554688
30.4900531768798828 -37.1819725036621094 24.3158054351806641
39.6127967834472656 13.819793701171875 -31.3900070190429688
41.8923912048339844 35.4047813415527344 -33.8263397216796875
35.0530929565429688 31.5563278198242188 -74.3594589233398438
-18.7110252380371094 -49.6069602966308594 -48.0885009765625
24.2251377105712891 -52.7629241943359375 65.276885986328125
-25.0968666076660156 -52.3216705322265625 -51.6520843505859375
-17.1282577514648438 52.3789710998535156 -21.7114734649658203
4.26751089096069336 3.96865701675415039 -108.45294189453125
-36.915771484375 35.39727783203125 -68.477081298828125
21.3726825714111328 18.0215625762939453 82.3951187133789062
17.4345512390136719 73.6522445678710938 -19.059417724609375
-21.8913784027099609 8.71650123596191406 95.0951385498046875
20.6784477233886719 -19.2796154022216797 75.1221237182617188
-25.4446926116943359 15.3029575347900391 -108.208366394042969
39.7738685607910156 15.6150350570678711 60.1415748596191406
-24.0640888214111328 27.2988090515136719 90.1877899169921875
26.0181846618652344 -37.6440544128417969 32.7050437927246094
43.1678886413574219 33.0785484313964844 -25.6713981628417969
9.94277477264404297 -11.9513168334960938 -91.045623779296875
20.4065456390380859 -58.1708030700683594 73.4237136840820312
27.7532024383544922 -15.353611946105957 42.1820869445800781
20.6189994812011719 66.1630096435546875 23.4601802825927734
30.3199615478515625 -48.7262420654296875 49.9661750793457031
-17.3392200469970703 51.3823890686035156 39.1534996032714844
-33.3642654418945312 43.3257980346679688 -80.9136505126953125
27.1267108917236328 4.45709323883056641 80.5810317993164062
42.7469329833984375 -5.15581750869750977 -18.2074565887451172
27.6802253723144531 -43.7775688171386719 39.7996940612792969
-39.7695960998535156 -3.355224609375 45.0189361572265625
-40.9995574951171875 -60.3521766662597656 63.122314453125
10.9209318161010742 12.9318304061889648 91.9409103393554688
-34.4333915710449219 -35.9691390991210938 -101.751152038574219
18.9971561431884766 63.7080802917480469 -53.6923446655273438
-28.7078151702880859 -0.619628369808197021 78.1618576049804688
25.0570850372314453 -5.03639459609985352 83.383880615234375
-24.2848320007324219 -59.9927520751953125 -3.68616652488708496
-31.8418827056884766 63.4201545715332031 -20.1785049438476562
38.8486213684082031 -20.3338909149169922 -43.451995849609375
-7.84845495223999023 53.499237060546875 -6.10559463500976562
8.37186241149902344 -56.5660896301269531 85.6555252075195312
43.4200019836425781 21.1882305145263672 52.22064208984375
-32.0929069519042969 64.1363296508789062 -55.7194976806640625
31.3890247344970703 49.3070564270019531 68.3016128540039062
11.4867095947265625 -47.7222938537597656 95.33160400390625
-40.3808250427246094 42.4661674499511719 13.2234067916870117
33.11773681640625 49.5854301452636719 -25.9129753112792969
18.4643974304199219 5.80059194564819336 86.6129684448242188
33.589019775390625 50.6507911682128906 37.9727516174316406
-3.57944655418395996 52.4208755493164062 -81.290374755859375
-48.5294837951660156 -38.5838165283203125 -60.3149948120117188
-42.9783935546875 -3.30166816711425781 34.9404716491699219
11.1158332824707031 -44.3330917358398438 -96.1439590454101562
-3.2597200870513916 -42.9990158081054688 -81.1904067993164062
-6.34028768539428711 6.91895675659179688 104.960281372070312
40.65020751953125 25.1207180023193359 -34.1345596313476562
0.149672433733940125 3.00974297523498535 -109.934783935546875
-15.6353750228881836 44.0462074279785156 19.5957050323486328
30.9578685760498047 46.96160888671875 -8.80943679809570312
15.4105567932128906 -49.3530654907226562 87.3442153930664062
30.3054103851318359 -21.3556251525878906 -86.112701416015625
17.7031841278076172 62.3426971435546875 88.620391845703125
-40.1648597717285156 -2.0160834789276123 -57.0423736572265625
19.7725715637207031 -56.3175926208496094 70.9142990112304688
13.4176883697509766 67.8639602661132812 53.905853271484375
5.88015508651733398 -57.6366500854492188 -13.4835405349731445
25.5420970916748047 -35.2410659790039062 85.628143310546875
-47.6820182800292969 11.6306209564208984 5.72670125961303711
29.9325599670410156 19.8802700042724609 76.127227783203125
15.6794939041137695 64.952880859375 56.7862663269042969
-43.2080574035644531 -6.05452632904052734 -45.5065422058105469
-23.2042884826660156 -36.9746513366699219 -82.2765960693359375
12.5031671524047852 71.5385513305664062 -50.594451904296875
37.547332763671875 4.55549383163452148 -48.6852874755859375
23.5544147491455078 -35.3870811462402344 38.1925392150878906
-48.9869880676269531 -42.8933029174804688 -21.8191032409667969
18.7662887573242188 67.6367416381835938 -27.7829341888427734
38.2493972778320312 22.8602390289306641 62.9567756652832031
-13.2451744079589844 -63.3272018432617188 10.6765842437744141
32.7451362609863281 45.8211441040039062 -20.9662075042724609
-13.2066240310668945 -56.803985595703125 56.8597869873046875
-47.5962104797363281 10.1369733810424805 -6.2094874382019043
11.591975212097168 -57.9034919738769531 -36.6048812866210938
-37.017578125 7.29274892807006836 53.5356407165527344
-36.3167648315429688 26.3236675262451172 -58.7086906433105469
-5.87681722640991211 47.7011604309082031 -17.6832103729248047
-51.0303726196289062 -32.2705268859863281 -36.3842506408691406
-18.7489223480224609 36.6779136657714844 -106.71337890625
-5.95891141891479492 10.4153985977172852 105.395042419433594
-36.9203071594238281 6.51616191864013672 54.0448493957519531
-36.6880874633789062 37.6039009094238281 -73.3143692016601562
-36.9308357238769531 57.4907188415527344 31.9063987731933594
30.6891841888427734 -7.44056320190429688 42.986083984375
38.1799278259277344 17.7222442626953125 5.33446979522705078
17.6613121032714844 70.3816299438476562 -21.2314510345458984
-43.215301513671875 -12.7509708404541016 32.68463134765625
0.654747962951660156 -62.4125404357910156 34.7565841674804688
-39.0395088195800781 55.4829597473144531 15.2551002502441406
28.5625209808349609 32.6165428161621094 69.8929595947265625
36.4604530334472656 37.6013145446777344 72.305633544921875
-8.48834228515625 -54.5335807800292969 76.9023590087890625
-13.4193172454833984 50.5211181640625 -73.5725479125976562
44.5698928833007812 42.0503501892089844 30.0978374481201172
-37.483184814453125 35.3386001586914062 16.4381847381591797
-11.9953298568725586 -48.5020561218261719 99.7780532836914062
-47.6510848999023438 -46.8679122924804688 -2.87975788116455078
42.0254478454589844 17.6936855316162109 37.4255180358886719
5.2037501335144043 -55.9685783386230469 -54.9492530822753906
36.5797538757324219 -40.8400077819824219 -29.767333984375
23.2899742126464844 -15.9577703475952148 -81.7327194213867188
-40.0218429565429688 39.4920845031738281 16.6291999816894531
34.9653968811035156 -41.7647743225097656 -12.2819004058837891
33.7649269104003906 45.4625282287597656 14.8445720672607422
-12.6501169204711914 -3.52417874336242676 104.520713806152344
40.7667503356933594 44.136474609375 50.5866622924804688
-49.604339599609375 -42.1986007690429688 15.2554712295532227
-1.48362636566162109 63.1084976196289062 9.62956714630126953
18.2276096343994141 60.1389083862304688 -54.54656982421875
-9.63658523559570312 -56.7527694702148438 -11.6841716766357422
-17.0457668304443359 -22.3178215026855469 -101.400375366210938
-20.0783672332763672 -60.4495048522949219 70.009185791015625
23.6129493713378906 52.72857666015625 -60.2290153503417969
-18.2086334228515625 56.4843788146972656 32.5517196655273438
40.2396316528320312 35.7055282592773438 48.9010734558105469
23.3721046447753906 60.2951927185058594 34.8885116577148438
23.8417987823486328 40.8268470764160156 -79.884674072265625
9.02208995819091797 -56.1898918151855469 91.9873886108398438
-0.102845542132854462 51.6676712036132812 -83.4706878662109375
-0.289710313081741333 -31.4987430572509766 105.602531433105469
-50.9011116027832031 -25.6636714935302734 -26.6790103912353516
-46.0381584167480469 -50.0604896545410156 -22.3910732269287109
31.8544731140136719 23.2025699615478516 -77.60296630859375
40.0236015319824219 7.90105342864990234 -13.1871070861816406
-33.282684326171875 58.8569602966308594 57.60833740234375
25.7784614562988281 55.3700599670410156 -48.1075592041015625
14.5123224258422852 69.7815017700195312 60.165313720703125
-36.5435295104980469 26.4921836853027344 39.4934501647949219
-32.2134132385253906 64.2418060302734375 -38.7323226928710938
-16.7784652709960938 22.3740158081054688 -112.223503112792969
27.8949241638183594 -34.3110885620117188 -86.5483322143554688
21.8792362213134766 -33.2487411499023438 56.6510772705078125
-16.0188465118408203 -50.9698867797851562 -46.2156295776367188
12.4291887283325195 -57.6924400329589844 93.740631103515625
-27.8792724609375 -62.8493461608886719 36.8224563598632812
22.3572406768798828 -2.86308884620666504 -82.2925491333007812
