ply
format ascii 1.0
element vertex 788
comment vertices
property float x
property float y
property float z
end_header
-34.6337127685546875 -47.6215629577636719 48.6184654235839844
-26.6457977294921875 -24.4487056732177734 91.576202392578125
-36.6220054626464844 -30.6633586883544922 -43.8321685791015625
37.876861572265625 41.4675636291503906 81.4291839599609375
-33.4291877746582031 -55.3867607116699219 49.109466552734375
40.543487548828125 -7.27802801132202148 -5.45233821868896484
45.7841033935546875 5.43013525009155273 -39.3421592712402344
-26.943115234375 -5.13021039962768555 93.9893722534179688
37.2926216125488281 47.0961456298828125 15.1875896453857422
-36.9777183532714844 -29.6724872589111328 -1.66253817081451416
37.8324432373046875 -2.24033117294311523 -30.3008384704589844
40.4447288513183594 37.5387802124023438 40.0590324401855469
-7.63424396514892578 24.0863723754882812 82.003662109375
13.1413183212280273 63.9229240417480469 -28.5864467620849609
-24.7850303649902344 44.7343063354492188 85.96527099609375
-35.7887611389160156 -42.1913719177246094 -33.3118705749511719
-26.4078311920166016 -49.2666816711425781 12.2515535354614258
29.5573272705078125 -52.1234970092773438 -71.4900588989257812
-24.3257083892822266 -31.6609573364257812 -80.1171875
43.1629066467285156 15.9093818664550781 2.62062406539916992
41.3258514404296875 -11.4107122421264648 -26.9978599548339844
45.6373405456542969 8.77972602844238281 -62.6271171569824219
34.1826629638671875 -29.82684326171875 36.2869071960449219
39.7042465209960938 28.9228191375732422 92.761566162109375
-36.8901138305664062 -38.7815437316894531 70.2728347778320312
-14.0333290100097656 -44.4588699340820312 26.3055686950683594
-35.304962158203125 1.3737490177154541 7.53612995147705078
-3.65432429313659668 -49.6991691589355469 0.131479769945144653
-27.9722156524658203 39.8864288330078125 -64.7689437866210938
-24.5129261016845703 44.9147071838378906 -5.10534524917602539
34.1735038757324219 -25.4234066009521484 46.4718246459960938
41.401641845703125 24.2344856262207031 85.1427688598632812
-2.5289311408996582 -51.9362068176269531 42.2045707702636719
36.3076171875 49.1473426818847656 -12.9467411041259766
-14.0863208770751953 56.8809700012207031 -70.0295257568359375
44.7650299072265625 14.1783380508422852 -63.8671646118164062
26.8453311920166016 -32.0648727416992188 88.7364425659179688
47.4004440307617188 -6.26405525207519531 -73.1937255859375
-20.8451881408691406 -45.6917953491210938 40.2390785217285156
-12.9824562072753906 -44.4390983581542969 2.98237180709838867
-5.10040473937988281 20.0570564270019531 -78.1467819213867188
25.9037036895751953 -4.45330619812011719 89.2947769165039062
-22.6539955139160156 -46.2441596984863281 66.843963623046875
-18.670623779296875 18.1415367126464844 -76.5126800537109375
-33.5264167785644531 5.95502948760986328 69.2639236450195312
7.93061923980712891 63.7632331848144531 46.3355751037597656
38.9359664916992188 -3.74439239501953125 1.92077219486236572
1.72511386871337891 58.7100830078125 -82.3266372680664062
-18.2953243255615234 -45.134063720703125 -30.6075325012207031
-22.8426246643066406 49.3327217102050781 31.764892578125
35.0337905883789062 -14.9725408554077148 -19.6144771575927734
29.6640415191650391 -54.8830413818359375 5.38915538787841797
10.9454116821289062 64.5927047729492188 -86.5255355834960938
-5.06806230545043945 64.0862045288085938 92.9680328369140625
34.8770599365234375 -26.8038482666015625 -31.9294834136962891
-2.9670555591583252 -25.2618217468261719 93.88800048828125
-29.4920578002929688 33.7169723510742188 -68.3331985473632812
36.2605171203613281 -10.7326669692993164 -40.5485191345214844
-31.1870403289794922 29.9678630828857422 27.3173580169677734
-4.31427097320556641 12.7598094940185547 -79.7293701171875
34.9549484252929688 -23.4815483093261719 -66.6978683471679688
35.2315521240234375 -7.16056299209594727 -90.5595016479492188
40.1436004638671875 39.0875129699707031 33.12139892578125
19.0377101898193359 -30.5975303649902344 -77.5897979736328125
-33.325347900390625 -52.7567672729492188 3.44341659545898438
12.7891168594360352 62.442596435546875 82.4711990356445312
-36.7050056457519531 -37.22845458984375 78.7192611694335938
-30.7813892364501953 -43.6813163757324219 94.0683135986328125
26.8348598480224609 58.9605560302734375 55.4868049621582031
14.949488639831543 59.7219657897949219 -79.5427780151367188
32.8719558715820312 53.2727165222167969 55.1263160705566406
-26.54412841796875 -47.458953857421875 81.23388671875
-12.8423194885253906 60.5018692016601562 22.1839141845703125
-2.19176101684570312 35.4877967834472656 -85.8891372680664062
43.3766746520996094 19.6565876007080078 14.1734333038330078
45.1533279418945312 -5.29390907287597656 75.1138687133789062
27.5885143280029297 -19.5989227294921875 90.105621337890625
0.782685935497283936 65.2531356811523438 -83.6581649780273438
34.9114608764648438 -25.2737255096435547 -22.2777023315429688
16.3898258209228516 -45.4077301025390625 34.0503807067871094
28.5317592620849609 59.044891357421875 -69.2602462768554688
-28.9204425811767578 40.7020149230957031 38.5236358642578125
33.4680061340332031 -49.1898460388183594 44.2995986938476562
34.1155624389648438 -48.0316276550292969 -34.32763671875
33.4518661499023438 -48.8612136840820312 49.0710258483886719
-20.4945163726806641 20.5020828247070312 -79.3231124877929688
39.5479621887207031 -7.02864265441894531 16.9531669616699219
34.19354248046875 -46.0356903076171875 -35.0404167175292969
28.2203636169433594 -52.0660324096679688 -39.4709053039550781
-2.71372270584106445 11.1256027221679688 -84.7370834350585938
29.7288284301757812 56.4778060913085938 32.4517364501953125
-31.9939460754394531 24.3628578186035156 -23.7675838470458984
-11.5348472595214844 11.2003488540649414 -72.3232879638671875
2.21380496025085449 -52.6532707214355469 -86.1174774169921875
-18.621734619140625 56.2310638427734375 47.0943031311035156
12.912816047668457 32.4823570251464844 81.1284713745117188
-28.1701927185058594 -51.3296394348144531 -12.869938850402832
-20.6159191131591797 54.9829368591308594 -88.011688232421875
-36.8455543518066406 -32.6489181518554688 14.099879264831543
-31.5151424407958984 -51.7469100952148438 61.2921066284179688
-35.9610824584960938 -23.3183803558349609 70.3554611206054688
-36.8413276672363281 -23.5907459259033203 -16.8236007690429688
-30.5426349639892578 7.59700775146484375 87.7639083862304688
-31.1141777038574219 31.6641082763671875 -18.2241802215576172
-19.4795188903808594 54.6143608093261719 7.33200883865356445
40.1627464294433594 -7.04891061782836914 94.4353866577148438
39.6667900085449219 -4.33789968490600586 35.107330322265625
26.7498035430908203 -51.0405197143554688 11.1563215255737305
33.4809226989746094 -49.0233726501464844 40.5661659240722656
6.14489316940307617 63.8089485168457031 74.2727127075195312
2.47796297073364258 -51.2849349975585938 -0.442393213510513306
34.973358154296875 -16.2890052795410156 -36.1398239135742188
2.06110715866088867 -51.0475273132324219 -47.3956298828125
37.9371681213378906 41.0504913330078125 83.0803375244140625
-31.2918624877929688 1.39938044548034668 85.6404495239257812
-29.0086631774902344 -15.2589693069458008 -88.86383056640625
17.2768077850341797 63.0506134033203125 5.864776611328125
16.3064994812011719 57.8696861267089844 -86.2828369140625
33.5457229614257812 -47.1360397338867188 44.4689903259277344
34.1194877624511719 -27.4298248291015625 65.8776321411132812
-35.3060646057128906 -6.86374473571777344 -48.5539665222167969
-32.9599685668945312 17.1390609741210938 -26.9325714111328125
38.2721366882324219 -8.32669925689697266 -76.1469879150390625
3.04909467697143555 64.690399169921875 91.3095550537109375
42.006011962890625 2.53152585029602051 96.3438796997070312
44.8924484252929688 2.63938117027282715 29.8469562530517578
-36.4657363891601562 -27.6206226348876953 -51.7804679870605469
34.1853179931640625 -28.8847064971923828 38.0275001525878906
25.2216720581054688 -50.2142181396484375 80.017578125
-28.6991653442382812 -39.7910537719726562 91.0108261108398438
-36.3475570678710938 -53.607208251953125 84.8591461181640625
38.9026145935058594 35.8126449584960938 89.0170440673828125
26.0755367279052734 -49.9873275756835938 -30.1965618133544922
32.4966316223144531 -59.3776893615722656 2.8731083869934082
21.0010414123535156 62.1892166137695312 66.2975082397460938
36.550567626953125 48.4287376403808594 16.4355964660644531
-8.23444366455078125 7.05807256698608398 -73.9443435668945312
-8.78373146057128906 3.10502243041992188 -73.8912277221679688
-35.1772651672363281 -3.72458553314208984 -43.3871116638183594
21.9887924194335938 -47.133209228515625 -36.9785041809082031
-36.6546669006347656 -36.797882080078125 -52.825592041015625
-32.1676063537597656 20.2194499969482422 -40.8725624084472656
34.8508186340332031 -53.8239860534667969 -85.1528549194335938
-28.7462100982666016 -34.6253623962402344 92.813232421875
-28.4731273651123047 37.5985107421875 -63.8978805541992188
13.0933675765991211 33.7582855224609375 81.043182373046875
43.3894195556640625 22.8410110473632812 -48.6206207275390625
12.5076446533203125 8.17072010040283203 82.406829833984375
5.50189447402954102 64.290313720703125 33.4885978698730469
37.7912483215332031 43.7426681518554688 65.6647109985351562
42.6676902770996094 27.7044696807861328 -44.4638214111328125
34.94036865234375 -19.9351596832275391 -63.1202545166015625
-2.48391032218933105 -52.3476371765136719 68.8844070434570312
-20.7384395599365234 19.0159721374511719 -79.4310226440429688
-20.9490013122558594 -45.9261207580566406 -5.0586857795715332
-34.8881416320800781 4.42649555206298828 17.6950874328613281
-34.7953681945800781 4.10060405731201172 -23.0426807403564453
44.9912872314453125 -0.519037187099456787 38.4829750061035156
17.5008144378662109 -45.4383735656738281 15.0564050674438477
34.1186561584472656 -56.985107421875 -56.5133209228515625
-35.3911972045898438 -49.9574699401855469 76.875946044921875
-33.7013740539550781 -56.8088531494140625 -83.2327423095703125
19.4446907043457031 35.702484130859375 84.4537811279296875
-31.9676666259765625 26.0350666046142578 12.370060920715332
6.38733625411987305 -7.6436772346496582 85.7177505493164062
17.3936634063720703 -38.7619552612304688 -77.7196884155273438
-24.0161724090576172 46.4207077026367188 60.7697944641113281
35.3532638549804688 -19.6403694152832031 -85.3162078857421875
20.5570049285888672 -46.5676841735839844 -0.717232227325439453
35.8331184387207031 50.0446243286132812 -66.4979629516601562
26.7575550079345703 -51.27484130859375 69.6569137573242188
9.01092243194580078 37.8897972106933594 -76.4482955932617188
30.2426013946533203 57.2344436645507812 -84.8856430053710938
-33.0769309997558594 11.948481559753418 59.0691795349121094
-36.598846435546875 -30.3418312072753906 -38.2050209045410156
30.9034233093261719 -57.9788169860839844 -76.1887741088867188
-31.6367893218994141 24.3427810668945312 41.8002243041992188
-11.623082160949707 -44.976226806640625 39.5152435302734375
-34.1419830322265625 7.85836601257324219 35.6330108642578125
-18.0824489593505859 30.5119228363037109 85.68096923828125
19.2004013061523438 62.2423553466796875 49.92791748046875
10.7760772705078125 -23.7448596954345703 84.464080810546875
-34.0625762939453125 -38.3060722351074219 -86.8372039794921875
33.9953575134277344 -35.9620933532714844 33.8860206604003906
19.9909763336181641 1.93468761444091797 84.537628173828125
8.58489513397216797 64.54119873046875 -8.27481269836425781
-26.478515625 -49.3342094421386719 -44.398712158203125
10.4488859176635742 64.1175460815429688 77.6768951416015625
-30.0589847564697266 -13.7260522842407227 98.4506149291992188
-23.7250556945800781 48.9819908142089844 -68.95684814453125
-9.75949287414550781 62.0350685119628906 8.22065830230712891
33.6214752197265625 -45.5943756103515625 32.5260810852050781
21.6105728149414062 61.5285415649414062 10.6889772415161133
-2.76489758491516113 -4.96698856353759766 -82.5474395751953125
-33.803466796875 10.1849050521850586 -33.7605247497558594
27.8767242431640625 24.121978759765625 -87.3580398559570312
34.2517967224121094 -17.3854217529296875 46.4983787536621094
-11.3629865646362305 62.0673065185546875 63.4850044250488281
-9.91252613067626953 61.9057502746582031 -30.5492687225341797
-36.5952186584472656 -28.8582744598388672 -42.4173965454101562
-24.9628486633300781 6.48479318618774414 93.4304885864257812
25.4694786071777344 -50.5436592102050781 -77.486846923828125
-22.7170047760009766 49.5857009887695312 29.6292610168457031
35.578094482421875 29.6129436492919922 94.1090316772460938
-29.2888832092285156 36.6202392578125 54.8058815002441406
43.1346702575683594 -2.05124473571777344 -87.8331222534179688
-19.5988731384277344 55.5026931762695312 61.6286697387695312
12.2430620193481445 59.9437332153320312 -74.4693222045898438
28.6856842041015625 -0.266748160123825073 93.2063217163085938
-34.88458251953125 5.1826319694519043 5.64155483245849609
-36.8552055358886719 -20.5929145812988281 -14.1044502258300781
42.0917243957519531 28.8061294555664062 -68.4317703247070312
27.8858699798583984 -52.2493553161621094 7.50838804244995117
-36.2855949401855469 -12.9939899444580078 29.5323352813720703
-26.0255775451660156 -48.9845542907714844 -68.8248138427734375
-7.17483234405517578 62.6580581665039062 -43.9958915710449219
37.7993965148925781 -9.77930641174316406 -67.3915863037109375
-30.5364837646484375 37.0685234069824219 5.21310758590698242
-36.072784423828125 -40.939483642578125 -34.3011817932128906
-35.72021484375 -44.4071197509765625 -49.1043663024902344
34.0961685180664062 -28.9117603302001953 50.9058456420898438
2.50076913833618164 -52.3977165222167969 -86.5705337524414062
-36.9005241394042969 -29.6569671630859375 22.384796142578125
24.2462253570556641 -47.4546127319335938 -78.53509521484375
34.8309440612792969 -50.0953521728515625 89.5341644287109375
41.3557891845703125 -13.0618457794189453 39.4915199279785156
-34.9090652465820312 2.77273702621459961 -25.6054019927978516
30.4865741729736328 -54.4407691955566406 -63.4282379150390625
8.87249565124511719 61.3821563720703125 75.7947616577148438
-1.93746280670166016 47.5409469604492188 -86.7565231323242188
15.0880012512207031 8.57542037963867188 82.3583755493164062
-7.71519804000854492 -26.3446578979492188 -76.3791351318359375
-29.0130615234375 16.8595333099365234 -87.300872802734375
-25.5079326629638672 6.51260232925415039 94.2238693237304688
-34.1160888671875 -53.5264129638671875 47.2693634033203125
32.6061363220214844 -59.1458854675292969 31.1945056915283203
40.4321937561035156 -13.3007774353027344 58.8125953674316406
-31.067535400390625 28.5499610900878906 -37.1620140075683594
-29.7444877624511719 32.6122512817382812 62.3551788330078125
29.7552280426025391 -53.8957557678222656 -30.9501686096191406
-36.7439918518066406 -29.8716526031494141 48.644073486328125
-9.82466506958007812 61.99005126953125 3.39457964897155762
40.270660400390625 -12.9217300415039062 43.4743499755859375
29.6747779846191406 -56.9311447143554688 -7.34812736511230469
34.3518638610839844 -47.0630569458007812 -52.435791015625
40.1251564025878906 -5.40673112869262695 40.4938468933105469
36.0799751281738281 40.21014404296875 96.8413162231445312
29.5292930603027344 37.3060150146484375 -90.3638381958007812
-34.2827568054199219 9.699859619140625 9.53594017028808594
-14.5230588912963867 -19.9549312591552734 82.2520217895507812
-32.8831558227539062 17.9732589721679688 -24.9363517761230469
46.7429351806640625 -4.89926815032958984 -32.3962211608886719
-31.2414436340332031 31.5187911987304688 11.5414018630981445
-33.7375144958496094 -31.7496604919433594 -82.9135284423828125
45.3410491943359375 -5.72902727127075195 84.4620285034179688
26.8507595062255859 58.9108505249023438 -1.09414422512054443
42.1228256225585938 27.2764434814453125 7.65176486968994141
-4.46065139770507812 35.3093414306640625 -79.3788223266601562
1.345908522605896 -51.3128547668457031 -25.5148506164550781
-35.5665245056152344 -56.43572998046875 -77.501190185546875
-21.4292354583740234 -47.5423736572265625 -75.5853652954101562
35.1744384765625 -53.9247016906738281 -87.401153564453125
-36.0487213134765625 -20.4416160583496094 61.3079490661621094
35.5358657836914062 -17.3341312408447266 -91.0681610107421875
26.8758125305175781 -50.7101211547851562 -32.9702606201171875
9.03695869445800781 -46.7437057495117188 58.8759346008300781
-18.8290271759033203 35.5927047729492188 88.0777664184570312
13.8324909210205078 -44.8768196105957031 14.6763629913330078
24.8745212554931641 -41.5820846557617188 -78.9111328125
34.1884880065917969 -24.5260524749755859 45.7062873840332031
-32.1304855346679688 -14.7445058822631836 97.6459426879882812
33.6791419982910156 -54.5508537292480469 -24.7580890655517578
-36.0204200744628906 -13.2973775863647461 46.5389976501464844
-32.460723876953125 -20.0505523681640625 92.8685760498046875
-15.831395149230957 59.6912918090820312 75.1811904907226562
-30.1379585266113281 -48.8121986389160156 86.338775634765625
39.8370285034179688 40.2999076843261719 2.78192973136901855
-36.7794113159179688 -31.0229949951171875 -12.7973213195800781
25.2808990478515625 10.4647598266601562 89.4943313598632812
32.73028564453125 53.4412612915039062 38.1770095825195312
10.0512971878051758 -45.7408523559570312 -37.8133392333984375
34.3123321533203125 -59.18951416015625 -71.4932403564453125
42.425384521484375 28.2882900238037109 -19.0343017578125
44.8629951477050781 0.244549915194511414 55.1151695251464844
-5.91248989105224609 -46.3254470825195312 -78.5867538452148438
30.816741943359375 55.5633621215820312 24.1440696716308594
28.7379207611083984 -53.4482421875 56.5135345458984375
34.4540519714355469 -27.7873344421386719 19.15667724609375
46.6582870483398438 -11.7357025146484375 -43.6081428527832031
-29.6876678466796875 -53.5625801086425781 -12.0344486236572266
-3.88313722610473633 -40.1583175659179688 91.5330047607421875
-35.389678955078125 -2.06346535682678223 33.2878608703613281
6.95178604125976562 -47.4435691833496094 50.6027069091796875
3.54349613189697266 62.85955810546875 -88.94744873046875
45.3417892456054688 -6.19181299209594727 25.3294334411621094
14.7801933288574219 -45.2975120544433594 38.1751022338867188
-35.8608474731445312 -3.73331379890441895 -0.300005555152893066
-0.965639770030975342 -50.8265228271484375 -30.7947044372558594
-7.56466817855834961 -16.7694053649902344 85.2876358032226562
1.96157276630401611 51.03973388671875 -83.9775161743164062
-36.4364013671875 -36.9304962158203125 -20.3835124969482422
-19.5252666473388672 -44.3634262084960938 85.7929458618164062
41.4937667846679688 28.1342258453369141 70.0064544677734375
37.5802459716796875 46.6246490478515625 4.38628864288330078
26.1326808929443359 21.0398139953613281 92.738067626953125
-0.346915930509567261 -50.6877403259277344 -47.3269462585449219
-32.3745536804199219 15.8925962448120117 -58.6714363098144531
47.0591049194335938 -11.4041996002197266 -76.3828277587890625
34.4861259460449219 -14.7895021438598633 26.4155712127685547
15.1899929046630859 30.3513088226318359 81.5348739624023438
34.3178939819335938 -32.8048667907714844 76.6552200317382812
-36.6383323669433594 -34.8150787353515625 -58.84814453125
-29.1090927124023438 35.8611640930175781 63.6673011779785156
30.4646892547607422 55.6003799438476562 76.1360626220703125
19.0364398956298828 -45.2091865539550781 86.4257278442382812
-34.4738807678222656 6.79955053329467773 24.9595756530761719
1.61724722385406494 19.4384536743164062 -86.0274124145507812
32.5984687805175781 -59.2834014892578125 -71.2425079345703125
44.9678497314453125 -8.55705165863037109 34.6284523010253906
-29.3547878265380859 18.7163944244384766 -82.547943115234375
1.34102916717529297 -51.2788925170898438 -38.728424072265625
41.9681854248046875 -6.75156497955322266 -55.4302406311035156
-19.8247394561767578 55.17340087890625 -57.7732009887695312
35.2365074157714844 -39.1741218566894531 95.133636474609375
15.087040901184082 62.2609214782714844 84.5825729370117188
43.3009033203125 21.7177028656005859 -74.0320205688476562
-36.6368789672851562 -27.5972118377685547 52.9227943420410156
12.0081691741943359 47.9344749450683594 -74.2644882202148438
35.2981147766113281 -19.2171554565429688 -81.6452865600585938
33.6243972778320312 -55.1579856872558594 75.860382080078125
-33.9761734008789062 -54.4404830932617188 -54.2178001403808594
-31.0933170318603516 31.0745220184326172 25.0577945709228516
-8.41602516174316406 51.5064163208007812 -70.7852706909179688
44.3348846435546875 7.98817968368530273 65.7030868530273438
36.8390655517578125 -4.12735939025878906 -61.6425743103027344
31.7711639404296875 -13.2019062042236328 95.4717483520507812
35.0273971557617188 -56.7140960693359375 -85.0562057495117188
-25.9176578521728516 40.0496673583984375 -86.2366485595703125
37.168121337890625 21.1118717193603516 92.2929840087890625
34.6108818054199219 -26.5990352630615234 12.7879524230957031
28.6627788543701172 9.50819587707519531 -86.5218658447265625
28.2109546661376953 -53.0131187438964844 48.077301025390625
-35.9229965209960938 -7.19817972183227539 -21.6097202301025391
-29.2548389434814453 40.62109375 26.7149372100830078
39.0488395690917969 42.9010848999023438 -58.5196113586425781
-22.8056659698486328 -6.26938581466674805 88.1895751953125
-26.8071403503417969 37.5685539245605469 -80.9051437377929688
18.22210693359375 12.9543972015380859 83.4711380004882812
0.720372200012207031 60.0866813659667969 -75.1379318237304688
6.24495840072631836 -39.2588882446289062 86.761260986328125
-29.1136035919189453 15.1118011474609375 -87.9603042602539062
44.3986282348632812 16.3454246520996094 -60.3745841979980469
42.3681221008300781 29.3941001892089844 -46.0286521911621094
-32.3535690307617188 -56.5076866149902344 -22.1737518310546875
-21.7882804870605469 47.2423629760742188 98.3416748046875
-3.01254725456237793 62.2156753540039062 -68.6148605346679688
16.4261627197265625 54.3965835571289062 -69.1540069580078125
29.9936943054199219 -55.264404296875 64.514984130859375
-25.8396186828613281 -24.0889339447021484 90.8767776489257812
-0.150851577520370483 -29.7669467926025391 -89.56610107421875
-7.00676822662353516 62.4924888610839844 -57.126922607421875
6.71230316162109375 -24.0055828094482422 -81.3135452270507812
-36.3843536376953125 -40.8555831909179688 78.402679443359375
26.082855224609375 -49.6755638122558594 -48.7489089965820312
-1.76227319240570068 15.260685920715332 93.4855880737304688
-10.4517040252685547 31.0847187042236328 79.3167648315429688
-12.0894298553466797 32.9032363891601562 79.0840682983398438
-36.8603057861328125 -38.7204055786132812 51.6421966552734375
34.7352333068847656 14.0222187042236328 91.8889007568359375
12.4389181137084961 43.5190162658691406 80.759490966796875
44.0251197814941406 18.529144287109375 -29.1756420135498047
-36.0895347595214844 -42.3787384033203125 30.3161754608154297
46.8684959411621094 -11.5671758651733398 -73.8049545288085938
7.7903904914855957 51.9681854248046875 -74.6467208862304688
26.2517738342285156 58.8627777099609375 91.53076171875
34.2423324584960938 -18.9459590911865234 51.28741455078125
7.83000707626342773 36.1352348327636719 83.577117919921875
29.4039115905761719 -56.2541313171386719 47.5603981018066406
-36.1456947326660156 -43.5322761535644531 59.5030632019042969
-0.893295824527740479 -54.9791221618652344 -5.00109624862670898
32.7272262573242188 -57.2806015014648438 29.8334293365478516
32.3558616638183594 -59.1553230285644531 72.3598251342773438
6.46282196044921875 15.44781494140625 85.3435516357421875
24.267181396484375 10.6897821426391602 88.2215499877929688
-31.4888248443603516 23.4417018890380859 -47.7916183471679688
2.85890913009643555 64.0456695556640625 42.5009956359863281
-12.7142820358276367 -44.8106880187988281 -45.5709609985351562
45.1236190795898438 -12.4018754959106445 75.253265380859375
-33.9419097900390625 12.1463327407836914 9.01745700836181641
37.5965156555175781 -11.1558990478515625 -13.8671121597290039
-21.8784370422363281 41.1637039184570312 -88.0020523071289062
34.9388847351074219 -24.5042495727539062 -4.12948369979858398
-32.6351852416992188 -13.6207952499389648 -78.6593856811523438
38.7908592224121094 -1.1909940242767334 -82.2725830078125
-33.8273200988769531 -45.814239501953125 -21.8114585876464844
43.3027496337890625 22.8880329132080078 -20.3996353149414062
39.0657958984375 -6.581451416015625 4.98423290252685547
8.0419464111328125 -22.4650192260742188 85.1719741821289062
45.0906906127929688 6.31189918518066406 -6.99345541000366211
33.4285392761230469 -57.3229560852050781 -21.5642280578613281
-10.7636632919311523 20.88671875 80.1991424560546875
18.2543926239013672 -33.90313720703125 -77.3549041748046875
20.5416431427001953 62.3434562683105469 -33.3242607116699219
-37.068756103515625 -20.9486408233642578 14.3242340087890625
-33.591583251953125 -50.1953239440917969 -25.5084819793701172
14.6063613891601562 63.3845977783203125 -47.1920013427734375
34.8875007629394531 -13.9958620071411133 -1.21918416023254395
35.0366935729980469 -13.6574201583862305 -55.688873291015625
34.3599815368652344 -35.5433120727539062 6.61011886596679688
-1.1438438892364502 -55.3699150085449219 58.0303955078125
-8.65036201477050781 -45.6723098754882812 -45.3645401000976562
45.993621826171875 -6.72903156280517578 0.570279181003570557
-34.0767784118652344 11.2889385223388672 3.15382695198059082
-30.6674461364746094 33.9757232666015625 -27.0350360870361328
-36.0049667358398438 -11.4505367279052734 41.523223876953125
33.3629150390625 -50.7242813110351562 49.5825996398925781
34.3050460815429688 13.1302242279052734 93.0007095336914062
-32.8635978698730469 -14.9765472412109375 83.5991363525390625
-26.0434894561767578 -49.2065773010253906 -10.0022182464599609
-22.6222190856933594 50.8853530883789062 -58.8446121215820312
-30.6456031799316406 0.355998724699020386 93.249053955078125
27.2825927734375 -49.5795173645019531 -69.6928939819335938
35.2462806701660156 46.579254150390625 95.1034393310546875
-7.23930978775024414 10.4158945083618164 83.5064849853515625
39.584014892578125 39.6465034484863281 -75.1748886108398438
15.2586374282836914 63.1240119934082031 43.7261924743652344
-25.8671913146972656 -40.0421676635742188 -80.4123306274414062
-1.82365119457244873 -5.09726190567016602 -85.7702560424804688
-27.9417610168457031 30.5584831237792969 -80.1686248779296875
-37.1125030517578125 -22.0692691802978516 -0.397442936897277832
16.395355224609375 63.3483161926269531 -3.10112929344177246
-21.5185470581054688 -47.7797012329101562 -74.3284072875976562
-10.4439849853515625 -30.1397151947021484 -75.3168869018554688
-33.7848548889160156 10.4387979507446289 36.0659751892089844
-5.90256404876708984 -47.3033409118652344 -0.560265421867370605
-33.1514816284179688 -56.2236213684082031 -4.18612813949584961
33.4314537048339844 -50.5694694519042969 20.1205863952636719
42.1073036193847656 -6.31571340560913086 -34.545013427734375
-1.43002223968505859 36.2619361877441406 90.6865158081054688
-18.3685894012451172 -24.8258285522460938 83.209686279296875
43.4005470275878906 22.7793025970458984 -48.52264404296875
-35.5124092102050781 -15.3972549438476562 -62.8241043090820312
-4.03111076354980469 -49.2985992431640625 10.857421875
-22.8881797790527344 8.08044338226318359 89.7896194458007812
9.93044853210449219 64.1364822387695312 28.2965431213378906
31.9466762542724609 -19.7683162689208984 95.7227249145507812
13.0671606063842773 63.960845947265625 92.7744522094726562
39.8347282409667969 34.5087547302246094 77.628662109375
44.5603523254394531 11.1797046661376953 -8.45474910736083984
-1.63598906993865967 -54.7233505249023438 20.9896907806396484
26.1503353118896484 -50.2167320251464844 -13.5641536712646484
-33.8169631958007812 6.38626003265380859 -53.2590904235839844
-0.0349503159523010254 62.8065147399902344 -67.0823898315429688
-22.8726692199707031 -48.6018447875976562 -77.7988128662109375
38.6750564575195312 44.1409759521484375 -17.8757286071777344
-26.6312084197998047 22.1425323486328125 98.6114044189453125
2.5575416088104248 -53.3356742858886719 21.3304367065429688
42.9603538513183594 26.0702667236328125 -40.7669029235839844
22.1524333953857422 61.7857246398925781 -37.0491142272949219
40.21624755859375 38.967926025390625 -13.9793920516967773
13.2724628448486328 63.5763969421386719 37.3712997436523438
36.0727615356445312 -12.4686479568481445 23.8853302001953125
22.2615776062011719 -48.0350189208984375 53.6784858703613281
25.1649341583251953 7.87474250793457031 -82.6081924438476562
40.1821479797363281 38.2195549011230469 46.2071342468261719
44.3499641418457031 0.703611135482788086 94.3605194091796875
44.6395072937011719 7.11491680145263672 20.0914382934570312
24.6772594451904297 60.516754150390625 -29.4583663940429688
-35.3459358215332031 1.39662027359008789 0.0346758775413036346
34.1679191589355469 -36.400054931640625 73.060638427734375
-36.4581565856933594 -32.8751106262207031 -66.6409683227539062
40.518280029296875 37.049407958984375 5.43271493911743164
35.1034355163574219 -14.6130514144897461 -71.9812774658203125
-12.2641706466674805 60.7096977233886719 -19.8233280181884766
35.0344924926757812 -20.5691013336181641 -9.75573062896728516
-34.7944221496582031 5.17673492431640625 17.8318672180175781
19.1132659912109375 -1.38242805004119873 -78.31304931640625
17.9041595458984375 62.8139839172363281 -59.3609428405761719
-29.2636127471923828 -33.0308837890625 94.0869140625
-28.9555282592773438 20.6336593627929688 -84.7940444946289062
33.5590972900390625 -47.1032676696777344 37.775848388671875
-34.7991867065429688 5.99675178527832031 -0.98836749792098999
-28.1228046417236328 39.6969718933105469 66.06365966796875
16.5994853973388672 -45.8203468322753906 48.8283576965332031
2.69093132019042969 -50.8804283142089844 -6.15940713882446289
-14.3376626968383789 -44.3921585083007812 14.067234992980957
23.9421463012695312 57.1093978881835938 -89.2080841064453125
-15.7183847427368164 59.2919502258300781 -83.7764511108398438
0.175448477268218994 51.4607734680175781 -76.5587615966796875
-31.5592308044433594 22.2150516510009766 61.3563461303710938
34.0093040466308594 -49.5974044799804688 -30.3699378967285156
37.7736473083496094 45.9176254272460938 22.8259906768798828
1.39092922210693359 43.3142738342285156 -89.667572021484375
-10.9535760879516602 61.459442138671875 -43.1375656127929688
28.8072299957275391 56.7345352172851562 90.4377212524414062
34.2851219177246094 -17.2742500305175781 42.2791557312011719
-33.2714500427246094 -52.6621513366699219 -19.3945846557617188
-29.2772541046142578 -17.9489650726318359 -88.9000473022460938
40.3032913208007812 32.1073150634765625 -86.7727890014648438
-17.1880683898925781 58.4515762329101562 71.642059326171875
33.9710197448730469 -7.93565607070922852 -92.0321731567382812
-11.7457275390625 61.0780868530273438 -40.4568862915039062
20.4388999938964844 61.9467315673828125 31.4944362640380859
-6.03478145599365234 57.7719612121582031 -73.9394912719726562
4.07527685165405273 63.9522285461425781 44.5997314453125
-26.0464820861816406 -28.0447158813476562 90.5191421508789062
30.5791206359863281 56.2798957824707031 -90.1006622314453125
-29.8543319702148438 14.7166671752929688 -80.9008865356445312
1.72960591316223145 -52.0890464782714844 82.7942962646484375
32.3222846984863281 55.0812606811523438 -43.5933570861816406
-14.8405599594116211 50.4706077575683594 -74.0513916015625
-30.8127880096435547 33.8118324279785156 -20.3452568054199219
-35.1833992004394531 -46.0010871887207031 79.001953125
4.74779176712036133 -49.1398086547851562 -49.5864982604980469
-29.4769649505615234 39.9884071350097656 -33.50067138671875
-33.8959465026855469 -45.1986198425292969 -24.9708347320556641
46.0559921264648438 1.8289562463760376 -29.0650367736816406
-11.6001434326171875 61.3710899353027344 90.8461685180664062
39.664520263671875 -0.492220491170883179 -37.9039230346679688
34.3101043701171875 -16.9220600128173828 38.6310844421386719
-30.6710319519042969 -55.2933120727539062 -24.6694889068603516
-36.9931106567382812 -28.0787868499755859 14.5960683822631836
-29.8815536499023438 35.0926055908203125 45.5050773620605469
-14.2656841278076172 -23.9402141571044922 -74.29559326171875
3.04591274261474609 4.85861110687255859 -84.9233245849609375
-34.0992698669433594 11.1234016418457031 9.08735942840576172
33.0191802978515625 -45.0890884399414062 -91.7181015014648438
34.1798171997070312 -35.9328765869140625 16.9556293487548828
-27.5673427581787109 -50.5731925964355469 -38.6622085571289062
-0.542805910110473633 -29.9175529479980469 97.739898681640625
39.4603843688964844 -7.04779624938964844 -13.6431646347045898
-17.3805389404296875 41.5935592651367188 -81.2593002319335938
13.0886754989624023 63.5040206909179688 -47.1072998046875
-2.55205440521240234 41.2481842041015625 87.9766769409179688
1.28016018867492676 -27.2322254180908203 -90.7632522583007812
-30.0331993103027344 37.093841552734375 -31.1000785827636719
32.600189208984375 -18.3229541778564453 -92.011749267578125
-35.4537506103515625 -19.2485599517822266 -70.5705184936523438
45.830413818359375 5.30480289459228516 -46.7831077575683594
44.47174072265625 7.01509714126586914 59.7586936950683594
-18.9418106079101562 55.297943115234375 -12.9690647125244141
-17.9078102111816406 -3.0281379222869873 83.1831207275390625
-35.6943778991699219 -43.0545463562011719 -9.55574417114257812
24.5805473327636719 60.029876708984375 37.4244155883789062
-3.77251672744750977 63.0543251037597656 85.0157470703125
-32.9416122436523438 15.5128965377807617 -38.9315414428710938
44.7604408264160156 -9.00031948089599609 70.0185928344726562
35.2549591064453125 -28.3183250427246094 -76.6850662231445312
5.97125768661499023 10.0604362487792969 86.0466461181640625
-8.78324317932128906 59.1532707214355469 -86.76190185546875
-27.9023342132568359 -48.3474655151367188 76.2264938354492188
-34.3830299377441406 -40.8097915649414062 94.90289306640625
-36.831329345703125 -33.4653816223144531 4.49245548248291016
0.0963075980544090271 -8.35554981231689453 -90.3812408447265625
44.9302253723144531 -12.0539875030517578 -66.5264511108398438
39.4718742370605469 41.5469207763671875 -5.35133743286132812
-34.2329063415527344 1.61647295951843262 60.6447868347167969
34.4433174133300781 -38.8195266723632812 -11.840672492980957
-35.7717552185058594 -5.60065031051635742 30.3448219299316406
-27.3370437622070312 40.1108970642089844 -48.2962570190429688
-22.7845325469970703 -46.1981391906738281 51.3715324401855469
-26.3954505920410156 -16.6727619171142578 92.5105209350585938
-31.7663211822509766 20.3101825714111328 -56.8150367736816406
-34.9528694152832031 -44.4570388793945312 66.4092254638671875
-25.1907196044921875 -47.1729545593261719 69.3148040771484375
39.2524871826171875 40.1589813232421875 -81.2318191528320312
-36.7708778381347656 -36.1901206970214844 37.5858154296875
-14.7185907363891602 60.1885566711425781 61.9181404113769531
41.6858787536621094 32.0848579406738281 27.4912071228027344
-12.7114114761352539 44.7455787658691406 -71.2056655883789062
-20.7960472106933594 53.1239356994628906 -26.6821632385253906
-22.8896656036376953 -46.6206741333007812 29.9571170806884766
-36.7654762268066406 -34.0556259155273438 -0.333472460508346558
-15.9876518249511719 -46.2919998168945312 78.8503875732421875
30.3265724182128906 -55.0276031494140625 -71.0631790161132812
-6.27629613876342773 -21.9623603820800781 -77.3341827392578125
-31.6943359375 -8.24957561492919922 94.2331085205078125
25.246337890625 -49.9561500549316406 35.5198707580566406
0.489953517913818359 -35.1605148315429688 -90.438385009765625
-23.6384544372558594 -47.4382514953613281 -21.8671512603759766
-31.6672401428222656 21.5143337249755859 61.4584503173828125
-20.7711734771728516 52.9195709228515625 -8.23480987548828125
-33.5064201354980469 -51.437408447265625 -7.61606216430664062
27.8447456359863281 58.6452713012695312 -31.6909236907958984
29.5081939697265625 -55.1338119506835938 46.899017333984375
-32.2781753540039062 24.0498065948486328 -3.50414586067199707
13.9198703765869141 60.0485954284667969 -75.9360733032226562
-22.1355609893798828 50.8123893737792969 -17.2464542388916016
-12.1805009841918945 -44.9284019470214844 -49.5655670166015625
-22.1488609313964844 12.9942855834960938 -81.0835723876953125
-32.8026542663574219 -18.9776439666748047 88.3752288818359375
-33.2983360290527344 -54.7092056274414062 86.4186172485351562
39.1421012878417969 -3.42727518081665039 -0.35723760724067688
20.8165493011474609 -46.4924240112304688 -65.714599609375
-36.1215248107910156 -16.7371902465820312 -42.45458984375
-32.1397552490234375 -9.06963443756103516 86.9666900634765625
44.2130355834960938 9.32504940032958984 65.0104446411132812
-12.1041698455810547 61.3592796325683594 -58.4106178283691406
28.0954227447509766 2.16185593605041504 -85.567169189453125
-12.0571088790893555 61.3525123596191406 83.7888107299804688
-16.1840648651123047 -2.5790565013885498 82.102203369140625
46.777618408203125 -3.37026739120483398 -45.3779449462890625
34.6286430358886719 -54.2732162475585938 -66.1206130981445312
29.2854557037353516 -54.0877685546875 50.647857666015625
-7.26610517501831055 63.1560440063476562 44.9551811218261719
-25.61279296875 41.2918968200683594 -8.97556686401367188
23.7828598022460938 -48.5751762390136719 14.1044387817382812
-36.2536354064941406 -39.41607666015625 -28.9581737518310547
19.1421356201171875 50.9532890319824219 -74.943328857421875
-0.57878953218460083 57.9912071228027344 -70.359649658203125
42.222808837890625 24.5206661224365234 -2.02050280570983887
10.2171916961669922 63.8614463806152344 -42.2554130554199219
-17.0620479583740234 57.7368850708007812 -46.9713821411132812
-34.1867218017578125 -54.6709785461425781 79.5499343872070312
-26.6553573608398438 38.7629852294921875 -78.6414871215820312
-25.1872272491455078 43.3912010192871094 -45.7138175964355469
-11.0415668487548828 -2.68883299827575684 82.0984344482421875
20.7613506317138672 -34.4402809143066406 -77.927947998046875
-16.9725971221923828 -44.9117202758789062 -43.4594688415527344
-5.63203239440917969 64.094146728515625 82.379425048828125
36.8553695678710938 48.124053955078125 -6.76249980926513672
-26.7124099731445312 34.6285400390625 89.4156570434570312
42.9071235656738281 23.2586174011230469 44.3472404479980469
42.8316078186035156 -8.36975669860839844 -82.4615249633789062
13.2354679107666016 -45.5296630859375 45.0679779052734375
-4.21372270584106445 63.7025184631347656 75.4351425170898438
41.9415283203125 26.2160434722900391 4.49776077270507812
20.1748542785644531 -24.5893878936767578 -78.2209091186523438
33.021392822265625 -54.7938766479492188 44.2722625732421875
44.2400741577148438 8.51963329315185547 68.90435791015625
43.3133773803710938 19.7792339324951172 38.48931884765625
-18.5582752227783203 14.5996274948120117 83.9847412109375
-31.1696090698242188 -48.2302703857421875 -86.0030441284179688
13.1703701019287109 66.427154541015625 83.1634597778320312
-35.4863967895507812 -6.63640642166137695 -41.6633071899414062
-34.8162384033203125 -47.1227951049804688 -74.6449661254882812
-9.46468067169189453 21.8122215270996094 -72.478973388671875
38.0360679626464844 45.4629669189453125 -65.798797607421875
-20.6757221221923828 32.8379898071289062 91.9995346069335938
29.1784095764160156 -43.5749092102050781 -83.8486175537109375
42.0362052917480469 23.6353912353515625 74.235870361328125
-32.2707786560058594 23.8935832977294922 -8.29065704345703125
6.62561273574829102 -47.7133636474609375 -75.5563430786132812
19.5299816131591797 -48.5423698425292969 77.0795135498046875
7.22843265533447266 -18.2499732971191406 -80.5852508544921875
31.1235408782958984 -56.20062255859375 -87.8175506591796875
-33.6873703002929688 13.2304058074951172 18.8329429626464844
-3.6879112720489502 -53.4569244384765625 91.0715103149414062
-35.828155517578125 -13.2247610092163086 -45.9336433410644531
8.11743927001953125 65.1337051391601562 -84.5796585083007812
-29.8550434112548828 11.8636445999145508 91.11328125
-1.7699284553527832 63.2916221618652344 58.6795120239257812
-9.98832607269287109 35.8648490905761719 79.1617889404296875
-2.76292037963867188 -50.7698287963867188 -0.134555801749229431
30.0443248748779297 -57.1540756225585938 61.5467185974121094
-3.08015322685241699 -41.1100540161132812 93.8226776123046875
34.4493179321289062 -27.18475341796875 20.3681049346923828
44.9833793640136719 -2.8635704517364502 46.0767707824707031
-8.25816154479980469 62.8039970397949219 63.0276679992675781
-12.2706899642944336 -15.082768440246582 82.3817520141601562
-19.7738323211669922 55.9033203125 -79.78350830078125
21.2258701324462891 34.96612548828125 -78.6519012451171875
23.2564163208007812 60.7108993530273438 36.3752403259277344
-31.6925201416015625 28.2172679901123047 -6.10346555709838867
-36.74041748046875 -31.1458377838134766 -15.1627950668334961
-33.6320381164550781 -57.3822593688964844 -78.7086410522460938
-36.4909400939941406 -18.0276088714599609 -23.4522266387939453
47.9807205200195312 -8.17982196807861328 -83.3604278564453125
32.8234939575195312 53.2287635803222656 61.827911376953125
26.3254795074462891 -50.7046623229980469 76.9639968872070312
40.5320701599121094 -7.05811500549316406 -9.86736202239990234
35.3156318664550781 -11.9807682037353516 -41.3973236083984375
-28.7806873321533203 32.7731552124023438 -76.1333236694335938
0.056324392557144165 64.4780044555664062 -3.80986523628234863
3.43449163436889648 -50.3879127502441406 -30.7060508728027344
42.6725387573242188 26.3427505493164062 -59.724761962890625
34.4724006652832031 -17.0474395751953125 27.1617240905761719
-3.4506080150604248 -49.7208900451660156 -15.8325262069702148
-33.6904754638671875 9.9392547607421875 43.8966140747070312
-26.0159339904785156 40.422332763671875 -19.2110633850097656
-33.6195526123046875 13.0073308944702148 -22.3114833831787109
36.5163917541503906 -1.07583773136138916 -51.4049568176269531
-15.7702550888061523 58.2989997863769531 -18.3983516693115234
34.9929428100585938 -16.1598377227783203 -26.6555805206298828
-22.0231647491455078 37.650421142578125 -87.5014724731445312
26.9944305419921875 -51.4049606323242188 20.8127269744873047
0.248834401369094849 -51.2930412292480469 -22.6979541778564453
20.6442718505859375 -34.6672782897949219 -77.8764190673828125
-19.48272705078125 56.0118446350097656 74.698883056640625
28.1054344177246094 -44.6972732543945312 88.6268386840820312
30.7861175537109375 -57.9732589721679688 -65.5984649658203125
43.9025001525878906 14.7940759658813477 30.7865066528320312
43.3067359924316406 10.6188154220581055 88.69097900390625
35.0478363037109375 -17.2959671020507812 -14.4954547882080078
22.5982170104980469 62.1370811462402344 78.644683837890625
42.4280776977539062 26.6154880523681641 46.94775390625
-32.05157470703125 -17.1750755310058594 94.0065155029296875
-12.6034212112426758 61.6600189208984375 -73.8191146850585938
14.0831441879272461 -44.9562339782714844 -41.7441864013671875
10.9209499359130859 49.5215721130371094 81.0043411254882812
29.4979076385498047 -53.7017440795898438 -22.0022850036621094
22.026397705078125 61.9713249206542969 84.1058502197265625
35.4439964294433594 -28.2513599395751953 -86.5119400024414062
-14.1073732376098633 39.1519508361816406 80.0026168823242188
-12.7827177047729492 7.97158336639404297 80.7963104248046875
43.1050872802734375 24.2620658874511719 -21.2210311889648438
44.9394874572753906 -2.86849379539489746 52.6237220764160156
33.8391036987304688 -38.2792549133300781 41.7917518615722656
-2.2044837474822998 -51.71038818359375 95.9559249877929688
43.0862922668457031 24.7349319458007812 -25.6494235992431641
23.7901649475097656 51.1543655395507812 93.3289413452148438
38.9117851257324219 -9.83967971801757812 -29.3168354034423828
-5.46437644958496094 -47.4470443725585938 -28.1091213226318359
-23.9883022308349609 -3.17153620719909668 90.51434326171875
34.862030029296875 -27.1611461639404297 -25.0470142364501953
43.4144477844238281 -13.0075616836547852 2.07734799385070801
-1.02854812145233154 62.621673583984375 76.5664825439453125
47.56341552734375 -4.69267892837524414 -79.1655426025390625
14.0633840560913086 24.3869476318359375 -75.7659225463867188
18.7736015319824219 62.8484916687011719 -32.439971923828125
39.7666015625 -12.2754678726196289 17.0172615051269531
-37.0609550476074219 -21.8672027587890625 15.320561408996582
33.3706893920898438 -50.66473388671875 51.0174140930175781
-10.8896551132202148 -41.9963150024414062 86.5986328125
46.7120399475097656 1.8773036003112793 -77.1157913208007812
15.1652774810791016 12.5656242370605469 -76.7129974365234375
-17.2729167938232422 26.1584701538085938 -75.57080078125
33.5943984985351562 -46.4461555480957031 23.8043861389160156
40.879150390625 36.0408058166503906 22.710601806640625
-25.4313144683837891 -48.5180854797363281 -60.7178230285644531
35.5008964538574219 -36.9080734252929688 -85.3826217651367188
30.5198612213134766 -54.624542236328125 -61.8695335388183594
-1.67259728908538818 18.7094821929931641 -89.916656494140625
-34.3056488037109375 -49.5265579223632812 38.9754142761230469
-37.0806808471679688 -26.5100593566894531 1.22827553749084473
22.2061805725097656 54.3066520690917969 -80.4667587280273438
-28.0460586547851562 22.8581924438476562 93.6661605834960938
-30.1249904632568359 31.4582653045654297 56.8933868408203125
-35.6717300415039062 -12.9835700988769531 57.0793113708496094
-14.8069009780883789 47.9254417419433594 -73.3407363891601562
7.01159286499023438 -44.3556785583496094 86.0871734619140625
5.375457763671875 54.7373504638671875 80.2066268920898438
30.9835453033447266 -57.7134246826171875 78.3128585815429688
-36.8679618835449219 -38.799072265625 52.5729560852050781
-36.02972412109375 -12.6062726974487305 44.2199935913085938
-36.8700714111328125 -32.5192527770996094 1.59537708759307861
-33.8512191772460938 -45.4407081604003906 -6.54708051681518555
47.9356575012207031 -10.5029382705688477 -74.452239990234375
-14.326848030090332 -44.3655166625976562 -8.41790199279785156
34.7377090454101562 -26.9124279022216797 -48.6082344055175781
27.9253692626953125 -27.488372802734375 -83.8987350463867188
-25.0196475982666016 -48.5956649780273438 -74.0917892456054688
-2.98653364181518555 -45.9224319458007812 -83.5237579345703125
45.2211875915527344 -0.113854110240936279 19.2163581848144531
-17.9413661956787109 57.2264747619628906 55.0938186645507812
30.3263511657714844 56.5551567077636719 -20.975616455078125
14.1887121200561523 63.633697509765625 21.2037353515625
-35.0662803649902344 3.28666234016418457 -11.8612251281738281
-24.7363719940185547 46.9127311706542969 -79.639617919921875
7.76962137222290039 7.04799032211303711 -79.115478515625
34.4063148498535156 -8.78641986846923828 -91.7998428344726562
-6.40961694717407227 -33.0412139892578125 -78.1980133056640625
42.2845039367675781 27.5084419250488281 -72.41033935546875
39.352447509765625 -12.8041276931762695 45.3175926208496094
-20.8536758422851562 8.72518157958984375 -78.8893585205078125
-2.75330090522766113 11.2779741287231445 90.16815185546875
-21.6305084228515625 52.2829170227050781 59.7975234985351562
-24.4034442901611328 45.8988876342773438 74.896942138671875
-30.4893569946289062 8.83942508697509766 86.3968582153320312
38.8620491027832031 -5.98756742477416992 77.4050369262695312
-19.8025951385498047 32.9482269287109375 -83.9371490478515625
-4.17231178283691406 63.4090995788574219 53.8770866394042969
-35.5377197265625 -52.7180938720703125 82.9392471313476562
13.4189786911010742 -44.8197135925292969 4.92880153656005859
-18.0456771850585938 57.1543045043945312 -87.5512771606445312
40.653717041015625 34.6564865112304688 -77.405609130859375
-1.21382236480712891 -49.0947265625 96.8783035278320312
-36.1304702758789062 -15.0233993530273438 -15.0701417922973633
14.8391036987304688 2.74273586273193359 -76.9795989990234375
9.17080211639404297 -45.9027214050292969 6.28816366195678711
34.3940238952636719 -40.28997802734375 -24.7431774139404297
-15.2871170043945312 -45.2858619689941406 64.8496780395507812
-1.03987932205200195 -54.707611083984375 73.7768630981445312
30.8112506866455078 -53.6960220336914062 87.48052978515625
-6.0251917839050293 63.76837158203125 73.851348876953125
-33.6565513610839844 13.7377996444702148 14.7713546752929688
-30.5663089752197266 6.41548728942871094 -82.6901397705078125
17.9023399353027344 -46.3047447204589844 55.8290748596191406
