ply
format ascii 1.0
element vertex 784
comment vertices
property float x
property float y
property float z
end_header
8.63725376129150391 34.5728797912597656 16.9823493957519531
-6.11347723007202148 18.8777561187744141 -50.6698341369628906
1.35044646263122559 10.0937376022338867 -57.9787139892578125
9.03224277496337891 13.4402151107788086 15.2696475982666016
1.45813310146331787 12.9261083602905273 -58.1179161071777344
6.72568035125732422 1.53650188446044922 -35.4128456115722656
-2.98403358459472656 46.3662986755371094 24.0265369415283203
-3.87918400764465332 33.6715965270996094 11.695897102355957
0.98499685525894165 -7.00961685180664062 36.0970573425292969
-2.39721488952636719 -53.0537567138671875 -0.0862870886921882629
8.43303680419921875 -15.5145769119262695 -29.0402946472167969
11.4294147491455078 -11.980921745300293 4.16814899444580078
7.76945972442626953 -4.61281204223632812 -13.6657190322875977
6.89483451843261719 18.7904472351074219 -40.2215499877929688
6.77866983413696289 -1.29703986644744873 -13.261627197265625
-1.02947652339935303 -18.3683128356933594 32.3357353210449219
-3.84690332412719727 33.5510787963867188 11.8471317291259766
8.8068695068359375 -3.73302793502807617 10.052311897277832
-5.29130983352661133 44.9937705993652344 13.8171319961547852
7.46457624435424805 -23.2835941314697266 -14.997227668762207
-1.2373814582824707 -44.9666175842285156 19.6721038818359375
8.23191165924072266 -11.2190713882446289 8.63002204895019531
0.36264646053314209 29.727691650390625 35.2868995666503906
11.8475875854492188 19.9401321411132812 30.2563266754150391
-4.34723758697509766 -19.7333030700683594 -28.7960338592529297
6.67547702789306641 36.7297210693359375 35.2570266723632812
-4.79268789291381836 -11.9023027420043945 15.6221885681152344
8.23830604553222656 12.5953302383422852 17.0695018768310547
11.8197622299194336 2.22642803192138672 19.4143581390380859
-0.662121117115020752 -55.6640663146972656 12.3275251388549805
5.7532649040222168 10.9203586578369141 -22.8113346099853516
11.8470067977905273 -31.8053569793701172 7.02121257781982422
10.2285318374633789 10.0341644287109375 18.5744361877441406
5.05024480819702148 0.915887534618377686 -27.9060077667236328
-2.78211331367492676 2.19236445426940918 -19.3246421813964844
8.10860443115234375 16.8830661773681641 -24.3519229888916016
6.71760129928588867 -0.500732719898223877 -15.3204336166381836
4.85020971298217773 8.65939235687255859 -15.5855741500854492
-2.08922386169433594 45.1457748413085938 22.8163661956787109
0.0111172711476683617 32.9326629638671875 35.3547554016113281
0.00797615665942430496 -26.0209751129150391 31.1587600708007812
10.7384004592895508 12.9188785552978516 -17.2197380065917969
8.90465545654296875 10.5520095825195312 17.8809375762939453
12.0086755752563477 13.1604766845703125 30.7573375701904297
-3.39391803741455078 -42.830902099609375 -9.33736133575439453
12.1616535186767578 15.5379714965820312 -16.5884113311767578
11.1285877227783203 1.49023687839508057 33.4671630859375
-0.778932094573974609 24.5629444122314453 36.0463447570800781
5.40051889419555664 -5.46509647369384766 -46.5265388488769531
3.36972403526306152 -46.9291915893554688 -3.7848200798034668
-4.6208949089050293 -9.48311042785644531 -25.0512237548828125
7.54136848449707031 6.75265979766845703 -55.645050048828125
-1.24432981014251709 3.81657648086547852 -57.3211326599121094
-5.03380060195922852 21.5220298767089844 -42.1438140869140625
8.97795581817626953 -22.3565883636474609 -18.7830677032470703
-3.31501460075378418 10.6487283706665039 -46.9878387451171875
6.47904634475708008 -51.1131706237792969 -0.782927393913269043
13.1159505844116211 1.28257882595062256 26.8006000518798828
-4.53532648086547852 -24.9189109802246094 9.979278564453125
12.0133600234985352 -17.1015911102294922 18.3730716705322266
-4.76192998886108398 -1.86537659168243408 -10.82659912109375
9.01005649566650391 -1.51187193393707275 8.67913722991943359
6.75171375274658203 37.5243339538574219 11.0263099670410156
-3.27934646606445312 -19.2889404296875 -34.6774368286132812
-3.69792056083679199 5.22736549377441406 28.3202247619628906
-4.09969902038574219 19.4859161376953125 18.2169227600097656
8.50387191772460938 10.1122226715087891 -8.35814380645751953
9.10926628112792969 33.1379776000976562 1.39386355876922607
-3.86998128890991211 3.27705264091491699 20.179351806640625
-2.75483226776123047 15.7400732040405273 -49.1150779724121094
4.6376652717590332 30.2388458251953125 -6.63484764099121094
-3.75554704666137695 25.0454254150390625 -16.329437255859375
-2.8551332950592041 -47.1534881591796875 -4.53852748870849609
-3.80845499038696289 37.6669883728027344 1.24253535270690918
2.3435976505279541 -11.8668298721313477 36.3877182006835938
-3.45982122421264648 35.246002197265625 -1.20960104465484619
-2.73983049392700195 -10.0057544708251953 -37.3824272155761719
-3.22329521179199219 11.1384668350219727 -52.8382987976074219
4.83125686645507812 -16.2450790405273438 -35.2698516845703125
-2.08613204956054688 44.4244842529296875 23.9791011810302734
-4.88958311080932617 -13.5173711776733398 13.0146102905273438
7.01213455200195312 -6.90735626220703125 8.93441963195800781
0.888108432292938232 -6.32119226455688477 36.61505126953125
-4.62047863006591797 -38.8861198425292969 7.35117340087890625
12.0017185211181641 -19.1947574615478516 -3.22217154502868652
7.35273361206054688 29.817626953125 -0.143595591187477112
1.46909403800964355 -52.6979866027832031 15.8576393127441406
11.3840475082397461 14.9402093887329102 6.89438867568969727
2.41100096702575684 -42.2079734802246094 -8.89637279510498047
-4.00098180770874023 20.4139652252197266 -14.6832437515258789
11.5381765365600586 7.89419221878051758 -2.40249896049499512
-1.37601613998413086 37.9043960571289062 34.3178558349609375
6.9293828010559082 -15.5262861251831055 -33.89837646484375
-2.77348923683166504 -43.3690567016601562 -8.55961132049560547
-3.64592981338500977 -30.2844657897949219 -20.5864543914794922
5.33069467544555664 -2.49036836624145508 -28.0429267883300781
-4.53954267501831055 13.4161758422851562 12.5509710311889648
-3.3338935375213623 27.8008499145507812 -21.5166683197021484
-0.714684963226318359 -25.1532840728759766 30.4396476745605469
9.44964790344238281 -51.0349044799804688 0.0881018117070198059
8.95196819305419922 46.8536224365234375 24.3326549530029297
12.2906475067138672 26.3162174224853516 26.1137809753417969
-1.88596701622009277 40.7185707092285156 31.2278594970703125
3.70137834548950195 25.9903793334960938 -31.8693675994873047
3.3790137767791748 31.0098209381103516 -7.20709323883056641
-4.33475446701049805 -2.56403493881225586 -18.9447460174560547
-5.107574462890625 -18.7362651824951172 8.55723285675048828
-0.678516924381256104 -6.4055171012878418 -47.7429733276367188
-5.24343347549438477 -38.3328170776367188 -12.3031902313232422
11.0360736846923828 34.8821067810058594 24.9780063629150391
8.51767635345458984 -48.4968681335449219 15.8067302703857422
-4.27710914611816406 -11.6114120483398438 22.6041107177734375
12.2159099578857422 26.1108779907226562 -12.2045373916625977
11.9788150787353516 29.3089370727539062 -9.13283443450927734
-3.92923521995544434 31.8652667999267578 6.07688426971435547
-4.76467275619506836 -2.14541149139404297 -10.4452133178710938
-3.81811094284057617 2.55970883369445801 -29.3622837066650391
7.06880378723144531 14.725855827331543 -55.4706802368164062
-4.15049886703491211 24.0987186431884766 -3.7942967414855957
-3.41673588752746582 38.9047737121582031 13.4609298706054688
8.26273536682128906 -8.36051464080810547 -7.77843999862670898
-3.3965308666229248 7.28765010833740234 -39.4921913146972656
4.85352325439453125 25.0323047637939453 -35.8301315307617188
11.965449333190918 9.91432762145996094 31.5412120819091797
-1.70187640190124512 -1.58161747455596924 -53.4478683471679688
9.13625144958496094 6.71366500854492188 -31.4504680633544922
-2.78716897964477539 13.5198764801025391 -49.172760009765625
-3.97498488426208496 30.2292671203613281 -5.89429903030395508
-4.06031703948974609 15.9126119613647461 -12.5580959320068359
-3.83453083038330078 0.371327310800552368 -36.3972053527832031
-4.13493442535400391 -6.95465755462646484 24.3943252563476562
-5.52629852294921875 -27.1368274688720703 0.0805288404226303101
-1.52290582656860352 -48.9844932556152344 -3.26329612731933594
-3.63073968887329102 7.1481475830078125 -37.7903175354003906
-4.14311361312866211 -25.8700466156005859 17.0567531585693359
-3.96144509315490723 0.841126859188079834 18.9757423400878906
-3.0850214958190918 4.53328132629394531 -43.5559463500976562
-5.27460050582885742 -16.7178211212158203 -14.2009849548339844
-4.95854759216308594 -3.57973194122314453 4.17607355117797852
-3.1162254810333252 -9.93514919281005859 29.6407127380371094
5.79026651382446289 11.1532449722290039 -34.9125785827636719
8.03417110443115234 6.81961393356323242 13.3216266632080078
-4.68937110900878906 0.292212009429931641 4.36933231353759766
-5.60299825668334961 -28.4392795562744141 -10.1878757476806641
-2.52850508689880371 -19.3900203704833984 -33.9060211181640625
-1.78507876396179199 26.0777072906494141 36.9166297912597656
-0.206523522734642029 17.6344661712646484 -55.414703369140625
-3.05087518692016602 9.85334968566894531 36.0909423828125
-4.04145956039428711 27.0014991760253906 -6.07457971572875977
0.00979546085000038147 -38.2832565307617188 -14.3371191024780273
-2.82004117965698242 37.3767623901367188 27.0732860565185547
-5.07452964782714844 -16.8196239471435547 -15.2609729766845703
9.48277664184570312 -8.27070331573486328 -18.0292625427246094
7.94709396362304688 20.8787956237792969 -34.3651695251464844
7.60494899749755859 -30.4208278656005859 -17.3149280548095703
9.54914474487304688 42.8163223266601562 30.2598667144775391
11.5972633361816406 20.2371273040771484 30.8641319274902344
-3.20036196708679199 21.3121261596679688 28.2740879058837891
2.78637814521789551 27.5739078521728516 -29.5621490478515625
7.98922061920166016 34.6170616149902344 14.2141628265380859
10.373225212097168 -11.7681913375854492 -2.74712610244750977
9.04762172698974609 46.6781463623046875 30.0355606079101562
-3.18622088432312012 -11.9825124740600586 29.2273311614990234
-3.31426095962524414 1.18204295635223389 30.8705539703369141
11.6404685974121094 11.5474872589111328 2.51988554000854492
-4.80638599395751953 -4.52695274353027344 -20.0145797729492188
2.1263575553894043 -43.8258438110351562 22.345428466796875
-2.85123062133789062 14.5048255920410156 -38.01568603515625
11.3779964447021484 10.2983903884887695 22.6474895477294922
8.84480476379394531 -21.8969917297363281 -18.0862388610839844
-4.92128610610961914 -36.7932357788085938 13.5415563583374023
-3.69301939010620117 1.19284355640411377 -40.9265632629394531
-0.854896903038024902 9.32434558868408203 -64.8050003051757812
7.26725387573242188 6.64668512344360352 5.5375823974609375
-1.30756950378417969 -33.2795524597167969 -18.9792938232421875
8.02433681488037109 -0.694957554340362549 -6.94034624099731445
12.6141786575317383 5.12151813507080078 25.0807437896728516
4.73365402221679688 -8.29619884490966797 -23.00836181640625
9.01160430908203125 38.7781219482421875 28.9384136199951172
-3.57716488838195801 -18.8808746337890625 -34.8726882934570312
8.39025974273681641 35.4210281372070312 1.81441521644592285
10.4276132583618164 20.5367221832275391 17.4466361999511719
-0.161692723631858826 27.4412097930908203 37.4292106628417969
5.05602788925170898 26.0445194244384766 -28.6903953552246094
8.69083881378173828 26.1287193298339844 33.4002418518066406
9.63697719573974609 -7.03413057327270508 8.14877510070800781
-2.42295241355895996 -32.0672988891601562 25.5619983673095703
10.703150749206543 -33.9628944396972656 10.4838848114013672
6.80819320678710938 -1.50243961811065674 -15.4016141891479492
-1.13348877429962158 42.8959999084472656 29.3835315704345703
-3.99960470199584961 17.7792510986328125 -11.4631795883178711
6.04617452621459961 8.3330078125 -28.5860557556152344
12.4687299728393555 15.3815765380859375 26.1000461578369141
7.95021247863769531 31.4843063354492188 32.7024574279785156
6.79018068313598633 34.9539527893066406 10.8929872512817383
-3.09835147857666016 29.9504547119140625 -1.48594450950622559
2.0155181884765625 30.8410720825195312 -19.2207794189453125
-3.65700101852416992 30.8897914886474609 33.5656547546386719
-4.35626840591430664 0.525581121444702148 -1.73391425609588623
10.1782951354980469 -17.6219501495361328 11.6189765930175781
7.7694096565246582 -16.4393520355224609 33.4437255859375
-4.26845741271972656 23.2450523376464844 -38.01348876953125
-1.98897862434387207 0.223103970289230347 35.6867332458496094
-0.701773703098297119 -5.31370973587036133 -49.1569976806640625
-3.35645866394042969 32.6636848449707031 20.8470897674560547
3.43609380722045898 2.31790852546691895 38.954681396484375
-3.86413741111755371 4.54837799072265625 -32.5826644897460938
12.6823158264160156 11.511631965637207 28.3054847717285156
-4.54295158386230469 9.13287353515625 -9.36847972869873047
-4.52033138275146484 -6.60154581069946289 15.7490911483764648
6.64668893814086914 23.1131687164306641 18.3362464904785156
11.4592409133911133 16.8856716156005859 9.36511611938476562
6.20380926132202148 1.87865710258483887 -24.7870826721191406
11.677515983581543 -38.5394668579101562 10.3524341583251953
10.586207389831543 32.9311561584472656 21.4098320007324219
-2.6310722827911377 9.12977981567382812 -17.3943119049072266
-4.33770513534545898 -3.87815451622009277 -2.2881767749786377
-2.05124998092651367 -27.8135700225830078 28.2724170684814453
4.60440254211425781 9.02059268951416016 -27.6706829071044922
5.14365768432617188 0.195065990090370178 38.5575218200683594
10.9902868270874023 -45.2248268127441406 5.61007928848266602
-0.98470151424407959 1.80103981494903564 35.7454833984375
-3.45843195915222168 32.4088935852050781 22.8893661499023438
11.9065284729003906 19.4668598175048828 21.4658832550048828
-0.376778453588485718 14.7219676971435547 36.4786415100097656
-3.41609716415405273 30.83172607421875 -16.2079391479492188
-3.82019209861755371 23.8089656829833984 -17.0843067169189453
-1.38240444660186768 8.13425350189208984 34.2159843444824219
6.80452108383178711 -36.6735687255859375 25.4939670562744141
5.72026443481445312 16.3549079895019531 -54.5097694396972656
-3.76368927955627441 8.16972637176513672 -37.2821693420410156
9.81912040710449219 44.3525505065917969 20.6663665771484375
7.36291122436523438 -0.333812892436981201 -34.9620132446289062
-4.71217107772827148 -37.4278411865234375 1.99537551403045654
8.04006767272949219 5.30692338943481445 -51.0607147216796875
6.56415033340454102 3.99933004379272461 -39.2591819763183594
6.66774606704711914 -48.1984596252441406 17.8876171112060547
8.50230979919433594 1.18125152587890625 8.09956932067871094
12.3892297744750977 -37.2689437866210938 -0.65599745512008667
-0.822477638721466064 21.8347682952880859 -44.21612548828125
8.48548793792724609 -7.54321575164794922 -41.0120277404785156
8.84245014190673828 -1.88349080085754395 -5.10132360458374023
-0.305862098932266235 2.45220708847045898 36.3516616821289062
-1.89054203033447266 41.7995643615722656 28.7007045745849609
7.07114696502685547 -14.9413928985595703 -34.3605804443359375
2.42398166656494141 37.5723838806152344 -2.11392760276794434
-4.48728799819946289 6.91020345687866211 10.0253486633300781
0.331323862075805664 31.4064407348632812 -18.0735893249511719
-4.14625072479248047 17.2375812530517578 16.5190067291259766
-4.46812915802001953 35.3753166198730469 -7.09088993072509766
11.7476606369018555 -12.0207433700561523 -0.785967409610748291
-5.25615501403808594 -27.7784557342529297 2.66715574264526367
-3.53963804244995117 -21.6894626617431641 -28.4118709564208984
4.00050449371337891 11.4116954803466797 -16.6014671325683594
-2.23827099800109863 11.6920852661132812 32.7606964111328125
-5.73114013671875 -26.9586162567138672 -3.97472190856933594
11.5112924575805664 -48.1492691040039062 7.20543575286865234
11.8105783462524414 28.3013992309570312 26.4000625610351562
0.568018257617950439 46.6020736694335938 25.4819717407226562
-4.79703283309936523 3.46417808532714844 11.3037633895874023
-4.51063823699951172 -4.32792425155639648 -28.5643844604492188
-1.2345879077911377 -26.2415580749511719 -25.9199733734130859
6.20082283020019531 8.63835906982421875 7.30252552032470703
-3.84093332290649414 1.12782382965087891 24.0426864624023438
-4.33441305160522461 -0.862926244735717773 -1.25231754779815674
-4.14112043380737305 8.44038105010986328 -12.2045755386352539
-5.34160852432250977 -23.0762271881103516 -24.6783962249755859
-4.09013175964355469 20.5084400177001953 -12.2655878067016602
-3.87980294227600098 18.4363441467285156 23.5333137512207031
3.61891531944274902 -21.2734413146972656 33.6780967712402344
7.69606542587280273 9.844970703125 -50.2750587463378906
-4.0011749267578125 -6.03726005554199219 -39.456512451171875
-5.50332403182983398 -22.7942752838134766 -21.7872600555419922
10.3578815460205078 39.8588066101074219 21.3850898742675781
2.52199673652648926 33.2094535827636719 -12.9548501968383789
8.12774658203125 19.8785533905029297 37.3670234680175781
-5.65864181518554688 -36.4046363830566406 -0.576075136661529541
10.9790849685668945 2.50893640518188477 -1.76560020446777344
6.77712726593017578 -53.1246681213378906 0.189487457275390625
9.78249931335449219 26.1255130767822266 5.64079093933105469
-0.472354501485824585 -4.38841819763183594 -49.7443351745605469
-0.781181216239929199 24.5726089477539062 -38.1334075927734375
-1.09663009643554688 -39.8674659729003906 -11.7000904083251953
7.85265254974365234 -22.0420570373535156 -15.8858642578125
4.15707969665527344 47.0339813232421875 15.2448873519897461
-4.35606479644775391 -27.6755409240722656 17.2608509063720703
-5.56128597259521484 -24.5269622802734375 -16.8928775787353516
-4.46173238754272461 -0.951243042945861816 -51.4690437316894531
8.33710098266601562 35.5599288940429688 15.1918010711669922
7.41392087936401367 11.3929843902587891 -45.1810111999511719
-5.48004484176635742 -23.9627952575683594 -12.3629341125488281
-1.53066682815551758 22.6755714416503906 35.8218307495117188
6.48332452774047852 4.52268028259277344 -21.8762416839599609
-4.50740528106689453 -3.21001100540161133 1.40986859798431396
6.85656881332397461 10.3101301193237305 -29.0795364379882812
-3.82435226440429688 16.7410678863525391 -23.5621852874755859
12.0533332824707031 13.0479907989501953 30.6179370880126953
-2.33512115478515625 -0.874082803726196289 36.5310134887695312
8.63615512847900391 -6.11745643615722656 -42.2905158996582031
-4.58489799499511719 18.8961677551269531 -5.33713054656982422
-4.94138002395629883 33.1644630432128906 -11.1695585250854492
8.58061981201171875 34.0877151489257812 16.8395919799804688
-3.74801254272460938 19.9658737182617188 24.6588363647460938
10.7624731063842773 -2.06389713287353516 4.94255733489990234
9.78815555572509766 42.4981651306152344 19.2213859558105469
-3.20829629898071289 10.0770540237426758 -25.9677906036376953
3.66576266288757324 13.3580217361450195 39.38580322265625
5.8990025520324707 -11.5060548782348633 36.0234718322753906
9.046234130859375 34.3863449096679688 18.4013862609863281
0.804399728775024414 -11.5677509307861328 35.5877265930175781
-4.00944042205810547 -4.18650150299072266 -44.0542259216308594
-0.696291685104370117 -9.62821006774902344 35.9422378540039062
-2.6477348804473877 -13.0568637847900391 33.4922256469726562
11.4869241714477539 25.4333305358886719 21.9298229217529297
-4.4399113655090332 4.95395135879516602 15.8978452682495117
12.8327188491821289 3.75280499458312988 26.3225574493408203
1.47521388530731201 31.7277565002441406 -15.4368677139282227
1.27479374408721924 -14.3781442642211914 -38.6304359436035156
-0.830888569355010986 18.3006229400634766 -52.9055824279785156
-3.11690974235534668 36.6449165344238281 25.0489826202392578
-2.83848071098327637 7.82938098907470703 -61.8145103454589844
1.73920619487762451 -14.1533031463623047 -38.7335014343261719
6.55186796188354492 -4.39904642105102539 -28.6082515716552734
11.5623350143432617 -45.4911651611328125 12.1833944320678711
11.2942180633544922 23.0968704223632812 8.97901248931884766
10.0308084487915039 -12.6779937744140625 32.5119094848632812
10.1433620452880859 -55.2211952209472656 4.13897085189819336
5.61542558670043945 48.0985031127929688 15.6162109375
7.04232645034790039 -2.33677363395690918 -47.9998626708984375
4.82366132736206055 -18.0482883453369141 -14.2571783065795898
-4.35499715805053711 -3.52225708961486816 -1.0296928882598877
-3.22661924362182617 36.8561172485351562 24.3004589080810547
-4.99181938171386719 -8.86620521545410156 3.68060994148254395
-3.0631558895111084 11.922511100769043 -47.9573402404785156
4.67036771774291992 4.76465559005737305 -55.6907157897949219
-3.95775461196899414 16.7149982452392578 -53.9977951049804688
10.6283807754516602 -25.1422901153564453 28.0433177947998047
-2.00133943557739258 -7.48328351974487305 34.2872428894042969
10.1282682418823242 10.3423261642456055 -32.80474853515625
8.24009037017822266 -15.9514093399047852 -30.3984432220458984
4.0974879264831543 -36.3957328796386719 26.7750129699707031
7.61962795257568359 12.3092660903930664 -54.3923416137695312
-4.74626255035400391 -10.1020355224609375 16.9379138946533203
-3.01868343353271484 20.9747543334960938 -44.6777687072753906
2.86535811424255371 3.82271218299865723 -55.2348251342773438
2.8562614917755127 46.8654327392578125 26.1602497100830078
0.616484999656677246 10.7488136291503906 -55.8205184936523438
8.56084251403808594 2.35355782508850098 -22.815582275390625
-3.43967103958129883 32.2635917663574219 25.3503265380859375
11.3657026290893555 -5.3590846061706543 -1.07838428020477295
4.16332054138183594 -44.10955810546875 -6.51280784606933594
4.36769247055053711 30.6235580444335938 -17.0300178527832031
3.54469799995422363 47.4748306274414062 29.2684879302978516
5.86925172805786133 5.96532773971557617 -15.4498882293701172
7.54419231414794922 26.0080032348632812 36.9044914245605469
13.1446685791015625 -16.4150524139404297 27.5832710266113281
9.58051395416259766 -2.81857061386108398 11.9226045608520508
-4.23118066787719727 -21.889373779296875 21.0992240905761719
10.7948589324951172 34.6752433776855469 22.67279052734375
5.77966451644897461 -22.1901836395263672 -9.73849391937255859
-4.01678466796875 39.085845947265625 5.4883570671081543
2.22067499160766602 -59.0989112854003906 5.35007143020629883
12.6048078536987305 24.7139415740966797 -10.9107837677001953
10.9385910034179688 0.89839094877243042 -1.71462392807006836
10.6704044342041016 -19.3054275512695312 -6.20255231857299805
6.83789205551147461 45.6729583740234375 14.0362968444824219
11.7996540069580078 -38.6196403503417969 -2.41531229019165039
4.15313863754272461 38.1258430480957031 3.5717470645904541
-4.20657205581665039 38.98150634765625 1.57126522064208984
-4.21930551528930664 -0.163043588399887085 -26.7544441223144531
13.1020393371582031 1.57699096202850342 28.1956863403320312
8.55127143859863281 38.2523841857910156 16.3299102783203125
3.81466531753540039 12.8456411361694336 39.4477043151855469
-3.19695901870727539 42.7493171691894531 12.3016786575317383
2.0567939281463623 -12.5251798629760742 36.0643501281738281
-3.6869957447052002 -13.9715166091918945 27.0387306213378906
-1.93197727203369141 -1.62745368480682373 35.4337882995605469
8.75969791412353516 16.8361320495605469 36.4217453002929688
-3.05707979202270508 39.771148681640625 22.7571182250976562
8.96050071716308594 -3.56084847450256348 -43.9722099304199219
-4.64129304885864258 -26.3089370727539062 -25.5603771209716797
6.05861425399780273 -50.409454345703125 16.5431747436523438
-3.3211979866027832 6.24811792373657227 -55.4196739196777344
8.66822338104248047 -13.1680688858032227 -32.2253799438476562
-2.56376791000366211 -4.79085302352905273 31.7000102996826172
-5.22438526153564453 -10.1304798126220703 -0.935655772686004639
-3.66346621513366699 14.3900775909423828 25.3061065673828125
-4.38494682312011719 22.4235439300537109 -7.07638072967529297
6.79588842391967773 26.2607593536376953 37.2762184143066406
-1.52310144901275635 -8.17794704437255859 -44.7582778930664062
-2.67299985885620117 18.0117015838623047 31.0575809478759766
-5.00454902648925781 -14.1521987915039062 -17.8056926727294922
7.35783815383911133 -1.20450854301452637 -7.97908449172973633
8.56318950653076172 33.0534782409667969 33.9666938781738281
-3.72800445556640625 25.6927833557128906 21.5746822357177734
6.282470703125 -27.0528469085693359 -6.94574546813964844
-0.453228384256362915 24.3602638244628906 34.7634010314941406
11.3003826141357422 12.8338756561279297 4.59446096420288086
-2.9241483211517334 18.8521823883056641 -45.5510139465332031
1.87267303466796875 -49.236083984375 -1.05200290679931641
-3.74298810958862305 19.5358695983886719 35.4586639404296875
8.08526897430419922 7.88277959823608398 37.4953651428222656
4.70968818664550781 -31.7297840118408203 29.1005706787109375
12.1893806457519531 11.1300392150878906 24.5420322418212891
3.88819241523742676 -18.8766345977783203 -13.9483890533447266
12.1448593139648438 15.9902763366699219 24.7218799591064453
-2.06725549697875977 43.7656669616699219 26.2195377349853516
1.084969162940979 9.35044670104980469 38.9119300842285156
-4.40752506256103516 14.2779626846313477 1.95391559600830078
-4.37327003479003906 15.1466817855834961 15.5606794357299805
9.19224452972412109 -54.455474853515625 3.8006594181060791
8.45902919769287109 -5.90693330764770508 -14.0940322875976562
6.17397975921630859 24.7682533264160156 37.9165687561035156
-4.38417720794677734 7.95928955078125 1.12196838855743408
-4.12163877487182617 -11.4747524261474609 24.3929481506347656
-3.30553698539733887 14.9421882629394531 -27.6944522857666016
11.0984373092651367 4.13761234283447266 0.839647650718688965
4.77213430404663086 29.2421360015869141 14.9760951995849609
6.9100189208984375 24.9376869201660156 17.8636665344238281
-4.10889768600463867 -16.2038860321044922 -26.7597618103027344
-0.00077125930693000555 23.2848701477050781 -42.2719230651855469
-2.18385958671569824 -18.3248100280761719 -35.153656005859375
11.5770168304443359 -42.4976768493652344 15.98345947265625
1.9708864688873291 -59.7731704711914062 6.17127227783203125
6.98724842071533203 -21.5075416564941406 6.93365955352783203
-0.965696156024932861 18.39471435546875 38.3185539245605469
-4.24769783020019531 1.96674752235412598 -1.60137617588043213
-2.93078160285949707 3.21402382850646973 -52.5223922729492188
-4.77008914947509766 -1.67786717414855957 9.54853534698486328
11.421992301940918 -32.9765739440917969 23.266937255859375
5.55367898941040039 -18.1853580474853516 -9.86233139038085938
-3.08738446235656738 30.3257732391357422 -20.2572822570800781
8.09013462066650391 34.8009262084960938 31.5807380676269531
-3.74013519287109375 34.3572158813476562 13.1854686737060547
2.47115516662597656 -10.861424446105957 -41.8700523376464844
9.20056819915771484 21.6988849639892578 -37.848602294921875
-4.13593292236328125 -29.8529109954833984 21.3142223358154297
-4.504638671875 -8.12888813018798828 18.9790267944335938
12.5419187545776367 -15.9399604797363281 0.035738874226808548
9.95199394226074219 -51.0004730224609375 0.716409504413604736
10.3303775787353516 -41.94598388671875 -3.12029600143432617
7.14051389694213867 30.1947803497314453 16.2648181915283203
6.80572938919067383 3.51487851142883301 -38.59979248046875
-1.07238805294036865 36.3561325073242188 34.9306144714355469
12.7492504119873047 1.75229597091674805 24.3255462646484375
-4.94725656509399414 -14.4776592254638672 -18.5800228118896484
-1.86324417591094971 -40.6434211730957031 20.7310314178466797
0.716471254825592041 31.2982425689697266 -18.3440513610839844
1.07094502449035645 7.43646574020385742 -57.0870170593261719
5.22733211517333984 21.3670310974121094 17.0234298706054688
2.19912385940551758 46.694183349609375 16.648956298828125
6.55462789535522461 19.7145709991455078 -31.3344783782958984
6.79485511779785156 1.37976765632629395 -35.4024848937988281
-5.08708286285400391 -18.0212631225585938 -8.06805992126464844
1.26075756549835205 44.8608245849609375 15.0831317901611328
6.78966665267944336 37.8221282958984375 -1.91702914237976074
3.56793022155761719 28.8703689575195312 -23.7709846496582031
-4.72007656097412109 -4.24801445007324219 -20.4635543823242188
2.93364119529724121 46.9383468627929688 27.7893848419189453
-4.7861485481262207 -37.3441123962402344 13.8175296783447266
-3.50979065895080566 32.2489891052246094 21.9709072113037109
-5.08231019973754883 -43.0960655212402344 -7.29649257659912109
-5.54896163940429688 -28.0284805297851562 -15.2709522247314453
11.8021526336669922 -42.9416656494140625 11.1939506530761719
-5.24311923980712891 -12.2552595138549805 -9.41877460479736328
9.40733528137207031 0.775531649589538574 -45.4166259765625
-3.34066128730773926 -54.9034080505371094 4.1509861946105957
-4.52691268920898438 -8.34425449371337891 15.8022270202636719
11.8941135406494141 21.2216625213623047 -16.9362392425537109
11.9176044464111328 13.1465463638305664 31.2109813690185547
9.79174327850341797 -26.8239231109619141 9.28525638580322266
7.26619529724121094 -19.2886371612548828 -15.748687744140625
-5.18613195419311523 -17.4219341278076172 -10.2400598526000977
-3.68336153030395508 -14.2915859222412109 26.5702095031738281
-1.3614952564239502 -56.8616828918457031 4.85438680648803711
4.69669580459594727 38.1451988220214844 6.88752985000610352
12.4285945892333984 -27.7445964813232422 3.16931843757629395
12.2936515808105469 -33.946258544921875 5.20753288269042969
9.81044101715087891 15.1453170776367188 13.7713584899902344
-2.41701316833496094 -18.8302955627441406 29.1866893768310547
-5.35807371139526367 -12.3076496124267578 -5.90561246871948242
9.06398200988769531 -18.6715641021728516 6.70061349868774414
12.5641574859619141 -34.0052642822265625 3.84419703483581543
7.35897541046142578 34.5852012634277344 -14.7906589508056641
4.97075223922729492 20.9114112854003906 -39.6724586486816406
13.6544628143310547 13.3390045166015625 -21.5734367370605469
11.3683500289916992 18.3468265533447266 11.0763311386108398
6.87167882919311523 7.42025089263916016 -29.3565006256103516
6.50939702987670898 42.9630393981933594 33.3364219665527344
2.06106138229370117 37.6799964904785156 35.5915298461914062
10.5809879302978516 10.8161840438842773 4.06069469451904297
9.15727138519287109 -3.97004604339599609 8.57755184173583984
6.46328544616699219 -55.4136734008789062 12.0470390319824219
12.2198648452758789 17.391510009765625 25.3097305297851562
4.04931497573852539 9.6939544677734375 -10.8743762969970703
4.56160974502563477 -7.36612129211425781 7.48215484619140625
-1.11300599575042725 -29.6718730926513672 -22.7754859924316406
10.7759132385253906 -34.3206558227539062 -6.31357860565185547
5.83329153060913086 -30.7334384918212891 29.0236778259277344
12.3197002410888672 -0.326710671186447144 16.6279010772705078
9.94256591796875 41.7342491149902344 23.7061691284179688
-2.54996919631958008 19.3211765289306641 37.0884437561035156
6.58701705932617188 6.26125574111938477 9.48245811462402344
-5.37525177001953125 -20.6101779937744141 -2.28967499732971191
7.72612142562866211 -23.8707771301269531 -5.76822566986083984
5.69105720520019531 -26.4047107696533203 31.1691951751708984
14.5946826934814453 -20.6082954406738281 21.3605442047119141
8.97523021697998047 10.4915275573730469 35.2087478637695312
-3.68787240982055664 1.04394865036010742 -44.2328147888183594
-4.8020930290222168 -5.5016016960144043 -24.1418476104736328
-4.60928201675415039 -20.3256721496582031 10.1463241577148438
-0.379690498113632202 8.70937728881835938 35.6236419677734375
0.238063931465148926 38.8485145568847656 34.9909934997558594
12.5754299163818359 17.7089939117431641 -16.4072151184082031
4.35888147354125977 8.88595676422119141 -23.9670162200927734
-4.05019950866699219 26.1598300933837891 16.20721435546875
7.23928356170654297 -41.8420600891113281 21.4976806640625
-3.42694306373596191 -39.5831451416015625 18.6888599395751953
7.29350376129150391 -24.5426216125488281 -23.4686126708984375
-1.17568099498748779 -18.6001548767089844 33.2033882141113281
-5.33677005767822266 -20.1134471893310547 -23.8859405517578125
13.24072265625 0.314682453870773315 27.4621753692626953
11.575347900390625 -10.631321907043457 -0.841494262218475342
5.98358631134033203 36.1446418762207031 35.862274169921875
9.22516632080078125 -8.89539623260498047 -9.36300849914550781
-2.03094911575317383 45.1764068603515625 25.4883899688720703
7.61078071594238281 7.18122529983520508 -55.3653984069824219
-1.05815362930297852 1.89342248439788818 -56.7472305297851562
6.83214044570922852 -4.7093806266784668 37.0764312744140625
-4.35603857040405273 13.8997182846069336 -4.17512941360473633
10.7830419540405273 -35.6139755249023438 8.94081592559814453
6.55292701721191406 3.74329757690429688 -24.5096073150634766
-3.89910888671875 25.3849048614501953 -0.212702006101608276
8.76652622222900391 47.0883941650390625 20.4898967742919922
6.37343692779541016 31.5611381530761719 16.300567626953125
-2.49995684623718262 40.3258209228515625 24.563232421875
-0.461725413799285889 36.5433807373046875 35.2712287902832031
11.6932430267333984 -6.45497274398803711 0.307382285594940186
2.20733070373535156 -4.34975337982177734 -48.0966224670410156
4.78562498092651367 -7.74393939971923828 -21.0684490203857422
-3.55496692657470703 16.2283058166503906 -57.6908836364746094
-4.46418428421020508 -32.3625755310058594 14.7707901000976562
9.35484790802001953 2.67930698394775391 -43.8725852966308594
-2.30570864677429199 -4.11379241943359375 -50.5547599792480469
-0.777343273162841797 4.61431503295898438 -58.9658432006835938
4.3815150260925293 -17.6813888549804688 -11.9359006881713867
-3.92984962463378906 -1.59526431560516357 -36.2094841003417969
-1.49162650108337402 -34.3225135803222656 25.2149848937988281
0.212765201926231384 38.2272987365722656 -0.0952787920832633972
-5.40716123580932617 -20.0774631500244141 -2.85796785354614258
6.58955669403076172 26.8828907012939453 -23.2880134582519531
12.3288917541503906 -16.6005115509033203 19.455963134765625
3.38771152496337891 6.79280900955200195 -55.3930778503417969
9.22537517547607422 25.3841800689697266 -19.8740081787109375
6.7770075798034668 18.6479244232177734 -32.7166557312011719
13.2380571365356445 18.7018203735351562 -3.86906623840332031
-3.94350314140319824 0.694303333759307861 -31.2716522216796875
12.5135726928710938 19.9535942077636719 -10.009638786315918
-4.17946672439575195 11.6956510543823242 -12.7390899658203125
-2.78886985778808594 13.0875072479248047 -40.259307861328125
0.119405932724475861 -32.2255439758300781 -20.3198146820068359
-1.79065656661987305 28.6560764312744141 34.5974159240722656
-2.72657585144042969 13.0692338943481445 -56.2191658020019531
2.35612821578979492 11.4612483978271484 -52.1281852722167969
-0.676317572593688965 -37.5790824890136719 24.1136112213134766
11.4843063354492188 -33.2804222106933594 22.9974403381347656
12.6876201629638672 -35.8164176940917969 0.55791926383972168
2.88969135284423828 11.1230831146240234 -39.9357948303222656
11.5558252334594727 9.32637691497802734 -26.9610214233398438
7.86731052398681641 -26.8018627166748047 -20.3530445098876953
-2.37987518310546875 42.7878189086914062 25.4846057891845703
-1.09109652042388916 4.56889724731445312 36.8555831909179688
8.41747856140136719 15.1797361373901367 36.8526039123535156
-3.83726358413696289 -14.3146448135375977 -37.7623977661132812
7.2934269905090332 -11.3612833023071289 4.44624423980712891
-5.79534387588500977 -30.8894271850585938 -5.83971500396728516
11.5639476776123047 -38.7780723571777344 -3.12691640853881836
1.08063030242919922 40.5204200744628906 7.17659330368041992
1.50214076042175293 -30.1332340240478516 -21.4179668426513672
0.756551504135131836 -23.6384181976318359 32.2857398986816406
-1.75446915626525879 10.2705087661743164 33.6847305297851562
-0.348047912120819092 6.87974309921264648 -60.1352729797363281
-4.88896369934082031 -0.869028985500335693 -8.2533416748046875
4.28334569931030273 -45.2443618774414062 -5.33501768112182617
-4.71075773239135742 5.53337621688842773 -5.51471233367919922
-4.12950372695922852 13.9700107574462891 -19.592742919921875
6.08135223388671875 1.611366868019104 -22.5146465301513672
0.975820779800415039 -1.0863877534866333 -51.1077117919921875
4.21425485610961914 24.9879856109619141 -7.78003740310668945
-4.58356475830078125 -4.73614740371704102 -4.4230189323425293
14.231867790222168 14.0607585906982422 -20.9919815063476562
-3.80370354652404785 23.4220771789550781 20.8052787780761719
10.4302597045898438 14.9102907180786133 21.2300167083740234
-2.68797636032104492 15.0385656356811523 -53.7731666564941406
3.53659415245056152 11.4602031707763672 -55.0820655822753906
-2.71887445449829102 43.3045539855957031 12.0256538391113281
9.917724609375 34.8580398559570312 29.0716800689697266
1.87998485565185547 30.5508594512939453 -20.6010932922363281
7.46826648712158203 5.93491840362548828 -25.2759647369384766
-3.65438103675842285 -17.0422286987304688 -25.8541927337646484
-4.68719100952148438 -35.3394088745117188 7.86145544052124023
9.30712223052978516 -30.9094676971435547 26.6248455047607422
-3.62569785118103027 11.7956809997558594 -36.3736915588378906
9.44579315185546875 -24.8733615875244141 -1.21187984943389893
-4.07925510406494141 15.7654695510864258 -20.23406982421875
6.88859176635742188 31.9325332641601562 15.665278434753418
-4.35071325302124023 17.5289764404296875 -51.42138671875
13.9885616302490234 13.8401346206665039 -20.7689456939697266
-0.392144650220870972 36.5000534057617188 -3.55987143516540527
8.70094585418701172 14.3714094161987305 19.3141651153564453
5.47989702224731445 10.2822818756103516 -23.7679672241210938
-2.18042922019958496 20.7211341857910156 37.3539657592773438
-4.42665719985961914 -9.2337799072265625 -26.0478248596191406
1.37216734886169434 44.3554763793945312 31.0650920867919922
-3.96907329559326172 -4.35760211944580078 -43.2551612854003906
13.4598512649536133 -12.3450307846069336 22.5362319946289062
6.49149608612060547 3.28859639167785645 -26.0464267730712891
-4.31033945083618164 17.6780281066894531 19.0916423797607422
-1.7799835205078125 6.99345731735229492 -63.3362464904785156
5.64747047424316406 -21.0165309906005859 -29.4886951446533203
8.96007156372070312 6.01215362548828125 -46.053375244140625
1.04950249195098877 9.21475124359130859 -62.1264190673828125
4.89820432662963867 37.3132286071777344 3.14457893371582031
10.9581451416015625 -44.3375244140625 2.49106812477111816
5.57294893264770508 -41.77679443359375 -8.28495311737060547
12.4203004837036133 -14.7048101425170898 0.740826249122619629
12.4885978698730469 -8.06926822662353516 21.3271942138671875
-4.14065790176391602 5.8791508674621582 -15.267033576965332
-3.79053950309753418 28.9793319702148438 -3.37075686454772949
2.16829109191894531 -59.2415618896484375 5.51218795776367188
6.11646175384521484 14.5030746459960938 -29.5029220581054688
-3.26310110092163086 10.624908447265625 -52.2596435546875
0.318262219429016113 47.4925041198730469 23.9083442687988281
-2.64706087112426758 13.9075098037719727 -50.8640937805175781
14.5330295562744141 -20.0611171722412109 24.7674064636230469
-1.92193102836608887 -42.7287788391113281 -9.414306640625
9.42756175994873047 -37.3105392456054688 23.1018753051757812
-5.86105489730834961 -40.4085502624511719 -4.42271709442138672
2.8736271858215332 17.4737968444824219 39.0230522155761719
1.88995766639709473 6.22697687149047852 38.9476394653320312
-1.53157413005828857 1.10490059852600098 36.2312736511230469
11.8618640899658203 -10.8086528778076172 0.00735564529895782471
5.57812118530273438 -32.3763236999511719 -17.3249359130859375
-2.60676813125610352 -28.6406135559082031 25.7246360778808594
9.54002571105957031 -49.9415168762207031 0.686092138290405273
8.98507022857666016 32.1114654541015625 31.5207443237304688
0.744312047958374023 -31.0968132019042969 29.0767555236816406
-5.88977670669555664 -29.9790191650390625 -4.60724687576293945
-4.34332847595214844 16.9141998291015625 -53.0001602172851562
5.21618127822875977 -16.410430908203125 9.79206371307373047
12.4875974655151367 1.56639289855957031 23.7873268127441406
-4.34116315841674805 19.1299400329589844 4.78406286239624023
13.8771934509277344 15.7868986129760742 -22.7757339477539062
-2.27994203567504883 41.1873855590820312 28.1219367980957031
3.31604886054992676 8.02558517456054688 -56.1621894836425781
-2.90337920188903809 19.5533905029296875 36.6510238647460938
12.0324544906616211 22.9950981140136719 28.7101116180419922
12.6844205856323242 -10.7687206268310547 29.1081733703613281
-2.57225179672241211 17.7433490753173828 -49.8462486267089844
10.5784320831298828 -10.4891653060913086 -11.6167230606079102
-3.57079076766967773 -41.9029731750488281 -10.3231105804443359
4.42899084091186523 -44.5896110534667969 21.7207546234130859
0.739623188972473145 -33.3763542175292969 -18.9724693298339844
-3.24535918235778809 -21.9058685302734375 29.2073650360107422
-4.83398962020874023 12.1646566390991211 -6.35501432418823242
-4.70943975448608398 11.3052310943603516 -7.95610904693603516
7.77397966384887695 13.4976806640625 -30.4596996307373047
-4.20250606536865234 -27.1177978515625 11.9173803329467773
-4.25872182846069336 18.6555004119873047 11.8729887008666992
10.7370548248291016 -44.5018043518066406 16.2727279663085938
11.7926855087280273 26.3304328918457031 -13.7431230545043945
10.1967687606811523 -40.7121772766113281 -4.68016242980957031
-1.39898407459259033 28.3443126678466797 -28.8231048583984375
11.7782936096191406 -14.9250288009643555 4.45125007629394531
9.65464591979980469 12.5975351333618164 -31.8591060638427734
-1.77198076248168945 10.5087671279907227 33.6146774291992188
-4.45132923126220703 -12.4724035263061523 18.8048515319824219
11.8205623626708984 -34.0294876098632812 -3.4210205078125
0.793179690837860107 28.3717823028564453 37.2795562744140625
-4.64689064025878906 -2.25102591514587402 -20.6323871612548828
-2.40253782272338867 21.1839199066162109 -22.1561622619628906
-4.18505144119262695 2.41858839988708496 -30.3251056671142578
-2.24006795883178711 38.4540977478027344 28.5873947143554688
-4.35121917724609375 -33.3882217407226562 -16.9031791687011719
4.5697174072265625 -9.02930164337158203 -43.6165351867675781
-3.40008378028869629 31.0619697570800781 18.298492431640625
-3.13627243041992188 9.9312744140625 -51.6861953735351562
-2.3639681339263916 30.5493259429931641 30.4681644439697266
7.53401422500610352 13.7865381240844727 -16.1709175109863281
11.279078483581543 -43.8726997375488281 4.29504680633544922
3.63746905326843262 -6.79780006408691406 6.54306459426879883
5.63528585433959961 22.5830345153808594 38.5427360534667969
5.34856128692626953 18.8456306457519531 -37.4366989135742188
0.311972171068191528 -12.6479349136352539 -40.4716033935546875
0.487881243228912354 6.28320884704589844 -59.35504150390625
13.0435523986816406 19.7553691864013672 0.407941251993179321
6.51627302169799805 18.1786289215087891 -27.3252315521240234
4.89950180053710938 26.1277256011962891 -6.04062652587890625
7.36418676376342773 -18.0079021453857422 -15.456110954284668
12.2315731048583984 19.9944591522216797 -17.382232666015625
5.28890848159790039 0.0498077757656574249 -30.8634414672851562
6.27823257446289062 13.9177618026733398 -43.4815330505371094
-3.58290290832519531 -1.98504388332366943 -48.8934326171875
-4.0674290657043457 -22.8913860321044922 24.1261978149414062
5.62009763717651367 29.6785621643066406 17.2281246185302734
-3.74995636940002441 30.2653732299804688 -16.9343013763427734
3.11843037605285645 3.53233599662780762 -54.9504814147949219
2.60576295852661133 -49.42376708984375 -0.799907088279724121
-1.70309019088745117 -39.3833274841308594 22.8386402130126953
5.83058595657348633 -7.78748846054077148 -25.9336032867431641
-1.80505597591400146 -26.2065944671630859 -25.7516632080078125
11.4812488555908203 17.9637947082519531 -23.3945426940917969
9.59032249450683594 26.5374660491943359 17.188079833984375
10.5969276428222656 -54.9214668273925781 7.38544464111328125
-2.31392788887023926 -42.2560386657714844 -9.87387180328369141
10.8123102188110352 23.9833164215087891 18.2339210510253906
5.61958885192871094 49.7136688232421875 22.7263565063476562
-3.13711237907409668 10.8910436630249023 -44.9760513305664062
-3.36091327667236328 33.3530998229980469 18.9774036407470703
-0.0179539285600185394 -32.5371170043945312 -19.9245491027832031
1.20153987407684326 16.0645160675048828 38.8911514282226562
-3.7870936393737793 4.68751811981201172 -60.5018806457519531
12.6496992111206055 16.1243762969970703 -5.32634258270263672
8.09088802337646484 2.98875951766967773 -50.1923561096191406
-1.13513696193695068 34.7447052001953125 32.3421783447265625
9.5512847900390625 -1.0274198055267334 -40.7953262329101562
1.62546908855438232 -54.3802490234375 14.4976339340209961
11.75244140625 -18.8823146820068359 4.68281936645507812
-3.61263704299926758 15.4021539688110352 -34.5447883605957031
-2.84295988082885742 37.6403083801269531 26.5937595367431641
4.89337491989135742 8.41454219818115234 -16.8925857543945312
10.7208042144775391 15.3873968124389648 -23.3609428405761719
-2.9604494571685791 -9.1097412109375 -44.5177688598632812
2.22858619689941406 14.7062959671020508 -14.7077226638793945
8.151947021484375 4.08410024642944336 37.1988868713378906
7.84898805618286133 -43.7486343383789062 -4.9400634765625
8.97811794281005859 14.2673225402832031 15.3933391571044922
7.55269002914428711 39.4039192199707031 33.9779930114746094
-4.98421478271484375 -14.1558074951171875 10.2375621795654297
-4.23103141784667969 -6.64395236968994141 -31.2356433868408203
-1.65693080425262451 -41.0837478637695312 20.8043575286865234
-2.11564278602600098 -23.5594749450683594 27.9166488647460938
12.1728134155273438 11.0853395462036133 -1.87114191055297852
2.35105347633361816 14.372283935546875 -15.1410417556762695
5.00517988204956055 8.47051334381103516 -18.0431385040283203
0.427178859710693359 2.02179622650146484 -54.0941581726074219
3.83086037635803223 25.1933460235595703 -33.4957313537597656
2.06150078773498535 12.0914545059204102 -52.4451408386230469
8.72693920135498047 47.2967262268066406 24.849456787109375
9.07659339904785156 -10.1016368865966797 -34.3295974731445312
-2.66584205627441406 32.8353118896484375 34.5579261779785156
-0.687052369117736816 35.8926429748535156 32.6665573120117188
12.02685546875 0.900937974452972412 17.2397060394287109
-4.38310623168945312 -13.6487321853637695 19.2140483856201172
-5.96526622772216797 -35.8030052185058594 -2.53556323051452637
11.1363496780395508 5.68331575393676758 21.2053585052490234
11.9375324249267578 -8.57804775238037109 20.1649951934814453
10.2929487228393555 -14.6540641784667969 6.59936046600341797
10.6556882858276367 7.40553140640258789 18.0730571746826172
-4.87017202377319336 -25.9535121917724609 -20.8731575012207031
-5.43691539764404297 -30.0194511413574219 1.97844302654266357
0.681246459484100342 18.0480976104736328 -53.0421333312988281
-5.00680160522460938 -10.9786539077758789 -18.1339969635009766
11.28985595703125 -24.1011466979980469 27.6867694854736328
3.52239227294921875 10.3354978561401367 -12.8697824478149414
-5.65708637237548828 -37.7961082458496094 -11.1582250595092773
-4.15044116973876953 -23.4499130249023438 20.3866596221923828
6.88507652282714844 6.43264579772949219 -42.847015380859375
13.3292055130004883 -7.7153620719909668 26.8410377502441406
3.65808343887329102 -56.626922607421875 12.6269006729125977
4.11139249801635742 17.6691246032714844 -40.4690513610839844
1.95458400249481201 -4.27655887603759766 -48.115447998046875
-5.46687459945678711 -34.7383041381835938 -11.4805870056152344
5.86103582382202148 48.2446823120117188 15.7010116577148438
7.35148191452026367 -31.9666996002197266 -16.1997451782226562
-0.00432995986193418503 -43.3386764526367188 21.7563076019287109
-4.26929712295532227 -18.3189716339111328 14.0319662094116211
-3.94023466110229492 21.0610237121582031 -10.8203954696655273
-5.88975048065185547 -39.6936416625976562 -5.41816854476928711
3.35722994804382324 -18.7030754089355469 34.5078811645507812
-2.8054959774017334 44.5940780639648438 27.6265735626220703
4.95271921157836914 -0.455587148666381836 -20.1567516326904297
-3.29314088821411133 6.22508144378662109 -49.5485877990722656
9.53441047668457031 46.6199760437011719 19.7868251800537109
