ply
format ascii 1.0
element vertex 782
comment vertices
property float x
property float y
property float z
end_header
4.44822978973388672 52.3058547973632812 9.53367137908935547
8.07872390747070312 -19.9862632751464844 18.0851249694824219
14.5045070648193359 -1.34900462627410889 -9.80229091644287109
-5.85262107849121094 49.3115272521972656 -1.70305097103118896
-7.5167241096496582 33.2339248657226562 2.05313491821289062
-8.56569194793701172 8.70255184173583984 -15.0289163589477539
8.51678180694580078 -25.3624477386474609 -10.9332103729248047
6.29178762435913086 10.4095401763916016 32.593170166015625
-0.537456035614013672 19.5437641143798828 -31.61688232421875
1.52738118171691895 -33.5595474243164062 -31.7435111999511719
1.89398515224456787 -24.0859966278076172 30.2414073944091797
-4.30817699432373047 -32.1970634460449219 24.2614536285400391
-8.49755859375 -22.7593593597412109 -16.274139404296875
3.65804433822631836 43.0668220520019531 26.0101680755615234
8.76439571380615234 -4.23841428756713867 19.4917011260986328
-9.77483844757080078 -14.8842592239379883 7.67505884170532227
-7.93704366683959961 -28.6229572296142578 -30.3952827453613281
12.6522397994995117 21.6026611328125 12.6983356475830078
-7.31297445297241211 27.409881591796875 -5.36031579971313477
-8.63956451416015625 7.28431987762451172 -11.4965181350708008
-5.89173603057861328 -26.3648834228515625 -35.0440940856933594
-7.68510675430297852 -14.7695436477661133 -29.4146785736083984
1.41254246234893799 -36.7701034545898438 -23.5463676452636719
8.00864982604980469 49.7936134338378906 13.0908012390136719
-10.3791275024414062 -27.0438461303710938 -0.0364972278475761414
4.73670864105224609 57.731475830078125 18.4297809600830078
-8.13268089294433594 -9.72127056121826172 -36.633880615234375
13.5404367446899414 1.2458956241607666 -11.8447751998901367
7.53295660018920898 -39.6519927978515625 -8.20693206787109375
5.80210351943969727 -18.352264404296875 -35.4463005065917969
-0.732972860336303711 24.19281005859375 -24.8398666381835938
-9.31987285614013672 -9.545379638671875 0.723490655422210693
-4.09537696838378906 -42.0347023010253906 20.4475688934326172
-7.57943964004516602 18.2674999237060547 -26.1292266845703125
-10.5269765853881836 -43.582855224609375 -4.59924411773681641
-5.46093082427978516 7.2034144401550293 27.8566493988037109
-7.40309858322143555 19.7556114196777344 -29.6635169982910156
-6.89204835891723633 38.6779670715332031 15.3137483596801758
2.59989237785339355 -12.9125576019287109 32.4257545471191406
9.29456710815429688 -17.8266944885253906 21.9591884613037109
-9.86501026153564453 -24.7378139495849609 13.7744369506835938
-9.76656341552734375 -14.2058544158935547 -1.82822096347808838
-7.82915115356445312 10.6956548690795898 -7.80098628997802734
9.72246742248535156 20.5334491729736328 27.2519969940185547
-4.20487833023071289 -26.4465866088867188 -35.8093681335449219
13.96807861328125 -3.16269731521606445 -8.65300369262695312
-1.02560865879058838 41.5451583862304688 -7.68042325973510742
-2.58638334274291992 52.72821044921875 1.0272446870803833
8.83712196350097656 16.8697929382324219 -23.3594684600830078
-6.69570827484130859 32.7144813537597656 0.422061771154403687
6.73383808135986328 38.8609352111816406 13.257777214050293
14.0738620758056641 33.3775482177734375 -8.03616809844970703
-7.23174667358398438 35.2212028503417969 -8.96674251556396484
13.4588785171508789 32.2045707702636719 -12.7120885848999023
-3.29033446311950684 47.2313652038574219 21.3015632629394531
6.18968868255615234 4.36644506454467773 32.9783363342285156
-7.99996137619018555 18.1931324005126953 -9.46583080291748047
7.74366950988769531 40.44500732421875 23.8483409881591797
12.0867395401000977 -29.4351444244384766 3.32841014862060547
-9.05286407470703125 -36.0228500366210938 -18.5838222503662109
-4.92425251007080078 18.6484336853027344 26.5538101196289062
-6.96010065078735352 40.6234245300292969 3.95943689346313477
-9.03147602081298828 -6.64766550064086914 -26.6127643585205078
-2.96095085144042969 -11.7329635620117188 31.1779193878173828
-4.10029840469360352 40.1822395324707031 22.0402107238769531
-7.76098823547363281 2.04245185852050781 -35.2968101501464844
13.4413251876831055 -20.3696784973144531 -2.04581069946289062
-2.62175154685974121 28.5778465270996094 -20.1769199371337891
-5.47250080108642578 46.2775497436523438 5.59375381469726562
-9.83579921722412109 -23.6986522674560547 13.5596647262573242
-7.69132804870605469 15.5713300704956055 11.9293270111083984
12.9845924377441406 -5.39501142501831055 -7.42547988891601562
-6.40759801864624023 29.4824562072753906 21.1108722686767578
-6.35493850708007812 20.8369560241699219 -36.1521797180175781
8.25708198547363281 -29.2238311767578125 24.4908733367919922
-7.88408231735229492 -23.4128170013427734 22.1394252777099609
16.082672119140625 26.6717967987060547 -9.45172691345214844
2.4848167896270752 32.249176025390625 -16.1603832244873047
-3.65962719917297363 25.8664283752441406 -30.6521739959716797
-7.62509679794311523 2.53797626495361328 1.03911852836608887
6.9789118766784668 51.455169677734375 21.0487995147705078
-5.37850809097290039 -50.3094673156738281 5.29526138305664062
7.18748855590820312 -41.9527854919433594 20.3827590942382812
-10.1891613006591797 -41.7118148803710938 -0.408374398946762085
-2.93353557586669922 30.1518173217773438 25.0190334320068359
-8.96179389953613281 -2.99149155616760254 -1.63627147674560547
10.0122566223144531 34.5736427307128906 5.58358001708984375
-6.75058126449584961 30.1508216857910156 -22.2751007080078125
-6.00143623352050781 -48.0877037048339844 -4.65083980560302734
-2.02535653114318848 -42.9250297546386719 -12.9959135055541992
-7.79650211334228516 21.9581508636474609 16.9327163696289062
11.9816417694091797 -4.81611251831054688 -5.27992916107177734
-5.55814552307128906 45.9288215637207031 -5.53179502487182617
-3.88356852531433105 49.5945205688476562 18.8668556213378906
-1.48002350330352783 22.6843585968017578 -32.2426223754882812
7.87107563018798828 -34.7644424438476562 13.8477907180786133
1.70587849617004395 38.0286788940429688 27.5138206481933594
-7.41985368728637695 22.2739181518554688 -0.234097912907600403
-6.54911994934082031 37.5116996765136719 -5.68539142608642578
7.33908462524414062 -53.035430908203125 12.5484476089477539
5.38128662109375 -39.7727165222167969 13.0210533142089844
-2.12055134773254395 -46.4559516906738281 -3.9036860466003418
-2.76177597045898438 5.14566326141357422 -34.2867164611816406
-3.45233607292175293 -27.0692157745361328 26.8441219329833984
9.61266899108886719 -0.663474559783935547 23.0809574127197266
9.55465984344482422 25.4134654998779297 22.8701114654541016
-3.71488475799560547 -45.9029769897460938 19.5430259704589844
-7.45454120635986328 13.0247936248779297 21.58258056640625
-0.486154794692993164 48.3328819274902344 2.26123142242431641
3.00261569023132324 48.5619621276855469 2.64725303649902344
4.43372917175292969 29.5567302703857422 29.7672271728515625
-7.75866508483886719 12.3795576095581055 -28.8331298828125
12.7893505096435547 4.86266613006591797 5.07023811340332031
11.0140380859375 -11.872746467590332 -21.1811676025390625
-5.58515405654907227 43.1739044189453125 -11.0523738861083984
-6.46138286590576172 -33.4951362609863281 -24.8434219360351562
6.73219585418701172 -20.4011878967285156 -31.0838851928710938
10.1879177093505859 -8.28131198883056641 -4.57166004180908203
-9.79859256744384766 -45.8531150817871094 8.87281036376953125
-7.03116273880004883 26.2432785034179688 -22.2714271545410156
-9.15323829650878906 -33.1731758117675781 -17.6292686462402344
12.8201484680175781 -31.0783138275146484 8.18929100036621094
-6.00076580047607422 44.6464385986328125 17.3800868988037109
-10.496525764465332 -38.6911354064941406 -7.22243595123291016
7.45098114013671875 -34.6789436340332031 -5.78116035461425781
-5.33830404281616211 49.0486068725585938 17.7399845123291016
-3.38370442390441895 26.2143840789794922 -29.4277019500732422
-8.42597103118896484 1.83260679244995117 -22.6623649597167969
-1.8422996997833252 41.8531684875488281 25.3622455596923828
6.47847080230712891 8.89483833312988281 16.7209415435791016
11.6483993530273438 9.12131118774414062 -9.6066436767578125
-2.18422222137451172 -37.0214347839355469 24.8164501190185547
-2.66491913795471191 21.9691524505615234 -33.1671218872070312
-4.16290426254272461 35.5494651794433594 -18.7271690368652344
-5.85321140289306641 -41.4049491882324219 -15.0537004470825195
-4.0599207878112793 -5.06518411636352539 -34.7324104309082031
2.57909345626831055 17.4557647705078125 -29.7621479034423828
9.15312862396240234 33.2476730346679688 8.96989250183105469
-3.12190413475036621 -44.5586738586425781 -10.3470268249511719
-9.85090351104736328 -29.9158592224121094 -4.76857805252075195
3.36988449096679688 20.7615165710449219 31.0634040832519531
6.15686225891113281 -33.7229461669921875 -14.7181329727172852
-6.87522220611572266 38.4060783386230469 -12.9589090347290039
-8.38375473022460938 12.8606767654418945 -5.95689630508422852
11.5561428070068359 -10.8263092041015625 -2.92782425880432129
-9.75276279449462891 -24.0245151519775391 14.7388134002685547
-10.5356330871582031 -38.5774688720703125 0.386387377977371216
-9.00493621826171875 4.19051885604858398 -6.92705488204956055
10.0362014770507812 -9.69925689697265625 5.86313104629516602
-8.39687442779541016 0.543520569801330566 -34.0719985961914062
-8.12273788452148438 8.01917171478271484 -27.5509204864501953
8.84067916870117188 -4.18285655975341797 -19.2794532775878906
-10.6643381118774414 -38.49755859375 7.88266324996948242
7.57185935974121094 36.3574867248535156 26.0647926330566406
6.90484046936035156 -33.1302452087402344 -15.1796226501464844
6.58915567398071289 -43.3401565551757812 11.9739961624145508
-8.92447853088378906 -11.4978256225585938 -32.7658195495605469
-6.58053207397460938 29.04034423828125 -27.5784626007080078
14.0420074462890625 3.05306744575500488 -3.17737889289855957
1.85968482494354248 -31.0767726898193359 -29.0378360748291016
7.3781585693359375 -15.3690328598022461 18.0717964172363281
-7.33854961395263672 19.9725856781005859 -32.7400436401367188
9.49617481231689453 29.2709560394287109 20.3384799957275391
7.28304958343505859 -23.5747241973876953 29.2712650299072266
-1.56843650341033936 31.6358470916748047 25.8417015075683594
11.9038610458374023 13.4192333221435547 13.3550148010253906
7.12215328216552734 -1.97936534881591797 -31.0973091125488281
9.83731365203857422 0.12496880441904068 -14.8412237167358398
8.08858299255371094 39.0137367248535156 8.47171878814697266
13.0243654251098633 7.71284866333007812 -5.37998104095458984
-5.36045932769775391 -32.9950599670410156 22.7287349700927734
-7.07729864120483398 36.7082366943359375 -10.2278547286987305
-10.2412939071655273 -23.7091922760009766 -1.12196445465087891
-0.895550787448883057 21.0567035675048828 -30.3759098052978516
15.5384454727172852 23.5610198974609375 3.51105737686157227
13.5429878234863281 18.3862438201904297 2.40900611877441406
-6.4599757194519043 40.2805824279785156 -3.53630876541137695
7.04767751693725586 -31.9695892333984375 -7.08380651473999023
-7.18019723892211914 38.9224586486816406 1.82261383533477783
11.7348613739013672 9.13408374786376953 -8.04188060760498047
0.415336370468139648 -15.823887825012207 -36.6315498352050781
9.32806301116943359 -31.1177902221679688 -1.40739917755126953
9.53855800628662109 -24.5645771026611328 14.0160074234008789
9.05952262878417969 -1.4194716215133667 -16.9239101409912109
7.93211269378662109 -20.1510486602783203 -26.217254638671875
7.65359592437744141 36.303192138671875 16.8305511474609375
2.7510223388671875 5.28052091598510742 33.1348953247070312
-6.62337398529052734 -17.3352794647216797 -27.8839626312255859
2.22493195533752441 -35.41064453125 -26.8013668060302734
-1.71206724643707275 24.3062362670898438 -27.1892719268798828
8.19757938385009766 -6.74078273773193359 21.6985645294189453
-10.4258966445922852 -24.8406753540039062 6.09459924697875977
-7.61617898941040039 27.5932235717773438 0.890014052391052246
-7.35202455520629883 -51.48486328125 6.10090732574462891
-6.30834484100341797 32.2096138000488281 -13.9840574264526367
-8.99303054809570312 -11.4587774276733398 2.43860435485839844
6.82724428176879883 -46.4306678771972656 18.7774543762207031
-7.3124995231628418 10.1587371826171875 23.9708538055419922
-5.86216974258422852 40.3350448608398438 19.159881591796875
-9.29264068603515625 -46.5819664001464844 9.61862277984619141
4.62425947189331055 48.1952400207519531 2.00383996963500977
2.97657012939453125 -24.0447368621826172 -34.5057144165039062
6.75375175476074219 -1.23685169219970703 32.8202896118164062
1.72765660285949707 -10.0980014801025391 -33.3795356750488281
12.6889324188232422 10.8507347106933594 -0.14202454686164856
4.30581140518188477 -55.0971488952636719 17.2820949554443359
13.3206195831298828 15.0257720947265625 8.68504142761230469
7.09189653396606445 -14.5979938507080078 -22.9773044586181641
-1.01995468139648438 54.4703102111816406 9.55819034576416016
2.92724370956420898 -12.8067531585693359 32.4413833618164062
8.56775951385498047 52.4742088317871094 14.299957275390625
-3.48354220390319824 50.6458206176757812 19.1105937957763672
-2.61501193046569824 46.7094039916992188 -2.17630219459533691
-5.25698328018188477 43.7320899963378906 20.5265045166015625
-8.15097236633300781 12.7447795867919922 -22.1947422027587891
4.27375888824462891 -11.3953132629394531 32.9815483093261719
-8.54260540008544922 2.08297896385192871 19.3629245758056641
4.11370468139648438 -40.0776634216308594 -11.9898576736450195
7.70349454879760742 -38.1633186340332031 21.365570068359375
8.46861743927001953 8.54672050476074219 -29.6010532379150391
-9.98478984832763672 -42.2359695434570312 10.6287937164306641
-9.2678680419921875 -18.7289447784423828 -10.9254274368286133
-10.1070127487182617 -41.0579986572265625 -7.30092144012451172
-2.48280501365661621 25.0629482269287109 -29.4614734649658203
-9.49236202239990234 -13.9956159591674805 -6.41308069229125977
2.54733109474182129 16.4236545562744141 31.5980052947998047
5.08541440963745117 -38.9894371032714844 11.7379770278930664
8.48601245880126953 -30.9768218994140625 -16.8616180419921875
-5.82280492782592773 -50.0208396911621094 6.61344194412231445
13.8420963287353516 -0.914624989032745361 -5.32932186126708984
-9.24220561981201172 -7.86674976348876953 16.1157932281494141
8.6381683349609375 -24.5733222961425781 -17.9381942749023438
-8.27622509002685547 -19.6338596343994141 -36.1622810363769531
-8.57947444915771484 -30.2656974792480469 -27.8448905944824219
7.59556102752685547 29.5700969696044922 -17.92767333984375
-8.55473804473876953 -8.20538711547851562 11.2327871322631836
-9.76445770263671875 -15.1850862503051758 -1.71655368804931641
2.75447750091552734 23.4694957733154297 30.6472625732421875
-7.81445980072021484 -18.4091682434082031 23.0160560607910156
6.52847194671630859 35.868316650390625 -9.61380481719970703
-5.64971637725830078 11.3454399108886719 -34.1483192443847656
-6.59041833877563477 -19.3556327819824219 -24.4271564483642578
-7.75926971435546875 26.7985076904296875 -3.1613914966583252
-0.182746425271034241 43.9890785217285156 25.1139659881591797
3.33555483818054199 41.5560264587402344 -6.30030679702758789
-6.12679052352905273 43.374908447265625 17.4420623779296875
-4.91209173202514648 53.3843803405761719 5.5012054443359375
10.9707813262939453 33.9228897094726562 3.87727022171020508
10.5612411499023438 10.5454692840576172 -9.53666973114013672
10.3850259780883789 30.8570785522460938 9.98917484283447266
-3.98860430717468262 39.7414817810058594 -12.4202356338500977
-8.19260883331298828 -38.7901802062988281 17.5624160766601562
7.74404096603393555 -32.4057388305664062 -4.47315073013305664
-7.87424468994140625 10.2894134521484375 -30.198394775390625
-2.01405620574951172 36.8658599853515625 -15.2254714965820312
-7.28708982467651367 33.4232749938964844 -7.14227724075317383
-8.68911647796630859 -9.06824493408203125 16.7460117340087891
-9.85055637359619141 -16.7254467010498047 14.4515419006347656
-4.47204923629760742 -49.9194412231445312 -1.07242786884307861
5.65658998489379883 -22.6403598785400391 -32.1455345153808594
7.09631156921386719 -51.0295562744140625 14.9711933135986328
-9.98470211029052734 -23.8905010223388672 -3.31183457374572754
5.83072519302368164 46.6256103515625 11.9768466949462891
-0.505270540714263916 37.3106498718261719 -12.0200948715209961
7.2260589599609375 -22.2492752075195312 -29.0180549621582031
1.08008813858032227 -31.5608272552490234 -31.4852809906005859
0.93917769193649292 57.2130088806152344 18.5661468505859375
-9.06464481353759766 -15.758540153503418 -8.24701976776123047
10.5636711120605469 16.9620742797851562 25.0492458343505859
-10.4151372909545898 -40.3651161193847656 10.4387826919555664
-8.99957561492919922 -4.78339576721191406 -18.1783962249755859
13.3234138488769531 -5.31849193572998047 -7.87700176239013672
13.4542827606201172 -1.66866230964660645 -12.2401256561279297
-7.6608891487121582 14.1199970245361328 13.9180431365966797
-2.40550589561462402 -8.20571804046630859 31.5409011840820312
-0.0859653502702713013 28.0084438323974609 28.4610118865966797
1.06831133365631104 -41.0619316101074219 -17.3186759948730469
-5.9474940299987793 25.1110267639160156 -31.3968067169189453
13.0512571334838867 14.4495401382446289 3.28922915458679199
-4.97421360015869141 35.9479217529296875 -16.8693141937255859
-5.3650517463684082 19.8706645965576172 -34.6571502685546875
11.2365493774414062 -7.79447174072265625 -5.61320686340332031
2.67998600006103516 -52.0046043395996094 9.64191818237304688
15.7682857513427734 25.409515380859375 -9.6389617919921875
-10.1739091873168945 -36.1600112915039062 -10.3424453735351562
-7.26088714599609375 -12.2272710800170898 24.9277229309082031
13.6637840270996094 21.324798583984375 -19.7574939727783203
2.5316011905670166 -48.0479698181152344 21.5871715545654297
3.62904572486877441 -41.2762794494628906 -9.55546665191650391
-7.05349063873291016 28.0034427642822266 11.0736227035522461
6.41301584243774414 44.0893058776855469 10.4582080841064453
-6.58608341217041016 -23.0405158996582031 24.3697414398193359
5.96357631683349609 -57.2765426635742188 12.6503829956054688
9.24847126007080078 -6.48303461074829102 -18.6102371215820312
13.2102117538452148 17.7278270721435547 3.73862695693969727
7.31701946258544922 32.7200775146484375 16.4581871032714844
3.95081448554992676 29.8178234100341797 -17.2398700714111328
-8.62726211547851562 -3.51170802116394043 -35.0084648132324219
-10.4051647186279297 -39.2188644409179688 -9.37019824981689453
9.463165283203125 29.7656097412109375 21.3793411254882812
6.61325693130493164 6.16623973846435547 18.6437969207763672
14.5684747695922852 17.9446754455566406 14.350306510925293
6.98042440414428711 -18.0276260375976562 16.0898475646972656
1.70863044261932373 -38.6892929077148438 -16.1348819732666016
3.61473894119262695 45.649566650390625 -2.03067469596862793
9.56566238403320312 28.0714454650878906 19.809417724609375
-10.0922298431396484 -18.8421268463134766 7.67570590972900391
14.7625894546508789 24.8804264068603516 -4.57230997085571289
-7.11547279357910156 28.1945819854736328 11.2032623291015625
-7.0724186897277832 35.3771247863769531 11.1846990585327148
2.13447833061218262 58.3698997497558594 13.6763801574707031
8.56552028656005859 40.2929039001464844 6.09700632095336914
-7.88168811798095703 -2.23780155181884766 9.30497360229492188
13.3482332229614258 -24.5174388885498047 9.3279266357421875
11.1768455505371094 -2.61581993103027344 3.7418210506439209
11.7161388397216797 15.3283424377441406 -8.96435260772705078
-7.77169227600097656 25.4200954437255859 -8.24351310729980469
10.3275041580200195 -2.40264058113098145 28.297943115234375
8.16067600250244141 4.7181248664855957 13.8728818893432617
-3.31660795211791992 -42.7016716003417969 -14.8992242813110352
-6.84937715530395508 2.19550561904907227 2.97958016395568848
-7.03203678131103516 -46.3273468017578125 14.5958576202392578
15.6818113327026367 30.4784946441650391 -13.145939826965332
14.8736791610717773 -7.79265975952148438 -11.7660541534423828
-9.26924514770507812 -30.6818656921386719 -18.3509273529052734
-2.47645020484924316 -49.1907691955566406 11.6992568969726562
11.1040143966674805 -10.5583887100219727 -1.85059845447540283
8.73845386505126953 -27.4177398681640625 22.9926128387451172
3.14903378486633301 -41.7465667724609375 -5.42978620529174805
-4.02981233596801758 51.8670654296875 -0.399118602275848389
-7.69333314895629883 -15.6290092468261719 -30.9429607391357422
-8.84688854217529297 -5.52632570266723633 -2.99492764472961426
11.5650844573974609 12.9220752716064453 -1.38401317596435547
10.0733776092529297 -2.07572031021118164 -15.30731201171875
-8.00330352783203125 12.9562873840332031 -27.8472232818603516
9.82335853576660156 7.20887184143066406 10.9422311782836914
-8.95889854431152344 -9.99569129943847656 18.1002674102783203
-3.69700169563293457 33.3939170837402344 -21.7800426483154297
7.24759960174560547 -30.68170166015625 -7.84972620010375977
-2.85176301002502441 -2.75168538093566895 -34.9223976135253906
-0.787796497344970703 -36.8075180053710938 -21.6041183471679688
4.77250766754150391 -46.1821403503417969 21.6497726440429688
-10.5721807479858398 -42.7777824401855469 -4.75301122665405273
-9.89598846435546875 -22.1519145965576172 -6.66622829437255859
15.8307876586914062 21.3712539672851562 -14.6141881942749023
12.327880859375 16.0621013641357422 18.9702186584472656
-9.16039848327636719 -27.0676193237304688 -15.5782699584960938
-2.21626639366149902 -50.4915924072265625 14.6654872894287109
12.5483474731445312 -31.0292720794677734 8.69155216217041016
-9.79764461517333984 -23.0882587432861328 13.0903615951538086
-7.40005111694335938 28.3971080780029297 17.5231189727783203
13.6300287246704102 20.2472248077392578 -19.8867073059082031
-7.86465597152709961 -17.0767421722412109 -21.0123062133789062
1.56591534614562988 15.4438085556030273 31.6480007171630859
-7.9286961555480957 -0.858319103717803955 19.8541851043701172
-8.89893341064453125 -15.4360980987548828 -37.4627532958984375
-8.93976688385009766 -0.528373897075653076 -5.25426578521728516
7.11999177932739258 -46.2491989135742188 12.3205089569091797
7.55928182601928711 -9.29355716705322266 16.240478515625
8.68411922454833984 11.9875402450561523 -24.7981395721435547
13.1153221130371094 9.21618270874023438 0.279116541147232056
-6.06283712387084961 -37.7184371948242188 21.0193691253662109
-6.21545791625976562 -10.2354402542114258 27.7404384613037109
-7.6880640983581543 12.4486427307128906 17.1891689300537109
-6.48940420150756836 1.5128558874130249 7.08900213241577148
6.20716285705566406 -34.1066322326660156 -10.5461807250976562
6.7671504020690918 -16.64990234375 -31.0958042144775391
-8.79738712310791016 0.269086331129074097 -16.2459259033203125
-8.39711666107177734 8.41210651397705078 6.25217723846435547
-0.725819170475006104 -50.7785682678222656 11.8488388061523438
14.4246244430541992 18.9694080352783203 -20.4165554046630859
-7.24418973922729492 24.7782020568847656 -21.0295200347900391
0.980422914028167725 -35.0191650390625 -25.9874763488769531
7.27643013000488281 -41.5331306457519531 -9.48190784454345703
-4.50998449325561523 -35.1830406188964844 -23.9655685424804688
-8.56019496917724609 -8.01656246185302734 21.0728549957275391
13.1252040863037109 10.4632692337036133 -14.0994510650634766
7.13326787948608398 37.9306869506835938 25.93231201171875
0.162617027759552002 58.3147430419921875 14.1387748718261719
-7.68515348434448242 25.8240795135498047 4.33916378021240234
3.07599472999572754 11.4002885818481445 32.75537109375
-10.330042839050293 -41.5307388305664062 6.5248103141784668
8.00379180908203125 6.96388053894042969 13.9217672348022461
-10.6103487014770508 -26.9873905181884766 8.62595653533935547
12.8334054946899414 -1.13213503360748291 -12.8436183929443359
13.9791355133056641 2.14995765686035156 -10.9773006439208984
-8.09594154357910156 -24.8755931854248047 -11.3082513809204102
8.72182178497314453 1.03337860107421875 31.7194747924804688
5.01912069320678711 -34.5346946716308594 -22.0446262359619141
7.57575654983520508 -2.24588942527770996 14.7950515747070312
-9.96448230743408203 -40.0920982360839844 -6.19559907913208008
-3.46775627136230469 33.7024345397949219 -21.2145004272460938
3.3203120231628418 -43.1120491027832031 3.25918388366699219
10.3019008636474609 18.0351390838623047 25.6472988128662109
-7.00817203521728516 19.0170860290527344 -3.99412226676940918
3.95300078392028809 56.1800041198730469 19.6968746185302734
6.53958034515380859 12.4626293182373047 -27.8914165496826172
6.24690723419189453 -34.1238479614257812 -10.437744140625
-9.89691352844238281 -19.9061431884765625 -0.678121328353881836
-8.66957283020019531 8.43735980987548828 -14.2319974899291992
-2.21428561210632324 51.3974227905273438 3.36531925201416016
-8.28036785125732422 16.3663196563720703 -12.0285921096801758
6.78559970855712891 -10.4798593521118164 -25.3076019287109375
-7.45991039276123047 24.3279361724853516 -17.9003715515136719
-9.97075462341308594 -18.2638072967529297 16.1464557647705078
-8.66060924530029297 -7.33638620376586914 -32.9811058044433594
15.1248931884765625 25.8252639770507812 6.38796806335449219
-7.45734882354736328 17.8036289215087891 12.6929645538330078
13.6720685958862305 31.8685588836669922 -12.9904470443725586
12.8617725372314453 22.8183307647705078 -19.0314617156982422
-10.676152229309082 -39.4354362487792969 7.84579753875732422
14.3308143615722656 -15.1435680389404297 -4.19107341766357422
-6.0032649040222168 50.00006103515625 10.9799222946166992
-3.97302532196044922 56.5530166625976562 7.21747589111328125
-7.87106609344482422 -1.48729157447814941 -1.64862215518951416
-0.392794758081436157 50.326019287109375 22.2244186401367188
13.0526657104492188 19.3686599731445312 -10.0447168350219727
8.81131172180175781 -3.52288651466369629 22.2836456298828125
-6.89636993408203125 37.2751083374023438 1.80691277980804443
10.7850522994995117 -5.86512231826782227 -16.3323135375976562
-2.91771459579467773 34.6736526489257812 -18.4754047393798828
-6.2834620475769043 1.09148454666137695 4.28441810607910156
-2.84655642509460449 5.97996950149536133 31.0947399139404297
13.2437229156494141 33.6295051574707031 6.63531875610351562
-7.66644048690795898 28.2761802673339844 -8.19092464447021484
4.16966867446899414 -37.5292816162109375 -13.8574733734130859
-8.02070999145507812 10.6594114303588867 6.1504054069519043
10.2818050384521484 -21.2599277496337891 11.6551294326782227
-5.8837428092956543 34.7433319091796875 -0.414387971162796021
-9.11655044555664062 -49.0282173156738281 1.86207354068756104
7.63523054122924805 -34.1064262390136719 -4.9812464714050293
11.9749555587768555 10.3196687698364258 -12.130711555480957
10.8611574172973633 -25.8908176422119141 4.50815725326538086
-3.89227175712585449 46.0381050109863281 -4.10687541961669922
4.34550046920776367 -26.0064373016357422 30.1248569488525391
6.82651710510253906 43.7354927062988281 13.8083438873291016
-9.01504230499267578 -7.48942089080810547 -22.6746101379394531
7.52875518798828125 -44.8516120910644531 16.4785003662109375
8.91665935516357422 17.5333003997802734 -3.86369609832763672
9.16442775726318359 -1.90479362010955811 -17.1317996978759766
9.47298622131347656 35.6601943969726562 6.81058597564697266
-9.94506454467773438 -32.9029197692871094 -2.27255916595458984
2.4626469612121582 -51.9206695556640625 9.96039390563964844
-6.31458234786987305 42.656097412109375 -4.21788787841796875
6.81113004684448242 -46.3616256713867188 18.8926162719726562
-4.82186412811279297 17.3696479797363281 26.9125823974609375
8.28734016418457031 -8.40112495422363281 9.05142879486083984
-7.06419038772583008 27.3801593780517578 -16.7806663513183594
7.63451719284057617 -10.5486879348754883 13.3967761993408203
-4.3476719856262207 25.0587902069091797 -27.5584964752197266
9.11853981018066406 40.9948081970214844 -0.221051871776580811
-6.8807225227355957 -9.48074817657470703 -11.950469970703125
-9.8296356201171875 -19.5680255889892578 -7.03823328018188477
-6.87585878372192383 31.9520626068115234 -16.7573432922363281
7.89670848846435547 -31.6883506774902344 -19.0045566558837891
8.19732189178466797 48.7966651916503906 20.3854217529296875
6.07028627395629883 56.6227226257324219 18.7624664306640625
-8.62231254577636719 10.4903535842895508 3.14627265930175781
5.92215633392333984 -41.7467079162597656 1.05301845073699951
-6.78054094314575195 39.8294525146484375 15.8336095809936523
-8.34635162353515625 -24.0073413848876953 -20.6707839965820312
-7.40123224258422852 9.99840354919433594 -23.5941543579101562
7.61415243148803711 -20.9913902282714844 15.4569120407104492
6.42853975296020508 -25.1288299560546875 -27.6374034881591797
-4.57781314849853516 44.36151123046875 -5.36775636672973633
-0.466825217008590698 -28.9683761596679688 -36.9221382141113281
-7.90829753875732422 4.18785858154296875 -34.1338539123535156
-8.46951675415039062 13.3082847595214844 8.17524147033691406
6.89562797546386719 -14.482295036315918 15.5059900283813477
15.0511074066162109 28.4321537017822266 -1.27466857433319092
14.6074724197387695 21.5349102020263672 -18.7049770355224609
13.1950883865356445 -27.8363151550292969 8.3590545654296875
9.64928913116455078 -0.359974145889282227 -23.4712162017822266
-4.50550460815429688 25.0329246520996094 -33.3994827270507812
8.34956836700439453 10.9354867935180664 15.3894624710083008
-10.6349830627441406 -31.2551174163818359 1.85550785064697266
-0.587947726249694824 39.8735542297363281 26.6144599914550781
-4.87608194351196289 44.1874351501464844 -8.08952140808105469
7.57961559295654297 -43.3710060119628906 17.6542720794677734
9.69538211822509766 -16.8088150024414062 25.582916259765625
-7.33769083023071289 -45.2254867553710938 -9.0691070556640625
2.30685973167419434 -1.07227540016174316 -35.2055625915527344
4.82643222808837891 -18.8168373107910156 -36.1235733032226562
11.7686777114868164 -3.09360122680664062 -14.35784912109375
-8.88315773010253906 -30.8683757781982422 -12.2279977798461914
11.2895593643188477 32.2731666564941406 -13.9577293395996094
12.3471479415893555 15.9851474761962891 1.89207661151885986
11.9809579849243164 33.3649978637695312 -1.15334570407867432
-1.64106237888336182 43.4205055236816406 -5.34108209609985352
-5.12750959396362305 -13.5925407409667969 -35.9771232604980469
-3.89166688919067383 9.67154884338378906 28.8493213653564453
13.6375589370727539 9.13030147552490234 7.24646282196044922
-6.93377208709716797 39.9437332153320312 6.86537504196166992
-10.3107156753540039 -22.6781082153320312 7.32859086990356445
6.96964931488037109 -14.7931795120239258 -29.2081813812255859
6.92206239700317383 -38.5114288330078125 23.1123180389404297
-5.31204414367675781 43.1825942993164062 -8.46483802795410156
-9.33941078186035156 -28.7728137969970703 18.1699504852294922
11.1557168960571289 20.8426036834716797 -3.28851795196533203
-2.93667817115783691 -33.214324951171875 -27.0791072845458984
6.07220172882080078 13.380467414855957 -28.6811923980712891
9.32247447967529297 7.33256149291992188 11.4802455902099609
0.705829918384552002 17.39398193359375 -31.8829498291015625
-8.72249031066894531 8.22114181518554688 -10.6890373229980469
-5.94980001449584961 12.3230733871459961 26.5580711364746094
-6.65155124664306641 -17.4928321838378906 -27.8286819458007812
-7.24276256561279297 17.1568641662597656 -34.865203857421875
-7.00439071655273438 26.1201496124267578 -15.2209701538085938
-8.29519176483154297 8.00798702239990234 1.55362820625305176
8.34098625183105469 -18.7025203704833984 20.0433883666992188
9.21304225921630859 28.4054889678955078 24.0708904266357422
10.8163585662841797 -19.4212455749511719 -16.52252197265625
1.95592975616455078 -34.071868896484375 -29.4741992950439453
8.13885021209716797 -31.6250572204589844 -16.5141277313232422
-10.297703742980957 -35.2777175903320312 -7.49285554885864258
10.2490301132202148 6.67713308334350586 -24.9854831695556641
-4.27353715896606445 49.878448486328125 0.704179346561431885
9.54045581817626953 32.7318153381347656 -4.01574850082397461
-7.18313741683959961 27.8977432250976562 -19.5272674560546875
12.8604097366333008 -29.9645500183105469 7.43504142761230469
7.53293704986572266 -39.8096923828125 16.0685501098632812
9.191375732421875 32.0641403198242188 9.03644943237304688
-7.16863107681274414 3.18413662910461426 7.28781938552856445
12.3940935134887695 1.51532304286956787 2.47623682022094727
8.15085315704345703 -25.2965412139892578 19.6685218811035156
0.369395464658737183 56.0890846252441406 19.1036930084228516
-7.91181325912475586 9.85273647308349609 18.0036525726318359
8.95090007781982422 37.3915596008300781 7.45772266387939453
-7.56823110580444336 19.5232486724853516 -23.8408393859863281
-9.03951358795166016 -30.4616851806640625 -13.6542453765869141
-10.6505241394042969 -31.7834224700927734 3.18815732002258301
1.1043393611907959 -41.3363914489746094 -15.5635175704956055
6.74941778182983398 44.8111190795898438 13.3050994873046875
-10.2909488677978516 -41.7762870788574219 10.2131443023681641
-6.78829288482666016 -6.29553985595703125 24.1852817535400391
2.26943635940551758 23.5886764526367188 30.635955810546875
12.3313655853271484 29.3500804901123047 -16.4164276123046875
8.48887729644775391 -19.2124652862548828 20.3772029876708984
2.32775712013244629 -11.3928508758544922 -32.8805465698242188
-3.20464491844177246 -37.6556930541992188 22.3707122802734375
-3.68943238258361816 -29.1953239440917969 26.5319175720214844
9.01400375366210938 -11.3796806335449219 6.790374755859375
8.84016704559326172 -20.2952022552490234 20.8118515014648438
10.4283590316772461 3.77542877197265625 -25.1010894775390625
-5.30513381958007812 55.1841392517089844 9.80493354797363281
6.27406454086303711 57.5853233337402344 14.4457387924194336
4.48397302627563477 48.4648971557617188 2.71140694618225098
8.71639537811279297 35.0299415588378906 -10.0597047805786133
14.1357612609863281 -19.9111976623535156 -5.27844762802124023
7.17539024353027344 2.09541702270507812 20.6158847808837891
-3.11078906059265137 -6.67202138900756836 -35.4428939819335938
-6.22739648818969727 39.8350791931152344 18.4345970153808594
-8.61616134643554688 0.839255988597869873 18.8439559936523438
10.3683996200561523 28.1279182434082031 16.2627296447753906
-7.24944448471069336 -12.2843704223632812 24.8791942596435547
7.79232215881347656 -10.9630460739135742 18.2010211944580078
13.8809661865234375 17.9265689849853516 -13.5368595123291016
13.4108066558837891 6.93192529678344727 0.458747267723083496
-3.50303387641906738 -25.3681106567382812 27.2579097747802734
10.3259801864624023 -5.89249992370605469 6.06425285339355469
6.60958528518676758 43.5328140258789062 -1.74895703792572021
0.0410626605153083801 -52.2822685241699219 13.0584039688110352
15.6715211868286133 23.7403106689453125 -11.650299072265625
-7.44551897048950195 20.8723869323730469 -14.9844694137573242
-2.9707643985748291 -28.0019931793212891 -36.2637977600097656
-0.30742877721786499 58.8008041381835938 16.5519752502441406
9.26571941375732422 -21.1172885894775391 13.1667919158935547
15.2807846069335938 26.5802421569824219 -2.3273158073425293
7.80583763122558594 -26.3780479431152344 19.2207393646240234
5.7171778678894043 20.1630535125732422 -24.7170200347900391
13.625147819519043 15.0337162017822266 8.32464885711669922
-4.3151707649230957 -45.862579345703125 -7.76553201675415039
-10.7465753555297852 -37.8198585510253906 3.64022183418273926
-0.212775677442550659 -47.0730705261230469 -4.15897798538208008
-5.22188854217529297 -27.6130332946777344 -33.5216789245605469
8.39427947998046875 -3.30640721321105957 -21.7372150421142578
13.2825546264648438 26.6694736480712891 -16.8426799774169922
4.19330263137817383 -4.45440435409545898 -34.439697265625
14.099400520324707 14.4346628189086914 5.73997831344604492
-8.02572727203369141 11.4164447784423828 -27.8061027526855469
1.58039605617523193 -34.3205604553222656 27.2387294769287109
-7.59135913848876953 15.0229244232177734 -32.7693824768066406
-8.33539104461669922 -33.5399703979492188 20.0844535827636719
2.94030523300170898 -54.8180923461914062 17.9884414672851562
-9.91020488739013672 -14.8724164962768555 6.5684666633605957
-7.1277470588684082 12.6054277420043945 -35.9752922058105469
1.41651594638824463 -6.8361053466796875 32.7991600036621094
5.85165548324584961 44.34649658203125 12.9869823455810547
-6.49173831939697266 -50.0281829833984375 0.289131581783294678
-7.5698699951171875 27.2270526885986328 12.7914047241210938
5.97283649444580078 -32.8619956970214844 -11.4435205459594727
10.0312986373901367 15.287327766418457 29.5025005340576172
6.61764621734619141 43.3254470825195312 11.4465913772583008
6.5298771858215332 -18.1350936889648438 31.3922576904296875
9.74909687042236328 35.8532562255859375 -2.66262650489807129
-8.57227420806884766 12.9625959396362305 6.33971357345581055
-3.75977039337158203 55.1791343688964844 7.89867353439331055
-7.54186773300170898 -10.5140781402587891 -15.7256689071655273
14.2849245071411133 -16.1055202484130859 -12.5707464218139648
13.5272493362426758 26.33819580078125 10.5110130310058594
-10.5256433486938477 -40.5177345275878906 -2.09078240394592285
-4.46827936172485352 48.1439285278320312 4.36916351318359375
9.94374561309814453 9.91542816162109375 23.5378322601318359
-7.94625663757324219 17.3817253112792969 -9.35485649108886719
-3.60718750953674316 42.0525245666503906 -8.43346691131591797
7.18168210983276367 41.105010986328125 -3.70290422439575195
-0.175533667206764221 16.5687618255615234 -33.0660591125488281
-7.89815092086791992 13.6600761413574219 18.9931907653808594
10.5454874038696289 1.89786231517791748 27.8693141937255859
-1.8729703426361084 -45.1826515197753906 21.8302879333496094
2.86913251876831055 41.8089523315429688 -6.29135656356811523
-8.4472503662109375 -0.138584598898887634 19.4650382995605469
-5.05554866790771484 24.7266101837158203 23.9309463500976562
-9.06085300445556641 -7.96504402160644531 18.2772254943847656
-7.16333961486816406 -50.9506301879882812 3.59843277931213379
14.7283353805541992 19.3376369476318359 6.02315807342529297
-10.0485801696777344 -21.1136322021484375 4.79825448989868164
4.89235162734985352 48.5769844055175781 3.71457481384277344
7.59166908264160156 32.2070655822753906 14.9888925552368164
-10.0102043151855469 -39.8179664611816406 -4.57048892974853516
7.23166513442993164 -39.4440116882324219 4.87384033203125
-7.68001270294189453 26.1062755584716797 -2.97365641593933105
13.9472761154174805 32.781158447265625 7.28555917739868164
9.018585205078125 41.6600685119628906 19.9771232604980469
-10.4684457778930664 -33.2837295532226562 7.12146329879760742
6.9437713623046875 -9.82146739959716797 32.2600173950195312
11.1180391311645508 -11.5933122634887695 3.03354358673095703
-10.1662836074829102 -33.4886207580566406 12.1339111328125
7.0433192253112793 -20.5893020629882812 9.77242469787597656
-10.4585971832275391 -38.0677871704101562 10.212921142578125
7.72381782531738281 17.0888233184814453 -23.9526214599609375
-2.23860025405883789 -30.0972366333007812 -34.4891204833984375
-10.0165586471557617 -17.4707908630371094 -0.857233107089996338
-7.63988685607910156 -51.1249275207519531 -0.57658916711807251
-7.4621124267578125 19.0312633514404297 20.8844108581542969
13.5092964172363281 20.8420944213867188 -19.868743896484375
8.96611213684082031 -15.1513662338256836 29.0280723571777344
-0.0370730757713317871 27.6490707397460938 -17.6913776397705078
-6.22507286071777344 43.0503311157226562 9.32668495178222656
-8.06151962280273438 13.2125539779663086 18.2027854919433594
-5.42768764495849609 33.2613487243652344 -22.2703952789306641
15.4349708557128906 20.8683586120605469 2.53533363342285156
12.9362401962280273 -17.3532905578613281 1.68341398239135742
3.56820273399353027 27.1294288635253906 -18.9405364990234375
3.07670331001281738 -24.34136962890625 -33.7779617309570312
8.27634620666503906 -38.0977287292480469 7.02112579345703125
-4.41268396377563477 54.3610420227050781 15.5619010925292969
12.3145570755004883 23.7978096008300781 -18.7503871917724609
-5.87471580505371094 49.0898666381835938 11.2213459014892578
-9.12183761596679688 -5.2914576530456543 14.1122636795043945
-6.36650800704956055 47.8006553649902344 15.8938226699829102
-8.53826045989990234 -9.30296993255615234 -25.0975818634033203
15.3046550750732422 15.807098388671875 -16.9326534271240234
6.77621173858642578 -18.9729042053222656 30.9483604431152344
13.3979377746582031 6.31187629699707031 -12.5353841781616211
-10.4389305114746094 -43.0726051330566406 4.99283313751220703
-6.52442550659179688 -32.9757270812988281 -25.5571498870849609
-6.21061182022094727 18.2914199829101562 24.1902923583984375
-3.29121303558349609 55.3979415893554688 17.7789402008056641
12.0416364669799805 0.770617008209228516 -13.4153099060058594
-5.46614456176757812 50.24481201171875 8.00221443176269531
-6.25008964538574219 -7.69516181945800781 26.8605899810791016
-4.90284490585327148 42.1057243347167969 -8.51836967468261719
15.6100139617919922 32.0496292114257812 -8.69761753082275391
-8.68560314178466797 -25.7770462036132812 -31.0187129974365234
8.96038818359375 -2.99315118789672852 22.5794467926025391
-1.10605967044830322 -8.45835018157958984 32.1757164001464844
-8.78264331817626953 -24.7267990112304688 -19.7390880584716797
7.36819124221801758 -40.4638290405273438 15.5196399688720703
-0.773258566856384277 -9.58696079254150391 32.092254638671875
7.14398336410522461 35.4152984619140625 15.5240421295166016
-8.37326622009277344 2.39212679862976074 -25.7395992279052734
-2.26195788383483887 -8.62551975250244141 31.7037715911865234
-3.90595102310180664 55.8733673095703125 9.96868133544921875
8.35293197631835938 -26.1222953796386719 -17.2267131805419922
-8.27879238128662109 9.10522174835205078 -12.9992208480834961
4.5151371955871582 -26.0323925018310547 30.0920772552490234
-7.7301020622253418 19.5466842651367188 -20.0029106140136719
6.67419338226318359 36.9532394409179688 -6.05687475204467773
-7.83141899108886719 16.6766777038574219 -24.6829490661621094
-6.02620601654052734 53.2499427795410156 11.6875886917114258
-10.1067590713500977 -24.5094470977783203 12.6662368774414062
4.52002573013305664 -48.1855087280273438 20.8515510559082031
7.27834129333496094 -31.60595703125 17.3674297332763672
-7.24666881561279297 33.2170448303222656 -9.14786529541015625
11.6477270126342773 33.5969047546386719 -6.09661149978637695
15.4708518981933594 21.9474258422851562 2.07078146934509277
10.2411203384399414 8.739501953125 27.7531051635742188
-8.93924331665039062 1.0344398021697998 15.4222087860107422
-7.38433408737182617 17.9754238128662109 20.9822578430175781
-8.19903659820556641 3.8261268138885498 -29.9172382354736328
-8.31415653228759766 5.45395565032958984 -18.8755760192871094
2.68551445007324219 -41.45947265625 -9.50826644897460938
14.073582649230957 23.3624153137207031 -5.84997415542602539
8.85332298278808594 -2.40316104888916016 -21.1082706451416016
8.78533935546875 -27.2226638793945312 23.1089420318603516
7.73513364791870117 -23.1066913604736328 -24.6310997009277344
-6.7607417106628418 39.0943527221679688 14.5318899154663086
0.731198132038116455 24.1755886077880859 -21.7248802185058594
-3.77866721153259277 -18.5748100280761719 28.71856689453125
-8.25853443145751953 -1.49470555782318115 21.9468708038330078
-6.7085113525390625 -50.9476089477539062 2.54666423797607422
7.41364145278930664 -42.0612373352050781 19.7774906158447266
-9.98632526397705078 -26.8367404937744141 14.0949268341064453
-3.88195562362670898 -45.7503585815429688 -5.22876691818237305
2.67992424964904785 -39.3727569580078125 -14.0143299102783203
1.73883187770843506 48.2478675842285156 1.53481221199035645
3.45387578010559082 -8.83459377288818359 33.1031532287597656
-1.71994280815124512 56.6750946044921875 11.9697360992431641
-10.6194438934326172 -33.2533340454101562 -1.07119011878967285
8.59654998779296875 49.2303199768066406 18.5201511383056641
0.986179709434509277 36.7530364990234375 -13.1006994247436523
-8.72753524780273438 -4.61149454116821289 -33.8042449951171875
-8.82349586486816406 -26.9975547790527344 -8.2108154296875
-3.39745783805847168 -30.3495521545410156 26.4344902038574219
10.0829343795776367 37.1509895324707031 -1.59785306453704834
5.98263645172119141 -48.6534309387207031 18.9230060577392578
13.7012701034545898 20.4771251678466797 -19.629058837890625
-4.79075479507446289 32.958221435546875 -22.603759765625
-2.9876706600189209 33.9895095825195312 -19.2000370025634766
-6.48324441909790039 20.2110843658447266 -35.4645919799804688
-5.13526344299316406 50.1849555969238281 17.162139892578125
4.5064539909362793 -35.845428466796875 -20.0191993713378906
-10.0133848190307617 -27.1144008636474609 14.8146734237670898
-0.30759727954864502 -0.481362134218215942 32.7377090454101562
13.4661865234375 21.4066619873046875 -6.62022590637207031
14.0284872055053711 23.9314022064208984 9.50146770477294922
-8.35979175567626953 -24.7419910430908203 -13.4707431793212891
8.31980514526367188 -0.0254160426557064056 14.5337486267089844
8.22353935241699219 29.3526248931884766 27.2078838348388672
-7.29124069213867188 34.6911964416503906 13.3310308456420898
-8.78375625610351562 -31.0580101013183594 -11.8456821441650391
-5.1884007453918457 33.94635009765625 -23.2867755889892578
-9.09031772613525391 -30.2382659912109375 -14.3157119750976562
11.3555192947387695 -7.16727399826049805 0.881209969520568848
-8.70283699035644531 -2.50030422210693359 -23.9283504486083984
8.22880172729492188 -24.1833629608154297 -21.4714527130126953
9.04000282287597656 -21.1339206695556641 -20.1223430633544922
12.8828897476196289 -5.75450658798217773 -7.50932741165161133
1.48102128505706787 37.6606788635253906 27.5282096862792969
-9.50756072998046875 -8.83861446380615234 -2.22310519218444824
-4.39150094985961914 31.3265113830566406 -25.1126251220703125
-8.976593017578125 -49.1125526428222656 2.56980419158935547
3.26761174201965332 -13.7387266159057617 32.4576034545898438
-5.65457773208618164 -42.4446334838867188 -14.9887323379516602
10.3071622848510742 -15.0258102416992188 2.35367202758789062
13.2597570419311523 18.4870948791503906 -21.0004920959472656
-8.75956344604492188 7.14532375335693359 -13.1319456100463867
8.56927871704101562 -13.8684310913085938 20.071807861328125
-4.23374605178833008 -43.1399421691894531 20.9177284240722656
-6.66085910797119141 29.3143157958984375 -13.0647172927856445
-0.50798952579498291 54.0059280395507812 9.25642108917236328
-4.88780117034912109 45.8750686645507812 20.5787849426269531
-8.17741107940673828 12.6254615783691406 7.1275486946105957
-8.39169502258300781 -2.98643088340759277 -26.9156913757324219
-9.58831691741943359 -44.2437896728515625 -9.23609066009521484
8.39940166473388672 43.4872207641601562 1.14072859287261963
13.3432378768920898 4.4814753532409668 1.10394024848937988
8.27565479278564453 -1.07996118068695068 18.8291339874267578
-5.30183172225952148 47.5013542175292969 -4.79839181900024414
8.06671905517578125 -21.1711940765380859 28.9871425628662109
-6.66790103912353516 30.9699249267578125 -15.0913944244384766
-2.23395037651062012 37.9675483703613281 -12.3887109756469727
6.40953922271728516 7.56544160842895508 -32.6758232116699219
-6.51659440994262695 16.6094646453857422 -34.4630470275878906
13.8217563629150391 22.6027946472167969 -8.14159870147705078
7.8014369010925293 4.91964149475097656 14.7298202514648438
-8.71071720123291016 5.95945310592651367 -10.7046537399291992
11.5457687377929688 -33.2742500305175781 9.63543987274169922
-1.07765543460845947 -22.8078727722167969 29.9137554168701172
10.6204280853271484 -36.0175857543945312 -1.68462240695953369
-6.81787490844726562 -10.7701845169067383 25.0651493072509766
13.4085721969604492 -0.405599981546401978 -2.4162287712097168
-7.11732006072998047 -32.7084465026855469 21.6468105316162109
-7.67405939102172852 -11.6517953872680664 -25.0387687683105469
0.355200827121734619 26.3343734741210938 29.3990993499755859
-6.62272787094116211 42.7669258117675781 5.17916679382324219
9.9333343505859375 39.61529541015625 2.1998286247253418
-8.09354591369628906 21.1014842987060547 13.3090972900390625
12.3303756713867188 -36.8419303894042969 -0.701966524124145508
7.16732549667358398 36.2344932556152344 15.5866250991821289
6.47641897201538086 -23.8515205383300781 -29.1350193023681641
