ply
format ascii 1.0
element vertex 782
comment vertices
property float x
property float y
property float z
end_header
-2.18385648727416992 90.740325927734375 -25.79986572265625
-4.56422233581542969 -74.057830810546875 -11.5356473922729492
-1.13236725330352783 -73.18170166015625 -7.9887847900390625
-1.59478127956390381 -49.1181221008300781 -50.9111442565917969
1.49390757083892822 22.3799610137939453 50.4703102111816406
8.24165439605712891 -86.1548538208007812 45.4361953735351562
6.34231090545654297 -97.2481918334960938 24.6123199462890625
0.532281279563903809 25.4727039337158203 -2.80418157577514648
5.64337348937988281 -58.6808357238769531 82.30657958984375
0.507260262966156006 -49.0337486267089844 68.8306732177734375
-2.38655638694763184 -20.4227924346923828 -41.1961936950683594
-0.606937706470489502 -58.702392578125 1.04863119125366211
5.04396390914916992 -50.2931289672851562 -86.9527053833007812
-0.820756494998931885 -10.7299356460571289 11.7779254913330078
-3.69160079956054688 -63.2557716369628906 41.886016845703125
1.53432559967041016 13.112940788269043 72.8407516479492188
-1.3002626895904541 -80.4058151245117188 -2.98922204971313477
-6.23364019393920898 -28.2256526947021484 -77.057647705078125
0.215153753757476807 -16.8638839721679688 3.84597396850585938
0.366718500852584839 81.8817520141601562 0.196140870451927185
-0.440837740898132324 43.4925041198730469 -45.3245811462402344
0.162245035171508789 49.2442169189453125 -23.1866512298583984
-4.01719808578491211 -62.8662490844726562 50.7513961791992188
-4.00804615020751953 -1.89303791522979736 -64.2936019897460938
-3.02615189552307129 -29.7544002532958984 67.2745819091796875
4.05646944046020508 -49.8230705261230469 -87.727447509765625
-2.25879383087158203 91.2194671630859375 17.6895370483398438
8.87918186187744141 -74.0279388427734375 61.4319038391113281
0.345318973064422607 35.5111007690429688 -14.3890695571899414
-0.514725685119628906 -70.0279464721679688 32.9272041320800781
-6.34395122528076172 -11.2708501815795898 -83.112457275390625
-4.1149444580078125 -63.168243408203125 -26.1462364196777344
3.73991227149963379 -89.5398025512695312 1.66100919246673584
7.15152692794799805 -93.203125 -10.1038665771484375
-5.28392171859741211 -85.6042633056640625 16.0416049957275391
9.21449947357177734 96.2389068603515625 16.6114978790283203
-6.00641155242919922 -82.0293731689453125 -39.050750732421875
-0.369848042726516724 95.125457763671875 9.37673282623291016
-0.599158704280853271 -32.8534317016601562 -24.7883396148681641
7.78238677978515625 86.2697906494140625 -36.5821113586425781
-0.153728261590003967 -53.6303901672363281 25.4712314605712891
-2.52991819381713867 80.9061355590820312 42.6164131164550781
0.95065838098526001 45.0861587524414062 10.6854791641235352
-0.314478099346160889 -65.2537307739257812 38.7221260070800781
0.0215979982167482376 41.5596847534179688 -29.81231689453125
1.29261374473571777 29.3852519989013672 34.2364006042480469
-0.256431013345718384 -23.030364990234375 -14.1275835037231445
-2.39414024353027344 -29.3966712951660156 -80.0082473754882812
4.78985023498535156 29.4740447998046875 84.41156005859375
7.65099382400512695 -57.547698974609375 81.6337509155273438
-0.961900174617767334 47.2694931030273438 12.8245773315429688
-4.17429399490356445 -64.2815399169921875 51.7417526245117188
1.43723130226135254 32.0388374328613281 40.2827644348144531
-1.74821662902832031 7.18494319915771484 -77.4790496826171875
-0.220944970846176147 -49.3850784301757812 12.8443450927734375
4.50104618072509766 -83.7951889038085938 31.2175312042236328
-3.45816826820373535 2.09907150268554688 83.5914688110351562
-0.968422412872314453 -29.8870048522949219 -45.1020545959472656
-2.03355598449707031 -34.3279647827148438 -70.1418304443359375
0.559728026390075684 -93.5482635498046875 33.7621650695800781
-2.86890172958374023 -31.5849456787109375 63.9865226745605469
6.96812629699707031 37.3195381164550781 81.260833740234375
6.11180019378662109 -22.1416034698486328 -91.010955810546875
-5.14507341384887695 -83.6807632446289062 9.93165969848632812
-2.44325804710388184 52.5232772827148438 -29.5516624450683594
-1.73587620258331299 -78.545684814453125 -30.2351016998291016
2.68963479995727539 -55.5426216125488281 -71.7413711547851562
5.76097297668457031 -33.3914108276367188 -92.8069534301757812
-3.92505931854248047 -71.9981002807617188 11.9598798751831055
0.564372003078460693 77.9896240234375 4.48425865173339844
-3.56476497650146484 64.5480499267578125 -34.9929084777832031
-2.93391013145446777 -1.19560527801513672 76.6170425415039062
-4.78696727752685547 47.6098670959472656 -62.3017120361328125
9.82827281951904297 -12.2842121124267578 89.167327880859375
-1.7114715576171875 -15.4339675903320312 55.9869728088378906
-2.53073215484619141 -55.3558082580566406 -79.9640350341796875
-0.538131833076477051 20.3387489318847656 8.48615455627441406
3.53990936279296875 69.4025802612304688 69.6590347290039062
0.45708930492401123 85.71697998046875 43.1118392944335938
0.372436225414276123 -58.1974945068359375 79.0764236450195312
0.197481468319892883 42.3938331604003906 -21.9218120574951172
2.26900124549865723 98.1676559448242188 0.609669327735900879
-4.42927980422973633 -92.8654861450195312 13.1657400131225586
-2.95163822174072266 46.5520706176757812 -41.7161674499511719
3.81423211097717285 -52.3486671447753906 72.0846099853515625
6.38373422622680664 42.1056861877441406 -82.82269287109375
-1.55033326148986816 -20.1982002258300781 -65.5462493896484375
3.08241748809814453 98.2761764526367188 -12.02044677734375
1.3709416389465332 65.2985687255859375 42.6939773559570312
-3.07824397087097168 -81.282501220703125 -52.6833419799804688
-0.380610018968582153 2.59979796409606934 -35.2380027770996094
1.27179145812988281 70.0024795532226562 47.978179931640625
-1.39922010898590088 -65.25775146484375 -30.3474597930908203
-0.348055481910705566 -47.4943428039550781 1.23435580730438232
-4.71547555923461914 -79.4527969360351562 7.44523429870605469
3.99192953109741211 -43.5381736755371094 -79.6573333740234375
-4.73584079742431641 -92.7492828369140625 8.30832862854003906
-3.04973578453063965 -62.96087646484375 13.0906896591186523
-4.134521484375 58.2030487060546875 -48.6627006530761719
-1.07475507259368896 -16.4890041351318359 -0.238241776823997498
1.57512247562408447 48.0581703186035156 66.9816513061523438
-1.49913108348846436 -49.05059814453125 -48.3733673095703125
-0.21300758421421051 30.2140293121337891 -39.221954345703125
-3.14651870727539062 87.24847412109375 -31.7239055633544922
-1.57240855693817139 -41.8637847900390625 -2.78210592269897461
0.330491095781326294 14.6677227020263672 -10.0608377456665039
0.0468141846358776093 32.0012474060058594 -26.8532428741455078
1.58479666709899902 48.2595481872558594 47.9102592468261719
1.29293584823608398 53.2854995727539062 25.861419677734375
-0.784881830215454102 -24.1724700927734375 -41.4092216491699219
7.77044534683227539 81.7102279663085938 -54.0259056091308594
6.31286287307739258 -75.4208145141601562 -52.8692550659179688
-0.457913577556610107 -24.9678974151611328 -24.3469982147216797
-4.30526018142700195 -94.5598831176757812 -5.0150761604309082
-0.201254665851593018 -86.9116287231445312 10.6095266342163086
-6.62983942031860352 -28.9289760589599609 -81.0943527221679688
-2.58895349502563477 55.1907463073730469 52.8056259155273438
-3.41863179206848145 29.2524471282958984 80.2910385131835938
-1.4831770658493042 57.2362899780273438 9.56165027618408203
-0.446395754814147949 17.2940502166748047 18.2210865020751953
1.34960031509399414 70.0680084228515625 -70.5196914672851562
-1.08539354801177979 49.14617919921875 18.7963466644287109
-0.5981331467628479 8.27135848999023438 -47.3874740600585938
-4.7501521110534668 -75.0566558837890625 -13.625971794128418
1.22626078128814697 5.33088254928588867 46.7376365661621094
1.4638364315032959 7.99914026260375977 63.2312736511230469
-3.8532557487487793 -47.3414878845214844 -41.9265518188476562
-4.32621526718139648 -54.0640869140625 -78.3130111694335938
-1.15945112705230713 -63.5553817749023438 -22.7040748596191406
0.0764405354857444763 21.6339015960693359 -21.65118408203125
-1.69561147689819336 -59.3739166259765625 -65.1805267333984375
9.64540290832519531 90.077484130859375 34.6501274108886719
-5.87449550628662109 -81.790557861328125 -22.9380416870117188
1.33951914310455322 72.25933837890625 46.9730491638183594
4.09724998474121094 -5.22754335403442383 99.1654052734375
-2.13233566284179688 -38.2455177307128906 -24.9311752319335938
8.55413436889648438 -75.8549041748046875 51.998382568359375
-0.892712652683258057 25.341766357421875 42.2775344848632812
-1.03061366081237793 -14.4736509323120117 -55.0106010437011719
-2.10872483253479004 -51.9466361999511719 9.83943462371826172
3.43369650840759277 62.4097785949707031 -79.912750244140625
6.06665945053100586 -53.0177040100097656 85.9918899536132812
-3.6292877197265625 54.4512405395507812 -45.1966476440429688
0.100596949458122253 40.0940818786621094 -25.9716472625732422
-4.11338424682617188 81.6712417602539062 -20.7973442077636719
-0.168085023760795593 -61.18511962890625 42.6273078918457031
-1.04767322540283203 -33.1941490173339844 -45.7714653015136719
-4.92852878570556641 34.0061607360839844 -69.0420074462890625
7.55264711380004883 -78.8417739868164062 63.4327926635742188
1.12323343753814697 68.0744171142578125 22.3416500091552734
-1.39786326885223389 -51.7012176513671875 -43.7161369323730469
-1.08785605430603027 31.8331546783447266 43.2856101989746094
-0.398173719644546509 -25.1947898864746094 -20.2624988555908203
-3.46230196952819824 23.2786598205566406 83.2762832641601562
-0.21372455358505249 11.2467098236083984 -33.332794189453125
-3.39498734474182129 -8.28970527648925781 -57.2260780334472656
-1.16095948219299316 -34.94354248046875 7.58247184753417969
-2.72387218475341797 -28.6539478302001953 63.3179588317871094
4.77797460556030273 -14.2658872604370117 98.6874313354492188
-2.84589004516601562 66.8001480102539062 -19.5493850708007812
-0.695957958698272705 21.4565563201904297 -3.67546319961547852
1.60760796070098877 46.258941650390625 63.3136863708496094
6.49919223785400391 20.4418182373046875 -92.4194107055664062
-1.22920048236846924 -36.0510406494140625 5.32688665390014648
4.55812835693359375 -89.3041915893554688 -5.63278293609619141
-2.35045766830444336 -35.6930427551269531 -31.4854946136474609
0.909737646579742432 48.7472877502441406 7.59299612045288086
-0.920791745185852051 -86.2286453247070312 -6.69564485549926758
-6.51832771301269531 -18.18389892578125 -82.9431076049804688
6.40427112579345703 32.5807723999023438 -87.3511581420898438
0.977102875709533691 76.2442169189453125 23.8118419647216797
-0.518909931182861328 30.9070987701416016 21.5869712829589844
2.05904746055603027 44.1605415344238281 86.6727523803710938
-2.71475863456726074 -16.8309688568115234 68.6927108764648438
-5.85078096389770508 -76.2203521728515625 -33.389556884765625
-3.03843402862548828 59.4690322875976562 -32.4204597473144531
-3.1336662769317627 -58.3195419311523438 -14.7485923767089844
-0.904843151569366455 46.3391990661621094 -76.6428680419921875
4.21167707443237305 -101.095817565917969 -4.5625615119934082
6.95889902114868164 83.7244796752929688 -39.1009101867675781
1.96393013000488281 83.8674774169921875 -53.2509498596191406
-0.45348966121673584 79.6214065551757812 -33.7045326232910156
-4.05245399475097656 80.1650466918945312 -22.0377540588378906
-0.395755231380462646 77.1074752807617188 -29.5595264434814453
5.83300590515136719 -58.5889472961425781 -79.7332305908203125
5.71438026428222656 -38.2149238586425781 -91.0784072875976562
1.62351620197296143 21.8982620239257812 67.2992324829101562
-2.35650968551635742 55.8452110290527344 47.8922996520996094
0.504643380641937256 -10.0912370681762695 17.3088493347167969
0.66581881046295166 -42.2050704956054688 73.1746139526367188
7.69054365158081055 85.2145462036132812 31.8969192504882812
0.146914005279541016 -47.656829833984375 41.1367874145507812
-1.34018123149871826 -6.4373931884765625 -29.3821620941162109
7.27390289306640625 74.428314208984375 -56.0252799987792969
-6.05834197998046875 12.0094919204711914 -87.9456558227539062
-0.76439368724822998 -5.73173856735229492 40.0888328552246094
6.6360783576965332 2.43783712387084961 99.7625808715820312
7.35744333267211914 -90.4110488891601562 15.4109640121459961
3.74566364288330078 45.5425148010253906 87.1059494018554688
-5.72989463806152344 -66.3349609375 -45.3029289245605469
-3.34139299392700195 60.2231063842773438 61.650726318359375
-3.50647211074829102 81.1138763427734375 -2.35735297203063965
6.03188180923461914 -58.384490966796875 -76.314849853515625
-0.216512620449066162 27.5162162780761719 91.4099197387695312
0.610429048538208008 -79.2180404663085938 37.7263031005859375
-3.09790968894958496 -35.6402320861816406 64.64031982421875
5.80628824234008789 20.7785758972167969 97.157012939453125
-3.2626032829284668 33.5004615783691406 76.1405487060546875
-3.71143889427185059 -23.11248779296875 80.9674072265625
-1.80843698978424072 -8.35301589965820312 -37.4784812927246094
-0.702624738216400146 38.6688423156738281 22.3173255920410156
0.901664614677429199 -55.2919082641601562 81.52862548828125
6.67912864685058594 -99.0433349609375 -6.12681961059570312
-1.85322189331054688 -41.9898643493652344 -61.7048912048339844
-0.253539115190505981 54.8154487609863281 -36.0197029113769531
0.0676389336585998535 -47.9995574951171875 33.6386985778808594
-2.53485417366027832 51.1845741271972656 -32.2009201049804688
-0.624689459800720215 -9.08643341064453125 29.5605621337890625
-6.06088066101074219 -72.4068832397460938 -42.171478271484375
-1.51313984394073486 -41.5938911437988281 21.9496116638183594
5.98150873184204102 83.3798675537109375 36.1035270690917969
-5.41614913940429688 -14.6546926498413086 -74.31439208984375
0.738860666751861572 -27.9257011413574219 62.53289794921875
-0.601867377758026123 28.4139385223388672 3.70716691017150879
1.01657557487487793 -8.22562694549560547 49.4412498474121094
-1.48033463954925537 22.1164989471435547 -73.4791412353515625
-4.43428277969360352 -6.256805419921875 -93.7509841918945312
-0.255626529455184937 -45.8665084838867188 -87.54058837890625
2.78096938133239746 -88.8020095825195312 11.8882017135620117
-4.62234592437744141 -71.84649658203125 50.7144622802734375
-5.46548223495483398 -10.0872735977172852 -75.8331069946289062
-2.95635080337524414 -96.573699951171875 -5.05304670333862305
-6.01432180404663086 25.4592342376708984 -82.6888046264648438
-0.255715459585189819 9.96021461486816406 -33.9347190856933594
-0.705503642559051514 26.6978359222412109 -6.75162553787231445
-3.28727436065673828 11.1629924774169922 -56.750030517578125
1.10409045219421387 -20.6595878601074219 -97.3060836791992188
-0.0499846972525119781 -55.9223899841308594 40.4806709289550781
-0.266687303781509399 21.4449653625488281 -38.8331146240234375
-1.53424012660980225 -43.7238693237304688 7.82638025283813477
2.45654201507568359 -74.1473388671875 -51.6224250793457031
9.39312458038330078 -54.9161949157714844 79.3264541625976562
0.043799281120300293 26.0263481140136719 -24.1671886444091797
0.420886248350143433 -1.19650769233703613 -0.0135416602715849876
-5.40164518356323242 -87.5645294189453125 11.3690605163574219
-0.883302390575408936 -25.9487209320068359 -44.2163352966308594
-5.98071384429931641 -43.7287750244140625 -67.5377349853515625
0.152965500950813293 85.4504776000976562 -24.1921424865722656
1.37660276889801025 31.6873817443847656 36.4847602844238281
-1.92643988132476807 64.4455184936523438 13.554865837097168
1.38869965076446533 83.2342300415039062 29.1743011474609375
-0.209364071488380432 59.7351570129394531 -68.0430145263671875
-3.30939364433288574 69.032806396484375 50.9658088684082031
-3.29147028923034668 2.85062599182128906 81.4410781860351562
0.362655282020568848 -21.9025611877441406 21.9568347930908203
1.47791039943695068 12.2011651992797852 80.843841552734375
-0.940550088882446289 16.6750984191894531 -60.3304862976074219
1.59789514541625977 32.5025863647460938 54.2429122924804688
1.56976711750030518 15.5957765579223633 71.3780441284179688
4.60578536987304688 -88.0181121826171875 -16.5782470703125
-0.485330283641815186 30.9096794128417969 -85.4942855834960938
7.55188512802124023 -93.8412246704101562 17.3947563171386719
8.49296665191650391 -21.3973197937011719 96.70245361328125
-1.05251467227935791 -40.7288055419921875 -40.4946212768554688
6.99760675430297852 49.8376235961914062 -84.14544677734375
-5.66555118560791016 33.050018310546875 -82.3018569946289062
-5.25108718872070312 -61.9461898803710938 -44.137176513671875
-0.773497343063354492 -0.911169826984405518 41.8428115844726562
3.3354341983795166 96.1953964233398438 21.4977970123291016
5.30218410491943359 83.644134521484375 35.4520034790039062
-3.30856728553771973 -64.0692062377929688 27.5343589782714844
-4.79115772247314453 64.26934814453125 -52.3311347961425781
1.5967109203338623 31.7686557769775391 53.0616264343261719
-1.94445455074310303 58.0140533447265625 36.2329444885253906
-0.114127606153488159 72.121490478515625 62.1713027954101562
2.34788012504577637 -14.99603271484375 -90.458221435546875
-3.33976554870605469 25.0220832824707031 -55.7609634399414062
-1.74473965167999268 -10.2035589218139648 -73.7317352294921875
2.75360465049743652 -24.9386138916015625 84.7344894409179688
-4.44049930572509766 -64.5348281860351562 -69.8679885864257812
-0.961626052856445312 -1.69505369663238525 3.53201746940612793
-0.766477882862091064 12.7084436416625977 -54.4046440124511719
1.40637600421905518 47.21905517578125 31.4702835083007812
-0.776850402355194092 9.46923542022705078 -6.84902524948120117
0.880354821681976318 24.5937938690185547 -88.6582565307617188
-2.31015753746032715 66.947418212890625 62.6289520263671875
-2.26957917213439941 51.6151504516601562 50.8941802978515625
-1.19023489952087402 -8.47268486022949219 -4.9355320930480957
-4.88598299026489258 8.83394336700439453 -92.24273681640625
-0.85159146785736084 -25.5139789581298828 -43.2566909790039062
-1.25075006484985352 -60.5970802307128906 -29.8912124633789062
0.165494263172149658 -11.548736572265625 -5.8971400260925293
0.192734122276306152 -25.0121994018554688 12.5420866012573242
1.00417613983154297 -39.1693878173828125 76.3497543334960938
-1.23902726173400879 -3.90431380271911621 -26.2419395446777344
-0.759602904319763184 -13.5371265411376953 35.5525894165039062
1.630226731300354 -100.272964477539062 2.20473289489746094
-0.594242632389068604 -8.40979290008544922 -41.9272842407226562
-1.10555291175842285 3.67705726623535156 50.4684677124023438
-0.871385693550109863 -13.0414857864379883 -50.6391029357910156
5.49732017517089844 28.0608348846435547 -96.9631271362304688
-3.82170510292053223 80.951263427734375 -14.5229024887084961
-3.59244418144226074 0.995749771595001221 86.7219772338867188
-3.88451576232910156 83.9289321899414062 -8.84791278839111328
0.305342018604278564 -44.81500244140625 53.2798538208007812
-3.45561385154724121 -52.4915199279785156 54.6863861083984375
-2.79492402076721191 -59.5932235717773438 0.386503726243972778
-0.12157074362039566 83.9134445190429688 -24.9756889343261719
-1.72254300117492676 59.1523323059082031 -76.3878707885742188
-3.6559453010559082 48.7741355895996094 -49.1357269287109375
-0.373444139957427979 -85.8587570190429688 -20.0366535186767578
-0.619833707809448242 -7.27855634689331055 30.7181854248046875
6.28396034240722656 91.6183624267578125 -3.36256241798400879
-1.77826893329620361 42.7545318603515625 -26.388153076171875
-1.512428879737854 -70.9522705078125 -28.3679370880126953
0.528029263019561768 -34.8442649841308594 53.5201606750488281
-0.644387125968933105 56.0242462158203125 -47.385162353515625
-0.419541031122207642 67.7760696411132812 -70.3952484130859375
-2.55769062042236328 -43.9402236938476562 48.7568397521972656
2.02300620079040527 -34.4119987487792969 -84.5971145629882812
0.16947956383228302 -31.0347652435302734 19.1148204803466797
-0.851113200187683105 -5.49460172653198242 -52.5857467651367188
-1.35977685451507568 -23.7008762359619141 44.6541061401367188
-1.67465627193450928 -72.5817718505859375 -31.7606105804443359
1.24347996711730957 4.67578363418579102 48.1732749938964844
-1.5912468433380127 -21.674713134765625 -65.7907867431640625
-4.4178166389465332 -68.6770553588867188 49.0133018493652344
-3.54025149345397949 -18.8777542114257812 79.958251953125
-0.972214460372924805 -42.8960342407226562 -35.9146881103515625
9.5936279296875 13.2412519454956055 97.9110107421875
1.35258150100708008 58.5584869384765625 30.9905357360839844
-5.85023355484008789 -67.9420013427734375 -62.2535285949707031
-4.44590663909912109 -80.6740646362304688 43.2733497619628906
-2.95303106307983398 -61.8426704406738281 9.21294879913330078
-0.839477837085723877 10.1164150238037109 -56.1099319458007812
-1.6559065580368042 -20.3913135528564453 -87.0945053100585938
-0.541423976421356201 31.6538162231445312 14.6028432846069336
-1.14956986904144287 23.9842586517333984 -65.9801025390625
4.23561906814575195 30.5908641815185547 -87.0768890380859375
0.159858778119087219 -81.4040298461914062 -57.2213325500488281
-1.65602076053619385 54.4510688781738281 33.6775627136230469
-5.56245660781860352 -80.32861328125 -46.3020210266113281
-1.54207026958465576 -30.2822341918945312 -21.1610603332519531
-2.03579235076904297 63.4997177124023438 27.418853759765625
-1.04929852485656738 42.3976707458496094 -5.61639308929443359
1.6036524772644043 20.7467861175537109 72.72674560546875
7.72280216217041016 79.2613754272460938 -56.24212646484375
-0.470506638288497925 17.9481124877929688 24.3663825988769531
-1.58911526203155518 10.7331571578979492 -96.646026611328125
-0.9788169264793396 -4.02808237075805664 46.117095947265625
-3.51392054557800293 -41.4998817443847656 66.9200057983398438
-1.18980848789215088 20.9757347106933594 50.0188217163085938
-1.86816573143005371 48.6043663024902344 -22.0246372222900391
-0.75322258472442627 0.518531322479248047 9.77285194396972656
2.14265203475952148 -65.3316574096679688 59.9626388549804688
6.00805282592773438 81.8537521362304688 -59.7118644714355469
-6.05032825469970703 -59.2450752258300781 -69.8930435180664062
-3.28691387176513672 66.5430221557617188 56.6764411926269531
1.10319149494171143 75.295623779296875 33.3788490295410156
-3.91370272636413574 59.9936408996582031 -44.4233322143554688
-0.586173057556152344 -64.2191390991210938 13.5406885147094727
-1.36341357231140137 32.0708236694335938 48.8198471069335938
-0.660341382026672363 35.81927490234375 5.34787464141845703
0.84821629524230957 58.0665855407714844 4.46785640716552734
5.16418361663818359 98.7021942138671875 17.0337600708007812
-1.67687809467315674 -39.0062446594238281 35.585052490234375
-6.27038717269897461 -43.8765792846679688 -70.2259292602539062
2.30321121215820312 12.7515687942504883 -100.008102416992188
-1.46723794937133789 -93.1629104614257812 29.6849441528320312
4.58692502975463867 14.741450309753418 97.9272918701171875
-4.12582302093505859 -40.4709243774414062 -50.6404762268066406
0.117195762693881989 -46.7124710083007812 36.2521743774414062
-0.532330930233001709 28.5442581176757812 -48.9047508239746094
2.76917839050292969 56.1673202514648438 -73.3848190307617188
0.301684796810150146 -19.5193271636962891 11.9705438613891602
4.52879762649536133 44.2538604736328125 -91.0712203979492188
8.2237091064453125 -85.5157852172851562 41.6154251098632812
1.8760535717010498 -85.6062698364257812 -52.5339431762695312
-3.92070460319519043 -70.3607254028320312 28.3530979156494141
-5.84428024291992188 -40.5691375732421875 -68.1174163818359375
-1.8105309009552002 -40.1699981689453125 -79.1999740600585938
-0.587141513824462891 -66.2425155639648438 19.4544525146484375
0.115291260182857513 50.5151138305664062 -84.84564208984375
0.450489789247512817 55.3397331237792969 -11.5728845596313477
-0.326857030391693115 -41.3317985534667969 -2.18502616882324219
-6.11606502532958984 -76.617889404296875 -37.2511215209960938
-5.26203489303588867 -80.0146331787109375 -12.2858905792236328
-0.239147141575813293 70.8403778076171875 -28.0410346984863281
-2.03114438056945801 -67.007720947265625 -53.6226043701171875
-1.31534874439239502 -63.5042152404785156 72.85662841796875
-2.34463262557983398 -43.26947021484375 -71.7298507690429688
-1.1943436861038208 -13.4283227920532227 -17.4674091339111328
-1.44638431072235107 17.4077072143554688 -32.1697196960449219
10.4215755462646484 12.0503826141357422 89.7541122436523438
-0.646745026111602783 -36.5786781311035156 -26.3772678375244141
9.75390338897705078 -36.2299613952636719 89.5055923461914062
-0.120430104434490204 9.48297595977783203 -27.0663375854492188
1.43156659603118896 43.5529251098632812 34.3977737426757812
4.33350276947021484 2.9445340633392334 -100.887672424316406
1.18727529048919678 13.287353515625 39.5592498779296875
1.1107635498046875 20.8611907958984375 30.7535324096679688
-0.615213394165039062 -30.6585979461669922 -28.648406982421875
4.10581541061401367 48.2495918273925781 85.9290542602539062
-6.17576265335083008 5.8744053840637207 -83.8505172729492188
-1.69591665267944336 -51.3626174926757812 -51.9952468872070312
7.90737390518188477 -39.6355400085449219 79.9025726318359375
0.564751505851745605 29.7418441772460938 -1.43307209014892578
-3.65963244438171387 -68.6358718872070312 23.1520214080810547
-1.00632786750793457 -21.3712368011474609 -50.9321975708007812
0.296191155910491943 75.0595626831054688 -8.09890842437744141
-1.72914469242095947 48.0181465148925781 79.5707550048828125
-3.69244933128356934 -69.377288818359375 19.9198150634765625
-1.8113255500793457 -46.5975761413574219 -1.72558438777923584
-1.05359423160552979 27.1180152893066406 -63.9078369140625
-2.03791713714599609 -17.7667617797851562 59.399749755859375
2.20224261283874512 34.456146240234375 91.1759109497070312
-3.20707416534423828 -64.3574295043945312 3.74116778373718262
-0.159478574991226196 77.751434326171875 -21.6966552734375
-1.29295289516448975 -74.4074249267578125 -13.9543371200561523
3.06811118125915527 -10.9911260604858398 -91.1403579711914062
-3.65620779991149902 -63.5434799194335938 40.3900146484375
-1.1349942684173584 -22.5159549713134766 40.4812469482421875
0.642611920833587646 72.7241668701171875 3.86783671379089355
-2.42251873016357422 37.3464431762695312 63.0336723327636719
0.284657776355743408 75.5584335327148438 -62.6308670043945312
1.65204286575317383 41.4769401550292969 57.9144287109375
1.05032682418823242 41.2863883972167969 16.0612945556640625
-4.5076298713684082 -83.5333404541015625 37.8048210144042969
-2.26508450508117676 -4.52771949768066406 -85.4444046020507812
-5.42284250259399414 44.07177734375 -70.59906005859375
-6.53455734252929688 -36.4305610656738281 -76.4894866943359375
-0.675900459289550781 34.2493972778320312 3.37050008773803711
-0.562514007091522217 30.5941429138183594 10.1001605987548828
-2.97594571113586426 85.360687255859375 29.5440998077392578
1.10358655452728271 29.4463691711425781 -95.5786514282226562
-0.0134038133546710014 -31.1098175048828125 5.93613147735595703
8.93882369995117188 96.2253646850585938 0.897020876407623291
-1.56523704528808594 4.11139345169067383 -73.2758636474609375
-2.86361145973205566 28.1533088684082031 -49.2706642150878906
3.0418245792388916 69.8015365600585938 68.7532958984375
-0.596604466438293457 -2.83543944358825684 22.1447353363037109
-1.52203583717346191 42.238525390625 -75.215423583984375
-1.01442694664001465 -11.4604606628417969 -55.5963401794433594
-3.24735808372497559 -37.3096046447753906 -42.9566421508789062
0.616143524646759033 93.1760406494140625 24.6624507904052734
10.4069328308105469 58.54107666015625 75.284027099609375
-0.307606309652328491 13.3886203765869141 -38.03753662109375
-2.28314995765686035 -37.4454307556152344 -73.138031005859375
1.1554027795791626 -8.77700901031494141 65.507049560546875
0.332955211400985718 53.2105712890625 -16.3582515716552734
0.405394643545150757 56.5319633483886719 -13.214848518371582
-2.82573509216308594 -19.5641593933105469 90.1233596801757812
-0.752909839153289795 -98.4346771240234375 -9.67098331451416016
-0.118037164211273193 83.8031768798828125 -19.8218650817871094
-0.940950393676757812 -28.0066394805908203 24.5865859985351562
-5.73235321044921875 -80.6214599609375 -22.7287483215332031
5.63536167144775391 -44.7216796875 77.27783203125
-6.29070329666137695 -36.8751907348632812 -73.9957199096679688
-3.34722661972045898 40.7250823974609375 77.1406631469726562
-0.655694067478179932 13.7957391738891602 4.36509943008422852
-0.534048020839691162 -73.9770050048828125 36.4853096008300781
-2.75736308097839355 -96.4047088623046875 7.74507904052734375
-3.95926094055175781 -47.9466514587402344 68.50146484375
1.37123167514801025 65.2958755493164062 53.5361671447753906
3.06679248809814453 83.3420333862304688 51.7407302856445312
-2.07599639892578125 -7.94065380096435547 63.6617393493652344
-0.54278409481048584 31.7969684600830078 14.280299186706543
0.802338302135467529 76.86309814453125 13.9100074768066406
6.00777292251586914 -88.8642044067382812 -12.5144824981689453
-1.71487367153167725 56.5257530212402344 -7.33690071105957031
-0.827342867851257324 13.6727190017700195 44.33563232421875
-5.21128034591674805 57.4673538208007812 -66.1800613403320312
-3.8601377010345459 -35.0587425231933594 77.0832748413085938
-3.79281425476074219 19.7473697662353516 -61.1350746154785156
-2.24734950065612793 60.4483642578125 -74.5688323974609375
6.95050239562988281 94.9265289306640625 -35.1475296020507812
-0.952108979225158691 58.9360542297363281 -55.2465629577636719
-0.463859289884567261 -11.9584159851074219 -32.2422676086425781
1.85778665542602539 9.91598033905029297 85.7138519287109375
-0.718099355697631836 37.7921409606933594 -82.1151123046875
-1.38580024242401123 15.9124679565429688 -31.5511207580566406
-1.06017136573791504 47.4383926391601562 23.6486930847167969
10.1137571334838867 8.28778553009033203 97.5308761596679688
-1.13924181461334229 -30.8816871643066406 -2.53593850135803223
1.54543852806091309 54.429901123046875 52.5356864929199219
-1.24981260299682617 15.7190713882446289 -67.8256759643554688
-1.96852946281433105 41.1428108215332031 -30.8420085906982422
4.41401910781860352 85.0410385131835938 51.3857460021972656
8.89908790588378906 92.2033843994140625 13.2484006881713867
-0.940239548683166504 -30.0112247467041016 -43.924346923828125
-6.11251020431518555 -81.494903564453125 -38.86431884765625
1.66107380390167236 30.0604972839355469 67.2830657958984375
-2.4603421688079834 64.4356613159179688 37.3976669311523438
1.57707130908966064 22.7019462585449219 59.3944969177246094
-3.47376608848571777 -67.4654006958007812 15.7596931457519531
-1.48065817356109619 -15.3946895599365234 -66.2023162841796875
-0.500707328319549561 16.2348575592041016 31.6507301330566406
1.44305503368377686 7.22050571441650391 82.2142105102539062
0.604813337326049805 18.0317611694335938 1.54573822021484375
-0.601765155792236328 11.225611686706543 5.2542576789855957
2.06353902816772461 77.7801589965820312 58.3730964660644531
6.21734809875488281 -66.0685882568359375 -66.2580642700195312
0.238629922270774841 -48.5903587341308594 53.2345504760742188
0.367185771465301514 -86.510101318359375 17.0080966949462891
0.420821934938430786 -15.3042764663696289 15.0085945129394531
-0.24875582754611969 -47.0163803100585938 8.06297588348388672
-1.93739902973175049 -29.1904220581054688 51.5357246398925781
-0.219481393694877625 -36.4775199890136719 -0.325084805488586426
1.43017160892486572 37.1945762634277344 37.3709907531738281
0.717720091342926025 11.8057031631469727 14.1309394836425781
-2.92549824714660645 25.9662456512451172 74.08203125
-4.94186115264892578 37.7108726501464844 -67.9279708862304688
-1.09337759017944336 -3.67597317695617676 -5.86181259155273438
10.5529575347900391 12.6362829208374023 91.3464508056640625
8.41718387603759766 -2.56044554710388184 99.4210739135742188
-0.972243845462799072 42.7003860473632812 29.4008159637451172
0.54948115348815918 59.8641471862792969 -5.92694282531738281
-0.993430554866790771 24.6340065002441406 -18.9532737731933594
0.363967180252075195 3.9399259090423584 -6.14629602432250977
-5.04346275329589844 -31.0547809600830078 -65.4571075439453125
-1.18276429176330566 -29.5809478759765625 34.5757331848144531
1.64167594909667969 39.3851509094238281 67.4368133544921875
-1.3196789026260376 54.6764259338378906 13.8372125625610352
0.0982891619205474854 -54.0792617797851562 53.2667388916015625
-1.90518975257873535 -88.01312255859375 -43.3779563903808594
-2.1636500358581543 -62.1929283142089844 -55.6222000122070312
-4.26486730575561523 -36.1719093322753906 -87.7503128051757812
-1.14445054531097412 1.13153493404388428 -23.8061256408691406
-0.604695916175842285 32.0953292846679688 -84.8069076538085938
-5.91167020797729492 21.5858955383300781 -85.9133834838867188
-5.75710487365722656 -56.2840690612792969 -55.7936325073242188
-2.91561555862426758 70.9610671997070312 -14.1049070358276367
-3.39217996597290039 -65.634857177734375 -0.257208168506622314
0.293218404054641724 71.9984893798828125 -55.1611671447753906
0.282565444707870483 27.5129776000976562 -14.5562515258789062
-3.19793343544006348 -38.7165603637695312 64.0100479125976562
1.32404792308807373 67.2306747436523438 44.2569732666015625
1.6408545970916748 27.0659294128417969 71.6875152587890625
-1.81322276592254639 44.8541374206542969 48.5734443664550781
-1.2743760347366333 -54.1870956420898438 -36.9719314575195312
-0.81298297643661499 65.2098617553710938 -48.3211822509765625
-0.5021933913230896 9.58891868591308594 33.198455810546875
7.96943330764770508 85.4127349853515625 -44.2230796813964844
-2.33537721633911133 22.6025466918945312 67.008544921875
1.57326614856719971 45.64202880859375 45.6183395385742188
-0.235383331775665283 82.37408447265625 -30.1702480316162109
8.18228912353515625 21.7857952117919922 97.1012802124023438
-2.48435139656066895 71.2102432250976562 6.18678903579711914
-1.43705666065216064 -41.2515640258789062 16.5323047637939453
-0.819598674774169922 18.1944866180419922 -11.9701652526855469
-2.58467292785644531 -17.9254703521728516 -44.9764404296875
0.672490239143371582 30.4167938232421875 4.51055669784545898
1.36152541637420654 64.1225738525390625 36.5977706909179688
-3.20498919486999512 76.7913970947265625 29.3186817169189453
-3.55314493179321289 24.1263427734375 -58.0407943725585938
6.57447290420532227 66.5675430297851562 -64.3866500854492188
-1.93802011013031006 -64.680328369140625 -47.4827842712402344
-4.74721622467041016 -92.6532974243164062 7.64992666244506836
-1.73635029792785645 -76.238311767578125 -29.65789794921875
-3.39189481735229492 -18.8891887664794922 78.0455474853515625
8.32943439483642578 -84.1451568603515625 44.4331436157226562
-1.37908339500427246 92.9195480346679688 -20.8271331787109375
1.17423057556152344 -23.731719970703125 81.5424423217773438
-1.63991141319274902 36.0855674743652344 -78.91827392578125
-1.29439413547515869 13.9638605117797852 54.0180549621582031
-1.03403031826019287 -11.1056900024414062 -56.9670791625976562
3.87608146667480469 64.7745742797851562 62.0114021301269531
1.36863446235656738 65.7105026245117188 47.6466751098632812
-4.01955938339233398 45.6932945251464844 -81.43243408203125
-0.108905941247940063 77.6666030883789062 -20.0536518096923828
0.577615141868591309 11.6174983978271484 1.32031965255737305
-2.8385317325592041 -26.6478900909423828 -44.5520820617675781
-1.47947180271148682 -42.2283706665039062 7.65082359313964844
-0.25284382700920105 41.9391937255859375 -89.0677490234375
0.385140568017959595 53.3815727233886719 -14.0411014556884766
0.662617266178131104 74.1674270629882812 5.47563982009887695
-1.65320777893066406 -2.55543851852416992 -36.6280937194824219
0.827618122100830078 52.5330810546875 3.0435340404510498
9.14300537109375 77.509063720703125 47.7388839721679688
-0.7350197434425354 0.414797723293304443 10.5845985412597656
-1.08233904838562012 4.21374273300170898 -25.1719551086425781
4.24977254867553711 92.916717529296875 35.55401611328125
-0.856759011745452881 16.6619091033935547 -13.5637578964233398
2.46734118461608887 86.2372283935546875 -31.9091987609863281
-2.64714145660400391 -36.0826835632324219 57.5498046875
9.38692569732666016 85.7255783081054688 33.8106231689453125
-0.71659243106842041 -44.876617431640625 -23.5725898742675781
-0.86901623010635376 -25.9275112152099609 16.900421142578125
8.46767139434814453 -76.115753173828125 50.6771697998046875
5.92521572113037109 -99.5216064453125 13.9475383758544922
0.50961071252822876 13.6813468933105469 -2.64054632186889648
6.65584373474121094 -86.3505935668945312 24.0050888061523438
-1.80456066131591797 7.46516942977905273 -78.4665908813476562
-1.33767938613891602 -3.65169715881347656 53.2105178833007812
-5.32234048843383789 -80.4859619140625 -12.7288303375244141
-3.93053793907165527 -39.5193634033203125 79.1930618286132812
-4.22312545776367188 -73.0787277221679688 -61.401092529296875
-3.59479784965515137 45.4592018127441406 -82.5655288696289062
3.3166048526763916 37.7087745666503906 -84.29083251953125
0.523408412933349609 58.6927642822265625 -70.191009521484375
-1.4923328161239624 -72.4169387817382812 -25.7569751739501953
0.595364809036254883 -31.589324951171875 51.8625221252441406
-1.99135923385620117 -50.3971672058105469 6.71874475479125977
0.421700119972229004 42.9368209838867188 -12.1651458740234375
-4.65642929077148438 -75.5351181030273438 38.4488945007324219
0.942577004432678223 14.9269094467163086 27.2330856323242188
-3.57723593711853027 -92.17144775390625 -27.7381095886230469
5.58370256423950195 -88.605987548828125 11.9793767929077148
-4.78370761871337891 -25.9856376647949219 -65.2920455932617188
0.152309566736221313 41.9813079833984375 -24.2453804016113281
-1.67970764636993408 -20.2134876251220703 -68.3931655883789062
0.470393955707550049 -16.8773670196533203 25.5952129364013672
-3.13817310333251953 -47.0198402404785156 -32.2407684326171875
-3.29171943664550781 30.8991451263427734 77.6666412353515625
1.77233719825744629 -48.7876434326171875 -76.7263336181640625
-0.648053765296936035 -78.2825698852539062 30.2488422393798828
-0.800817131996154785 71.0367507934570312 -46.7138328552246094
6.37002325057983398 -53.8612861633300781 85.54315185546875
-0.47199016809463501 88.931488037109375 -38.1200904846191406
6.44000387191772461 -83.4978866577148438 -50.4998092651367188
8.67777538299560547 99.0079879760742188 -6.25923633575439453
-1.20367968082427979 4.0916132926940918 -65.3580322265625
-2.25368094444274902 0.72075045108795166 -45.2804603576660156
-4.60720252990722656 -58.3897705078125 -39.8495826721191406
-2.20330595970153809 -31.0080776214599609 54.8038864135742188
1.35562324523925781 0.118124529719352722 75.6971206665039062
-4.37882900238037109 -93.3683624267578125 11.0706071853637695
-4.21919488906860352 -2.54986095428466797 -66.149505615234375
0.446414142847061157 -32.1551780700683594 38.2093162536621094
-0.468689411878585815 17.9249858856201172 29.0695533752441406
-3.68725252151489258 -51.6894454956054688 75.4526443481445312
-0.901113450527191162 14.2898273468017578 46.0719566345214844
-4.13319015502929688 -38.5541305541992188 -51.8473701477050781
-4.47039031982421875 -76.8544921875 22.8585224151611328
4.80429792404174805 75.1666946411132812 65.1063385009765625
-2.1623389720916748 -2.02773094177246094 -87.3061904907226562
-3.24485635757446289 58.4146652221679688 60.5624885559082031
0.536385655403137207 55.0416145324707031 -82.6723175048828125
-2.09784889221191406 33.1541786193847656 -90.5647430419921875
-0.887605726718902588 45.2201576232910156 14.6545696258544922
1.84930908679962158 35.5079765319824219 78.4629364013671875
-2.97973513603210449 -57.5657424926757812 -12.512969970703125
0.165467590093612671 14.0882635116577148 -16.357513427734375
0.802295565605163574 68.8487701416015625 7.14485311508178711
-2.78158235549926758 -92.4470977783203125 -30.0573062896728516
-3.61463499069213867 -8.36537742614746094 87.5877304077148438
-0.00444429460912942886 -34.3138008117675781 12.6747646331787109
1.20929837226867676 72.9441299438476562 43.6893730163574219
0.66996920108795166 6.91963386535644531 12.0600442886352539
2.07008624076843262 87.9144210815429688 19.0529613494873047
1.57202744483947754 48.7685623168945312 -87.7518692016601562
7.51993131637573242 -79.9113998413085938 59.7401924133300781
-2.26843380928039551 -42.7432022094726562 -70.0754470825195312
0.0200692471116781235 -52.6327362060546875 40.9301605224609375
5.11463737487792969 71.1371917724609375 -72.2413864135742188
0.404523551464080811 61.717041015625 -77.096923828125
-2.04129147529602051 -49.9934577941894531 20.1540145874023438
1.38415586948394775 28.1969432830810547 39.5339088439941406
-1.19044172763824463 -34.0381546020507812 26.8086013793945312
-4.74805736541748047 -79.2633895874023438 3.26133418083190918
-3.34453916549682617 80.8212966918945312 7.21480798721313477
5.60105276107788086 -29.9344539642333984 -86.98779296875
1.58679187297821045 18.1631546020507812 67.6509933471679688
0.859034121036529541 4.81265020370483398 30.3718280792236328
-0.798497617244720459 -21.0472869873046875 -43.5798683166503906
-4.65943670272827148 -50.1348075866699219 -49.2004776000976562
-1.18173682689666748 -32.0869140625 29.4571189880371094
1.3536827564239502 16.0479373931884766 45.5429649353027344
-4.22088861465454102 -54.0611190795898438 69.4998321533203125
1.62896895408630371 31.1957473754882812 72.15985107421875
1.32198429107666016 -1.25355780124664307 69.0169296264648438
0.219396770000457764 73.2202377319335938 -11.8383274078369141
-1.2370074987411499 -34.7687644958496094 -50.2694206237792969
0.219141185283660889 -51.3793907165527344 61.2836151123046875
-0.0489688515663146973 -17.0804328918457031 -10.9501218795776367
-1.54524135589599609 -38.0162544250488281 32.9031028747558594
-3.65715909004211426 87.8828887939453125 -22.7804832458496094
0.351145148277282715 73.5937118530273438 -52.9832611083984375
-6.64857149124145508 -43.8864097595214844 -76.6121902465820312
-3.6245417594909668 27.8469676971435547 -58.1163330078125
-1.69720935821533203 -1.52863943576812744 -74.7095108032226562
-0.713435590267181396 24.2177639007568359 36.9380531311035156
1.21949315071105957 71.817962646484375 36.1653366088867188
-4.6687159538269043 -68.0643310546875 -27.5216407775878906
1.46748411655426025 23.2389297485351562 48.1431770324707031
-5.16921043395996094 -92.1821975708007812 -2.82458734512329102
1.04938638210296631 -16.8951301574707031 75.9472579956054688
6.347503662109375 30.2063026428222656 -94.8688888549804688
7.00867462158203125 51.5489959716796875 -83.7094192504882812
-0.390641152858734131 24.9024791717529297 -44.5667762756347656
-1.28502547740936279 -57.2407608032226562 -34.6887664794921875
-1.9696958065032959 -48.41455078125 21.6717338562011719
-3.45337510108947754 81.0032501220703125 31.1350650787353516
1.78040337562561035 74.7331390380859375 -66.2376480102539062
7.14659690856933594 -79.550445556640625 41.0653915405273438
-3.49684810638427734 -66.10650634765625 65.5847015380859375
-3.17285919189453125 79.1971282958984375 9.16408061981201172
-0.832394123077392578 -79.6584548950195312 24.2869586944580078
-0.090310223400592804 3.98858857154846191 -23.5971355438232422
-0.912818491458892822 -1.07799732685089111 3.33864331245422363
10.5344448089599609 45.6957473754882812 82.73895263671875
9.86521625518798828 -12.0989885330200195 89.2184600830078125
3.2877037525177002 66.8273391723632812 59.5332183837890625
-2.83305478096008301 -18.1181869506835938 -48.0689697265625
-3.81272983551025391 -61.3603515625 -23.8372135162353516
-6.3210601806640625 -62.1995201110839844 -65.891998291015625
-0.9317740797996521 -24.4703655242919922 31.1906509399414062
-3.42339038848876953 20.2674350738525391 -57.4348487854003906
-4.98811817169189453 -45.8812179565429688 -56.1935462951660156
8.71179962158203125 -73.8549728393554688 56.7093048095703125
-0.702956974506378174 -10.5450477600097656 -45.3743171691894531
-2.92969322204589844 -4.15970325469970703 76.1233062744140625
-0.816622436046600342 38.6570854187011719 -0.0469815470278263092
-0.44519728422164917 42.5458183288574219 -80.0191421508789062
-1.05174624919891357 -67.6293716430664062 -11.865626335144043
-2.94911456108093262 -58.6901359558105469 31.0469589233398438
-4.62059736251831055 69.8068695068359375 -45.3502578735351562
-3.58906674385070801 -55.2225494384765625 -29.2882652282714844
6.07482528686523438 -73.23968505859375 -65.5492172241210938
-0.581307649612426758 36.5263252258300781 -50.5413589477539062
-5.79737949371337891 -71.4974594116210938 -58.3013191223144531
-0.48548850417137146 -57.7498092651367188 7.24234294891357422
6.04107952117919922 -50.6769638061523438 -77.5176925659179688
1.05908799171447754 -100.025634765625 -2.31953239440917969
0.73400413990020752 79.6382293701171875 14.4403953552246094
8.2070465087890625 99.9921417236328125 -10.3444757461547852
-3.45585989952087402 -2.21744537353515625 88.8563919067382812
-4.49883365631103516 -75.6100082397460938 32.0424308776855469
-4.22546958923339844 50.1001701354980469 -77.999755859375
-6.45260381698608398 -56.5920677185058594 -69.9912643432617188
-3.29049873352050781 38.3097457885742188 -50.3837165832519531
-2.44019770622253418 -42.1559410095214844 48.5565719604492188
9.80516815185546875 85.359954833984375 45.5730323791503906
-0.472610235214233398 22.9829158782958984 10.710017204284668
0.956071019172668457 58.4086112976074219 9.47498416900634766
-1.23733317852020264 26.4872608184814453 -68.0167236328125
9.40231609344482422 92.0034332275390625 37.1975936889648438
0.44286578893661499 72.731170654296875 -4.34409427642822266
-5.5257573127746582 25.3790073394775391 -76.4409408569335938
-3.30892491340637207 -65.0381393432617188 22.4178199768066406
-4.23030948638916016 42.5979690551757812 -58.4295387268066406
0.84742128849029541 79.4159774780273438 20.9311580657958984
-0.14415837824344635 76.0692367553710938 -21.9175357818603516
-0.507734477519989014 78.36224365234375 -32.2380332946777344
-3.4410707950592041 80.8401260375976562 24.587921142578125
-1.10335779190063477 -15.046356201171875 44.7231254577636719
-3.1617882251739502 53.5601692199707031 63.3252296447753906
-2.71433544158935547 62.796478271484375 46.3191261291503906
-1.24618673324584961 14.4194850921630859 -29.9438114166259766
-3.4341282844543457 -35.086456298828125 -46.8257179260253906
1.34143567085266113 3.47117900848388672 55.9487037658691406
-2.50933599472045898 55.2932052612304688 51.3181648254394531
-1.49858009815216064 40.494140625 46.5030364990234375
-4.21758556365966797 3.23363995552062988 -66.3039474487304688
2.71420645713806152 -73.3772430419921875 50.6093368530273438
1.29185748100280762 3.25907564163208008 53.6904869079589844
-0.525052309036254883 20.7090320587158203 32.4074211120605469
-0.56315922737121582 18.0903167724609375 35.0452766418457031
-2.36680984497070312 3.25619721412658691 -46.9214096069335938
-3.08544683456420898 23.6550083160400391 -53.1984748840332031
10.4658279418945312 53.6891593933105469 77.4477691650390625
-0.824805974960327148 42.6833877563476562 8.84807205200195312
-0.769847333431243896 -69.7675323486328125 11.0363216400146484
8.94080257415771484 -70.479278564453125 63.0457000732421875
-0.903141319751739502 -80.0371627807617188 21.4263629913330078
0.296716690063476562 -36.0186080932617188 31.7535133361816406
0.547851383686065674 -15.4168148040771484 29.3993358612060547
-0.250180453062057495 88.042724609375 36.6027374267578125
-3.39834094047546387 53.4448738098144531 -43.02880859375
-3.86431360244750977 -64.39862060546875 65.4642562866210938
-4.48156261444091797 -13.2903518676757812 -66.7219161987304688
0.330391287803649902 2.25229668617248535 -5.72767877578735352
6.62888860702514648 27.0250244140625 -91.396240234375
-2.34369444847106934 -19.6156425476074219 91.2349319458007812
-1.695792555809021 -78.3265228271484375 -26.0498809814453125
-1.14769315719604492 44.5460014343261719 -6.83577585220336914
0.0880471616983413696 -75.1898193359375 63.5281906127929688
1.62601494789123535 32.8002395629882812 55.70684814453125
8.86273193359375 69.5337295532226562 58.0148162841796875
-0.94689488410949707 28.760894775390625 -61.212646484375
-0.874924004077911377 8.06792068481445312 -11.8932638168334961
7.94242334365844727 85.111053466796875 -42.0386886596679688
