ply
format ascii 1.0
element vertex 782
comment vertices
property float x
property float y
property float z
end_header
-4.3390965461730957 -10.6868801116943359 53.9358787536621094
-13.3876762390136719 -16.09124755859375 36.8412246704101562
-15.205230712890625 -2.11018729209899902 27.8338623046875
-3.8590998649597168 -0.00208195112645626068 63.9784393310546875
-14.8385448455810547 -16.6498603820800781 31.8036155700683594
13.9838552474975586 16.3640594482421875 -51.535736083984375
-15.4181299209594727 -3.45205402374267578 -50.0985946655273438
14.9708232879638672 1.75792443752288818 -52.3344459533691406
17.7869529724121094 -18.6821098327636719 9.18287181854248047
-16.4928512573242188 -6.19265937805175781 23.2632408142089844
-1.23439359664916992 -19.6324844360351562 42.7367172241210938
-14.1065559387207031 1.91634225845336914 36.2692718505859375
-6.55298662185668945 2.50560760498046875 64.7615127563476562
18.6499042510986328 7.67105245590209961 59.2916374206542969
-17.5439777374267578 -17.8795013427734375 15.9476461410522461
15.6555500030517578 -23.8304805755615234 7.30005073547363281
7.31291294097900391 28.4909477233886719 -46.21881103515625
16.3401584625244141 -3.25208878517150879 16.9395160675048828
2.43808484077453613 -27.1750545501708984 27.7992572784423828
-0.828131437301635742 14.4643955230712891 31.8389854431152344
-8.79238986968994141 7.97883844375610352 27.2675037384033203
10.5560150146484375 4.45928716659545898 -17.8284969329833984
-4.72147083282470703 11.0162687301635742 70.0302810668945312
7.86666393280029297 -13.9512357711791992 50.5167465209960938
-6.5339350700378418 -1.03774845600128174 62.0673637390136719
-2.66458272933959961 21.2290115356445312 72.9724884033203125
11.342411994934082 30.0124454498291016 57.7958946228027344
14.5339593887329102 11.6373929977416992 35.4476165771484375
-12.0948505401611328 16.0423221588134766 -39.0596046447753906
-1.02644431591033936 -20.5510196685791016 -43.072662353515625
12.749485969543457 7.68439722061157227 -60.8933639526367188
3.42445755004882812 14.7440605163574219 30.7219867706298828
-18.0274982452392578 -5.95395660400390625 -37.0107574462890625
15.2502737045288086 -3.30521678924560547 -15.863408088684082
1.07850873470306396 15.8320579528808594 -29.9543170928955078
-16.4347362518310547 -12.2438240051269531 29.0239772796630859
-6.43721199035644531 4.823516845703125 -9.08046627044677734
-13.3639421463012695 -1.06110727787017822 50.4097137451171875
14.5672397613525391 -3.57831382751464844 5.86325359344482422
8.42296123504638672 19.2782440185546875 -71.0069961547851562
2.33251738548278809 -32.4504127502441406 -1.32856142520904541
-3.48371624946594238 -29.3608970642089844 -23.1830310821533203
-9.70029449462890625 -30.6035671234130859 11.3005094528198242
7.05493927001953125 15.1349258422851562 -32.3373146057128906
-0.905081570148468018 8.87714481353759766 20.666473388671875
15.3316917419433594 1.45214807987213135 -29.9989204406738281
-13.580540657043457 17.5583992004394531 -49.177581787109375
-5.07434368133544922 -19.8449916839599609 41.8481330871582031
5.34940910339355469 35.1768722534179688 -56.4189567565917969
-18.2658729553222656 -4.16540384292602539 -28.3817577362060547
9.53290653228759766 22.9777927398681641 74.5524520874023438
-8.07793712615966797 23.3102302551269531 64.7983779907226562
-2.18002700805664062 -31.3087654113769531 14.1689090728759766
-7.00595521926879883 -1.12958037853240967 -64.8247528076171875
-10.7515764236450195 0.0785303488373756409 -62.4996070861816406
19.3945560455322266 -10.4354410171508789 32.2562980651855469
15.7964601516723633 -8.45096588134765625 -40.1765098571777344
-12.2146034240722656 6.9818425178527832 33.7235031127929688
5.23288393020629883 17.0989475250244141 -72.8981552124023438
8.18872547149658203 21.8414306640625 -41.2063331604003906
-11.420964241027832 9.44720935821533203 61.7275047302246094
11.8455162048339844 -2.463775634765625 61.9217109680175781
-0.690871357917785645 11.4966678619384766 26.4074287414550781
19.9312191009521484 -3.99651455879211426 36.7390861511230469
0.680656850337982178 28.9360694885253906 -43.73760986328125
0.151142746210098267 -21.3962993621826172 39.63421630859375
-9.24626731872558594 7.0330352783203125 -67.3791427612304688
-9.19769954681396484 -26.5047855377197266 25.7452411651611328
-6.3939824104309082 0.0731525793671607971 -65.8690414428710938
-4.24962949752807617 26.3219699859619141 -70.6331405639648438
-14.9769086837768555 -0.884797990322113037 -53.0142326354980469
2.93981742858886719 -20.1498775482177734 -43.4808082580566406
-10.9679651260375977 -23.7668571472167969 -33.5175056457519531
8.83945655822753906 21.6770286560058594 -41.6500930786132812
-4.64200305938720703 -3.19333815574645996 61.0776939392089844
4.92865419387817383 17.1320018768310547 73.1965408325195312
7.43682432174682617 8.30177879333496094 -22.3871574401855469
19.5990333557128906 -9.79217338562011719 29.1418857574462891
-6.19144153594970703 8.70447731018066406 25.0633049011230469
10.5320262908935547 12.6391887664794922 -33.2083892822265625
9.14515399932861328 23.1979446411132812 43.5806846618652344
16.2574176788330078 3.36429858207702637 28.8378028869628906
13.8292646408081055 -11.9666528701782227 -41.5424537658691406
6.46085119247436523 13.2848358154296875 72.3126220703125
13.2116031646728516 11.6138687133789062 -39.6653785705566406
6.00038814544677734 -24.8684329986572266 32.4678726196289062
16.7349929809570312 -1.1129688024520874 22.8335075378417969
6.40732240676879883 23.9156284332275391 -72.4274063110351562
-4.37196731567382812 11.8705301284790039 -24.9276962280273438
-3.24500155448913574 24.9563484191894531 48.0616340637207031
17.9412994384765625 4.52489995956420898 35.7069892883300781
12.7032461166381836 22.6222782135009766 -51.2193450927734375
-15.9191913604736328 8.29403209686279297 -44.2716064453125
18.6947269439697266 -8.08581447601318359 18.5053844451904297
1.03358602523803711 -17.9627304077148438 -47.013519287109375
-6.83860015869140625 8.43707561492919922 25.2195301055908203
-13.8596315383911133 16.6936435699462891 -51.2866363525390625
-11.4551496505737305 10.8450765609741211 -29.9421825408935547
10.6910581588745117 21.8538970947265625 43.0807762145996094
-18.8377513885498047 -12.1060628890991211 -19.3364429473876953
6.02567720413208008 -30.0878772735595703 16.2041893005371094
-13.287327766418457 -19.5200901031494141 -37.0151634216308594
-13.4847860336303711 7.38896656036376953 -59.5121536254882812
-18.9105720520019531 -17.6883869171142578 0.220723450183868408
8.74748897552490234 13.9172210693359375 30.9076004028320312
8.74762344360351562 -17.1100902557373047 46.15435791015625
12.7562904357910156 4.47614240646362305 -25.1433219909667969
-16.8751583099365234 -21.9864253997802734 -17.2365493774414062
13.6113471984863281 17.7739753723144531 -56.5281753540039062
-13.2485818862915039 -22.3936271667480469 -31.5512981414794922
1.79607748985290527 -16.2968235015869141 -49.5415458679199219
-9.18223762512207031 29.3031539916992188 -56.7356643676757812
-11.5537080764770508 24.1561717987060547 -52.9197578430175781
7.88608074188232422 3.45274901390075684 -2.61638450622558594
-11.0451755523681641 0.960449337959289551 -62.5565567016601562
-11.2747068405151367 -24.7957744598388672 -30.5967445373535156
1.22873032093048096 -32.1170806884765625 4.63445854187011719
-12.0721521377563477 -10.8129968643188477 -51.0541763305664062
10.2565059661865234 -29.2309665679931641 -3.37553119659423828
17.1799030303955078 -15.4301052093505859 -14.0105695724487305
-18.169830322265625 -3.53193020820617676 -28.78839111328125
-16.0985393524169922 5.74645805358886719 -46.2097854614257812
-0.949747323989868164 -25.6873321533203125 -33.3534965515136719
5.96039724349975586 4.49238729476928711 0.326556861400604248
-6.20505571365356445 -21.8140316009521484 37.6449737548828125
-1.58239495754241943 2.37032008171081543 66.2767868041992188
-5.92871856689453125 22.7710151672363281 -40.1474761962890625
13.2560396194458008 16.3021812438964844 -59.6153030395507812
-12.4822549819946289 0.827832341194152832 6.48456335067749023
13.775996208190918 -23.5240268707275391 -15.7343816757202148
6.72825908660888672 12.8231410980224609 -28.9908008575439453
16.0535850524902344 22.7309741973876953 58.4062919616699219
14.3930120468139648 9.77782249450683594 68.4302520751953125
4.66405153274536133 -18.6400279998779297 43.9506759643554688
7.6098322868347168 10.122776985168457 24.1687602996826172
-8.50789546966552734 -6.14022493362426758 56.4644660949707031
18.5780086517333984 -8.48310089111328125 42.585296630859375
12.3314695358276367 23.2502479553222656 72.8480300903320312
5.21095561981201172 16.6398544311523438 -72.8453750610351562
4.75543498992919922 3.75544643402099609 -68.4225921630859375
8.98256206512451172 -13.7699623107910156 -48.6615447998046875
1.28496158123016357 16.2547512054443359 33.6297950744628906
19.6149101257324219 6.87002372741699219 51.0301437377929688
-13.1695213317871094 6.6470952033996582 40.6001052856445312
18.9117240905761719 -7.67850828170776367 21.0031375885009766
-18.6102771759033203 -15.9014835357666016 7.08482170104980469
12.6402578353881836 -6.86219215393066406 -50.9063148498535156
17.0545291900634766 -15.2550630569458008 -15.4818973541259766
-4.78538608551025391 -15.1110286712646484 -50.9159812927246094
5.94455909729003906 -6.54270458221435547 59.2383766174316406
14.8008041381835938 -21.4818115234375 -17.2649612426757812
-14.35638427734375 -10.5714397430419922 38.850677490234375
-10.1936416625976562 19.7413253784179688 60.1718940734863281
5.10388851165771484 10.0210399627685547 -22.912841796875
-15.3220281600952148 -6.01387739181518555 -48.8295555114746094
19.8572158813476562 -4.98613834381103516 35.8507423400878906
13.3444318771362305 6.7991337776184082 -32.2973976135253906
3.55404925346374512 -19.0903472900390625 -44.9933433532714844
12.5535621643066406 23.8814125061035156 -61.403167724609375
6.14464426040649414 0.488125860691070557 -66.0109405517578125
18.0370464324951172 17.2776432037353516 57.6287384033203125
-1.76524043083190918 -20.6852397918701172 -42.8596572875976562
12.2754182815551758 23.8877201080322266 -51.0966072082519531
-17.0113353729248047 -22.1121387481689453 -15.8101110458374023
18.3261642456054688 -14.3081245422363281 8.17823123931884766
17.1618900299072266 -10.2950973510742188 -13.0095968246459961
-5.83212614059448242 -20.7117767333984375 -42.6112899780273438
15.1698217391967773 -16.5594520568847656 35.8265266418457031
-16.6933650970458984 -7.98379802703857422 25.6819019317626953
-9.87877941131591797 -31.3895606994628906 -0.264412790536880493
14.8731660842895508 -2.32635354995727539 -16.3607826232910156
14.3486738204956055 -19.4889030456542969 31.2389144897460938
3.56957840919494629 25.3605728149414062 45.0285072326660156
8.31279563903808594 -3.96659588813781738 -61.2811088562011719
-16.097930908203125 -4.50472784042358398 6.51456451416015625
-14.3597631454467773 -10.9543218612670898 -46.7471656799316406
-6.81574678421020508 18.4700126647949219 70.984649658203125
-8.56660747528076172 -31.6363201141357422 -9.83289337158203125
10.9168834686279297 27.7698078155517578 -64.5242996215820312
-18.8574466705322266 -15.9300985336303711 2.70700931549072266
-16.59796142578125 3.00763607025146484 -44.6237449645996094
8.43311309814453125 -14.809178352355957 -48.2511711120605469
5.43370866775512695 27.6465282440185547 -71.2206573486328125
-2.03277444839477539 -32.6086807250976562 4.02708148956298828
16.2211513519287109 -19.4419498443603516 -13.4497499465942383
-0.0587190501391887665 35.9724884033203125 -53.00762939453125
13.4041032791137695 3.56378889083862305 -25.8944149017333984
-0.339700788259506226 5.84398365020751953 -7.22223854064941406
-1.4183344841003418 10.2086906433105469 -71.686279296875
-14.419987678527832 -27.0600128173828125 -12.6698589324951172
12.8557014465332031 18.3276081085205078 -61.6843109130859375
-13.1454763412475586 16.7684345245361328 -43.7729263305664062
-16.5296974182128906 -21.7318859100341797 15.7302513122558594
16.0116539001464844 11.6154060363769531 39.2674713134765625
-18.63385009765625 -12.3314304351806641 -27.3837413787841797
6.29216623306274414 -25.2251358032226562 31.5850448608398438
1.17021739482879639 13.6370029449462891 -72.881591796875
-15.1778411865234375 -5.9432682991027832 -49.2764663696289062
-5.23019838333129883 15.7222604751586914 36.8006820678710938
14.628753662109375 5.63163232803344727 27.3349781036376953
7.49772262573242188 14.2699604034423828 -31.7081851959228516
-9.0126190185546875 -4.49917411804199219 57.5153274536132812
-14.7221136093139648 13.5028781890869141 -46.7716140747070312
18.0637836456298828 -18.0632534027099609 15.8196630477905273
17.3843269348144531 -16.0171318054199219 -7.94593238830566406
11.1330623626708984 22.3840236663818359 44.2911529541015625
16.7630634307861328 -6.90568923950195312 -20.0685863494873047
10.1308078765869141 1.13722217082977295 -61.9632987976074219
-12.9825725555419922 -29.6649494171142578 1.51149356365203857
16.8147850036621094 -20.7773513793945312 0.144277110695838928
-13.3649387359619141 -12.1800470352172852 -47.3365058898925781
16.7102394104003906 -5.19171714782714844 -23.7376480102539062
-0.224460482597351074 35.2035026550292969 -50.8075523376464844
12.3264970779418945 28.4616165161132812 72.8373489379882812
-18.5434532165527344 -15.4690771102905273 -20.8517990112304688
16.7988338470458984 -11.0232429504394531 43.9900436401367188
-3.20358514785766602 21.6332626342773438 43.1807975769042969
-1.18677926063537598 20.1842765808105469 -35.1614837646484375
-3.85634279251098633 -19.2515907287597656 43.1161651611328125
8.36357307434082031 3.41911768913269043 8.12575626373291016
13.848297119140625 15.1800146102905273 -47.6582717895507812
16.1949443817138672 2.85408711433410645 -44.6117019653320312
-11.9633312225341797 12.6260223388671875 -33.438140869140625
-6.57157468795776367 -18.4949417114257812 43.4911384582519531
3.84156060218811035 7.70678997039794922 -70.6970596313476562
-10.0757350921630859 -6.66248798370361328 -57.7322654724121094
17.2363643646240234 8.31083869934082031 38.4297904968261719
14.416046142578125 -7.13013172149658203 -46.8523178100585938
16.0391674041748047 1.83949601650238037 -37.4562454223632812
-9.77985286712646484 6.70522546768188477 -19.1857852935791016
-13.8238353729248047 12.9492292404174805 -55.2604904174804688
-16.5145778656005859 -12.4987831115722656 28.3969688415527344
6.28465175628662109 27.4185085296630859 47.8567428588867188
13.823786735534668 13.6820201873779297 -57.2638359069824219
5.25007200241088867 16.7974529266357422 -72.851409912109375
-9.58259868621826172 -15.1672916412353516 46.0763168334960938
0.0258416756987571716 6.53563451766967773 12.6673564910888672
-10.0531377792358398 -24.3411445617675781 -33.2723312377929688
-13.5969924926757812 -2.58448958396911621 -55.7121315002441406
-7.73765468597412109 16.8605690002441406 41.2694244384765625
-5.1464390754699707 -28.4293575286865234 23.2888469696044922
17.1294689178466797 18.6491527557373047 63.5259284973144531
4.78312397003173828 4.48576879501342773 -68.8550033569335938
-2.12221550941467285 -12.0270118713378906 53.0500679016113281
8.83370399475097656 -20.2776565551757812 38.90264892578125
9.79959201812744141 2.41332554817199707 -8.06588935852050781
6.58949947357177734 -18.9293651580810547 -43.9210243225097656
-15.3364744186401367 -2.89676284790039062 7.00832509994506836
16.4140834808349609 -19.3207569122314453 -11.5930690765380859
-8.3263397216796875 -24.7153701782226562 30.677215576171875
2.26669454574584961 -14.2109079360961914 -52.5190162658691406
17.5930099487304688 17.0702648162841797 62.6659622192382812
-11.0233755111694336 25.4953327178955078 -54.2767105102539062
0.268310695886611938 -1.70914196968078613 63.6765937805175781
17.1697959899902344 9.95262622833251953 64.0484542846679688
13.4005870819091797 18.3805065155029297 -57.5866432189941406
1.01793336868286133 -2.52093982696533203 -64.62652587890625
-5.17243099212646484 -24.5088825225830078 -35.5798149108886719
9.03083133697509766 -20.0540313720703125 -37.8681106567382812
12.6709890365600586 -14.3251543045043945 -40.5279808044433594
-1.25871050357818604 11.9369373321533203 -72.3253402709960938
-4.19649028778076172 -4.57540988922119141 -62.9429473876953125
1.71745002269744873 -25.3099994659423828 -34.0923233032226562
10.3993196487426758 -24.4703617095947266 -24.6285057067871094
-8.18767452239990234 -31.2181072235107422 -14.1863670349121094
0.234820574522018433 33.1404380798339844 62.217071533203125
-16.8154239654541016 -17.8460559844970703 -29.3460903167724609
0.065341554582118988 6.70658254623413086 13.3481884002685547
-18.0521793365478516 -19.7621002197265625 -13.8155479431152344
6.52043914794921875 -10.2249021530151367 55.038726806640625
-12.9903421401977539 6.10755538940429688 36.3464317321777344
-5.07197189331054688 -7.73668909072875977 -59.8641090393066406
18.4951076507568359 -10.3087625503540039 39.1043701171875
-3.94803452491760254 13.0277776718139648 31.4094181060791016
-13.9343271255493164 3.19953703880310059 44.3182029724121094
18.3301601409912109 2.29377889633178711 34.0962791442871094
4.34309959411621094 28.2920932769775391 -44.3250656127929688
4.52738761901855469 18.6146831512451172 36.3047523498535156
8.52383899688720703 -24.5021820068359375 -29.4163246154785156
-14.4435853958129883 -22.6619377136230469 23.8880119323730469
-14.6055421829223633 -11.6956357955932617 37.5313491821289062
-11.5891628265380859 -29.4900398254394531 12.7704305648803711
12.5827503204345703 27.71795654296875 55.1315689086914062
15.5815963745117188 -5.15904903411865234 7.61073160171508789
-14.5671415328979492 -1.36687028408050537 14.6878843307495117
-16.0720863342285156 -24.5867366790771484 -13.4437217712402344
-3.53923892974853516 -32.7121505737304688 -0.60462796688079834
5.62311410903930664 -31.0096111297607422 -11.8566856384277344
-13.8551197052001953 -1.70223236083984375 -55.6793403625488281
-3.94481611251831055 -3.8078758716583252 60.8398056030273438
-5.33812999725341797 -17.9117851257324219 -46.8110427856445312
9.83785820007324219 -3.28338074684143066 -59.2725372314453125
-0.296570330858230591 34.4546051025390625 -49.4839973449707031
-10.351048469543457 27.1677074432373047 -58.3548393249511719
-11.7340087890625 14.8704395294189453 48.6060829162597656
16.0415306091308594 -16.4500389099121094 -23.0644721984863281
-4.06558847427368164 7.59047031402587891 -70.338958740234375
-4.34278583526611328 17.3815422058105469 -33.0890426635742188
15.2662382125854492 20.53155517578125 48.5991439819335938
-4.15903711318969727 -30.8226966857910156 15.9555959701538086
17.1436023712158203 6.49639701843261719 62.6812782287597656
17.7796592712402344 -16.5314121246337891 -1.11297035217285156
9.61637210845947266 2.03431153297424316 -5.03849983215332031
-18.3706951141357422 -14.7807836532592773 10.1184873580932617
17.1091747283935547 -9.85800933837890625 -22.3968086242675781
16.6559715270996094 21.5514202117919922 58.4739952087402344
14.0622854232788086 0.511261641979217529 -20.7798309326171875
-17.6834030151367188 -22.0920753479003906 -8.60967826843261719
-0.88715130090713501 21.5713844299316406 -73.2561874389648438
-15.6526575088500977 -1.89252138137817383 -10.1775283813476562
3.82714366912841797 -6.0160984992980957 59.8516731262207031
-17.4419078826904297 -8.92319011688232422 11.1947488784790039
12.4186544418334961 -12.2181253433227539 -44.44732666015625
18.3020801544189453 -5.81191778182983398 20.7841701507568359
6.93341159820556641 -16.1148433685302734 -48.1229896545410156
15.22894287109375 -17.4773845672607422 -25.64788818359375
-11.6161041259765625 13.6584405899047852 -64.53118896484375
9.47702217102050781 4.23248147964477539 -64.9920730590820312
-7.61296558380126953 25.0738697052001953 63.8961029052734375
-14.7284660339355469 -12.1114912033081055 36.2570304870605469
-13.4336576461791992 2.12924003601074219 27.4370288848876953
4.71493148803710938 24.5473899841308594 -40.7380905151367188
8.79808712005615234 3.80210137367248535 -12.0158977508544922
-13.2071771621704102 -28.9196147918701172 -9.21646499633789062
-15.5604572296142578 -6.34810352325439453 34.3020401000976562
10.5374584197998047 34.8511543273925781 66.4464187622070312
11.22265625 -21.4939098358154297 -29.6911678314208984
16.3942127227783203 19.131439208984375 49.8878135681152344
-13.0785617828369141 19.4411907196044922 -52.8336448669433594
0.315119534730911255 -31.9759807586669922 7.77740335464477539
7.56019449234008789 12.3413200378417969 27.8123092651367188
11.110560417175293 17.4705486297607422 37.7172927856445312
-12.6524782180786133 -12.2824325561523438 -48.4518318176269531
13.3085651397705078 -8.77763843536376953 -47.6137161254882812
10.452326774597168 12.81573486328125 71.7825164794921875
0.581539928913116455 1.03112375736236572 65.8360366821289062
-6.30429792404174805 5.3862462043762207 15.3629541397094727
-14.1737813949584961 10.5659637451171875 -55.2487144470214844
14.7908105850219727 -10.246821403503418 50.7912635803222656
-12.612889289855957 18.7642898559570312 -45.6207618713378906
-14.9147310256958008 -9.68954277038574219 37.2943458557128906
10.1935415267944336 -29.4365634918212891 5.13753414154052734
9.81555747985839844 28.7312831878662109 52.8274993896484375
-12.8686666488647461 10.5667734146118164 54.0824737548828125
14.4613370895385742 19.0246429443359375 44.6258163452148438
17.1351413726806641 -10.3027095794677734 -8.78777885437011719
12.9680976867675781 16.1895599365234375 -44.64508056640625
14.8378086090087891 -11.7388267517089844 -38.9234542846679688
-2.51364755630493164 -29.2916584014892578 -23.4072971343994141
12.1802177429199219 0.725812435150146484 -10.6267929077148438
7.79434442520141602 3.5091402530670166 -2.57459378242492676
13.9531869888305664 16.6824722290039062 -51.9001731872558594
16.3074092864990234 3.29464840888977051 28.8920516967773438
5.61641168594360352 -10.0670928955078125 55.2836227416992188
-4.13812112808227539 31.8089485168457031 65.5599517822265625
-4.81197977066040039 5.24431180953979492 12.5221452713012695
17.4229850769042969 -14.0459079742431641 -10.5376367568969727
-6.07742118835449219 -25.7329063415527344 29.6260852813720703
0.27114635705947876 -14.5138835906982422 -52.1636199951171875
-17.7623729705810547 -9.39367866516113281 7.10008955001831055
-18.7498741149902344 -15.7111892700195312 -16.9287891387939453
10.6332187652587891 31.1088333129882812 58.8126640319824219
-8.3031463623046875 13.0110177993774414 36.2181129455566406
-16.7564067840576172 -5.36047172546386719 -0.180890575051307678
-6.78698921203613281 15.2265777587890625 70.4306182861328125
8.35160350799560547 -22.0085296630859375 36.9277877807617188
19.2717685699462891 -12.3396263122558594 22.6737442016601562
-2.52324867248535156 -14.0710821151733398 -52.7375564575195312
18.9572124481201172 1.31466710567474365 35.102264404296875
4.87004327774047852 4.90737438201904297 -1.73996865749359131
-13.8415431976318359 -28.3769779205322266 -8.82104873657226562
-6.35181617736816406 32.8929214477539062 -52.8061370849609375
16.7815341949462891 -14.8743343353271484 -20.5892982482910156
-3.24592447280883789 -6.72274446487426758 -61.1170806884765625
-8.70316314697265625 23.8892173767089844 61.714141845703125
14.2566471099853516 -2.32843637466430664 -11.9219903945922852
16.1887531280517578 1.10300326347351074 -34.9009437561035156
-16.4175186157226562 -5.65953969955444336 17.3556022644042969
-7.26722431182861328 4.60919618606567383 13.7464675903320312
-10.2611579895019531 11.53314208984375 36.7687110900878906
14.2380609512329102 13.2400131225585938 -46.8652191162109375
-2.61396265029907227 -26.6703529357910156 28.5345058441162109
8.92961406707763672 30.9069690704345703 -61.9791030883789062
-11.5904722213745117 16.9659576416015625 55.4133071899414062
2.66039061546325684 9.31565284729003906 -71.5422439575195312
-3.67062544822692871 31.4469871520996094 -62.8506736755371094
2.62961602210998535 20.4536819458007812 -73.4417495727539062
16.5453395843505859 -3.35571455955505371 -27.2496833801269531
-8.31299591064453125 18.3585720062255859 -69.9247360229492188
-15.8981180191040039 8.18524932861328125 -41.8259086608886719
11.9897384643554688 2.69911098480224609 66.02593994140625
19.1172924041748047 5.4543757438659668 56.5146903991699219
-1.52149295806884766 32.2333564758300781 62.121612548828125
-8.10269260406494141 -1.70698642730712891 -63.7618408203125
-7.75400352478027344 -31.1784324645996094 -14.9213533401489258
8.60304355621337891 16.8617439270019531 -70.660125732421875
-12.4306974411010742 -29.9673557281494141 5.24768543243408203
-14.4771337509155273 -0.621459126472473145 -3.49017667770385742
5.01043558120727539 -18.2381134033203125 44.7016181945800781
-6.72655773162841797 -15.4184961318969727 -49.9877052307128906
7.20074748992919922 7.53832578659057617 -19.6664199829101562
4.20240020751953125 36.0545310974121094 64.054931640625
-7.37248468399047852 -9.10937976837158203 -57.2258644104003906
7.45944023132324219 35.61151123046875 63.2005081176757812
19.3944549560546875 9.40022850036621094 53.8321037292480469
-0.929521381855010986 -32.7135086059570312 1.62815248966217041
-2.89629435539245605 -31.3587436676025391 -15.9229621887207031
11.5466575622558594 28.7837772369384766 -60.6851272583007812
-17.1503257751464844 -8.90199089050292969 20.4136123657226562
-15.2611093521118164 -3.14172720909118652 -50.8546943664550781
-13.9544887542724609 -25.2355518341064453 -21.91839599609375
4.39706611633300781 -32.0917739868164062 -5.56455230712890625
-18.4912490844726562 -14.7507658004760742 -23.6648654937744141
-5.51536273956298828 7.03244876861572266 19.7695903778076172
8.62050914764404297 -25.6184272766113281 -26.1787433624267578
8.81018352508544922 24.5813617706298828 74.935211181640625
-8.83506870269775391 22.8993721008300781 62.2532463073730469
-1.08153212070465088 7.60196352005004883 -70.740570068359375
-12.228816032409668 15.7563352584838867 -61.5876960754394531
5.45494604110717773 31.6394500732421875 -64.1157379150390625
-12.0325851440429688 15.3193292617797852 54.3254432678222656
-14.2856960296630859 -27.8318157196044922 -9.17721271514892578
18.4040737152099609 9.88206386566162109 44.8984375
11.0159969329833984 29.3634967803955078 55.9225883483886719
7.35838937759399414 35.3174629211425781 62.3769569396972656
6.59349298477172852 -16.7384662628173828 47.059600830078125
-15.7256755828857422 -2.94255375862121582 -3.04207587242126465
6.42986965179443359 31.0242671966552734 76.9449081420898438
13.0918512344360352 20.5538787841796875 44.2893257141113281
18.4620208740234375 -15.5186405181884766 11.6316518783569336
-6.97196388244628906 24.5176258087158203 67.0945816040039062
-17.5347118377685547 -9.49688529968261719 12.8090858459472656
17.7027511596679688 -18.8988838195800781 9.06913089752197266
0.77967602014541626 5.94256687164306641 8.48191356658935547
0.677469313144683838 5.64195871353149414 5.5234675407409668
-15.7554464340209961 -4.07722234725952148 10.2401008605957031
-13.2092256546020508 7.67717170715332031 45.1567459106445312
8.08428764343261719 15.1784858703613281 -33.4505691528320312
-14.8287324905395508 -1.62739026546478271 31.3642234802246094
14.1336536407470703 -11.2871198654174805 50.24237060546875
14.6876964569091797 5.2905735969543457 -35.7957267761230469
2.80781102180480957 5.59483861923217773 68.5828018188476562
17.0785617828369141 -19.3556861877441406 -4.18040227890014648
17.6809291839599609 9.1920623779296875 62.634429931640625
-13.1964149475097656 0.388996869325637817 7.90131044387817383
-11.4468984603881836 5.78277206420898438 61.0169754028320312
5.70960807800292969 15.7198963165283203 32.3161087036132812
-14.2768440246582031 -26.4719715118408203 -16.3854084014892578
-6.37369346618652344 4.60677909851074219 11.9292621612548828
-12.4520444869995117 12.2812910079956055 55.8081092834472656
17.0514984130859375 -7.73550701141357422 -24.6952457427978516
6.18062686920166016 -26.8310508728027344 -27.2726268768310547
-14.4842023849487305 -0.742124497890472412 1.67477726936340332
-2.20584440231323242 11.3602790832519531 -22.8188800811767578
-13.9865932464599609 -8.63418292999267578 -49.9040718078613281
17.2395801544189453 13.2120389938354492 44.6208610534667969
-16.9594612121582031 1.88581407070159912 -33.1209526062011719
-18.8837795257568359 -14.2544622421264648 -16.4369716644287109
18.0553379058837891 -12.9656391143798828 34.95001220703125
0.591599941253662109 29.2241058349609375 52.5114364624023438
17.3857059478759766 -19.7181949615478516 5.13955020904541016
-18.0303134918212891 -8.89037990570068359 -35.5409088134765625
0.0776705369353294373 8.95283985137939453 20.5193462371826172
14.1204137802124023 -13.2145023345947266 46.2820854187011719
-13.7101259231567383 17.2630481719970703 -50.5798149108886719
-8.46609973907470703 2.95638704299926758 2.83584070205688477
8.33318996429443359 22.2105884552001953 -41.7057304382324219
-1.41617941856384277 -31.6760425567626953 10.6018209457397461
13.4667549133300781 -21.1060104370117188 -24.1772270202636719
-3.22577357292175293 32.2063713073730469 -47.5644073486328125
5.79103660583496094 -30.5853538513183594 13.9045724868774414
2.98735713958740234 -30.2047615051269531 18.6893882751464844
-18.0418033599853516 -17.9993534088134766 11.4838685989379883
13.9864253997802734 0.168446376919746399 62.3267097473144531
9.87443733215332031 -20.2064971923828125 37.7077980041503906
10.7956008911132812 -25.6722068786621094 -20.0780372619628906
9.22706031799316406 -9.71406269073486328 -53.4536895751953125
-7.22507238388061523 -32.1820716857910156 4.43657779693603516
-9.87121677398681641 -24.6764335632324219 -32.5387039184570312
10.2368869781494141 27.9010658264160156 -49.7901191711425781
-3.6942436695098877 2.5039372444152832 65.8295059204101562
14.2575693130493164 -25.7463016510009766 5.88542747497558594
-12.829010009765625 10.8996734619140625 -32.0888633728027344
0.382085233926773071 -20.8158340454101562 -42.6546134948730469
-11.4780874252319336 -4.50016975402832031 -58.0004539489746094
8.20943260192871094 28.3741397857666016 -47.0058822631835938
-12.7754135131835938 -0.51287376880645752 53.1937637329101562
19.0331382751464844 -14.7796115875244141 21.4419746398925781
4.12523794174194336 -18.1222953796386719 45.0242347717285156
-6.63566684722900391 -7.34009456634521484 56.3789863586425781
-3.16592836380004883 -30.1332664489746094 -20.6544475555419922
-5.77135848999023438 -19.0794010162353516 42.925384521484375
-18.7641181945800781 -14.139042854309082 -20.6413784027099609
-19.0268306732177734 -13.3991079330444336 -6.64987087249755859
13.2665128707885742 6.41784048080444336 -58.9313735961914062
17.5366878509521484 -19.5398235321044922 12.7662792205810547
7.31878566741943359 -30.9485626220703125 0.908183932304382324
-13.5406656265258789 3.23228001594543457 -58.8477287292480469
2.16758418083190918 -11.665959358215332 53.6044654846191406
15.6623821258544922 23.2661724090576172 63.3845558166503906
-13.3295717239379883 -8.05956459045410156 44.5430870056152344
-19.1207733154296875 -15.9027490615844727 -7.43662595748901367
9.37760639190673828 32.1875839233398438 -56.2441291809082031
-14.187962532043457 12.2971906661987305 -39.3026504516601562
-10.7220964431762695 5.20115089416503906 23.7671794891357422
10.7946758270263672 6.44029617309570312 -23.7764682769775391
8.76272392272949219 24.5130519866943359 45.1352920532226562
-15.9750308990478516 6.13856697082519531 -36.2800140380859375
-16.232330322265625 -14.5264148712158203 28.7060871124267578
14.9720926284790039 -4.33624982833862305 4.88352012634277344
7.53655719757080078 -28.4474010467529297 -18.7175998687744141
0.472090184688568115 -24.0231037139892578 -37.0627670288085938
-5.1649632453918457 11.1066427230834961 -71.315185546875
13.8464803695678711 -2.74396157264709473 -3.12106800079345703
-3.42182207107543945 -21.0447177886962891 40.0027656555175781
18.0710391998291016 9.24367809295654297 42.3699417114257812
-17.5944175720214844 -0.080983377993106842 -37.321258544921875
16.3675174713134766 2.04573965072631836 -42.0230293273925781
-16.8669509887695312 -7.38575220108032227 18.1061496734619141
-18.0939407348632812 -21.3825969696044922 -5.25024032592773438
2.14651846885681152 13.3794145584106445 -72.7844009399414062
19.0853824615478516 -1.95746171474456787 50.7783355712890625
-18.4427242279052734 -14.6132211685180664 9.2530517578125
-15.6089267730712891 -10.2101039886474609 34.0968017578125
-15.4280643463134766 -2.56045317649841309 -0.108889229595661163
-15.4244775772094727 3.18921279907226562 -25.7357311248779297
-4.52253389358520508 33.5501289367675781 -50.9138908386230469
-14.2977266311645508 -0.0406803227961063385 24.9713649749755859
12.4590492248535156 -22.8408470153808594 26.7810516357421875
16.5832462310791016 15.3310585021972656 65.8590240478515625
-0.450083822011947632 22.1167755126953125 -36.9889564514160156
-3.23618817329406738 -16.8097648620605469 -48.6920700073242188
6.92243337631225586 32.1254348754882812 -49.4632682800292969
-17.5115852355957031 -7.47337913513183594 1.97087180614471436
-13.649989128112793 0.265069156885147095 -2.85333490371704102
13.5559501647949219 -10.575251579284668 51.8369140625
-17.5062313079833984 -9.61822891235351562 16.2230186462402344
-14.6515436172485352 -27.8551902770996094 -5.02506780624389648
-9.60503768920898438 -27.4065284729003906 23.1288204193115234
12.2172832489013672 -6.41124677658081055 58.0204277038574219
15.8842487335205078 -22.9895763397216797 11.2683897018432617
15.8186006546020508 -0.497172713279724121 -48.0946083068847656
-3.97339391708374023 -32.7006263732910156 0.128143131732940674
-1.65696442127227783 12.5278463363647461 29.0990333557128906
3.1150820255279541 5.88652229309082031 -69.9268646240234375
11.3381805419921875 20.1138210296630859 -66.3981857299804688
-3.47488045692443848 -17.6036796569824219 -47.4405517578125
11.6975793838500977 -24.294281005859375 24.1420116424560547
-12.4518136978149414 17.4327354431152344 -59.3580207824707031
13.4753408432006836 8.48399543762207031 68.8262786865234375
4.84567689895629883 -11.157501220703125 -56.0971832275390625
12.7481908798217773 19.3543357849121094 42.1404876708984375
-15.2533226013183594 -22.6759204864501953 -24.0052318572998047
6.75223541259765625 -9.00479316711425781 56.4222488403320312
-10.7031478881835938 2.46014094352722168 -5.53361368179321289
-10.0051355361938477 14.3274812698364258 -33.5333976745605469
-0.553800344467163086 -26.0955066680908203 29.9971733093261719
12.1867771148681641 30.2920665740966797 60.643157958984375
-17.1975612640380859 -10.1069717407226562 22.4596462249755859
-9.20156574249267578 24.5039424896240234 56.6728439331054688
6.01033735275268555 -30.6340351104736328 12.2555732727050781
-16.3183956146240234 4.69995021820068359 -45.5910224914550781
19.7012348175048828 -4.06413698196411133 44.3519058227539062
8.05655574798583984 32.5386619567871094 58.188018798828125
17.2434539794921875 -17.1128196716308594 -8.73980045318603516
-12.8712272644042969 11.300969123840332 50.5406494140625
4.22946405410766602 5.15898704528808594 -3.71886444091796875
18.0539264678955078 12.4949684143066406 46.5809593200683594
-4.81377983093261719 12.8298110961914062 31.7077522277832031
-12.695256233215332 -29.5591583251953125 7.48173713684082031
-6.19191980361938477 27.3234958648681641 -68.0322189331054688
-18.8744926452636719 -13.023345947265625 -0.966231405735015869
8.67941761016845703 33.0768966674804688 -54.036468505859375
16.4542980194091797 -6.44863033294677734 -18.3451442718505859
-14.4588890075683594 2.83198976516723633 -19.6954994201660156
3.47668766975402832 13.3366584777832031 28.4510231018066406
-1.67076539993286133 33.9327316284179688 66.958465576171875
7.95057058334350586 7.46390628814697266 18.9688282012939453
13.1011686325073242 -9.19440174102783203 54.1068916320800781
8.57797622680664062 -6.16563844680786133 -58.8634300231933594
-13.2295522689819336 -9.27174854278564453 -50.7665252685546875
-18.2798538208007812 -11.7874689102172852 7.12647151947021484
-7.37301111221313477 31.7806472778320312 -56.2304039001464844
-1.66166532039642334 17.7728958129882812 -73.1495742797851562
-9.04944610595703125 -9.22781467437744141 -56.0028724670410156
-15.2256765365600586 -2.33884119987487793 29.0037422180175781
-17.92889404296875 -11.105743408203125 10.4262638092041016
-16.7362556457519531 -9.13295459747314453 26.6783199310302734
12.9787740707397461 7.07994699478149414 -59.9757881164550781
7.32352495193481445 6.73195123672485352 16.4630393981933594
-15.8669853210449219 -3.95204520225524902 5.97108840942382812
16.5768642425537109 -13.8766717910766602 37.8711624145507812
12.1782865524291992 1.75563967227935791 -14.7166862487792969
0.18105219304561615 26.5382652282714844 -71.7884445190429688
16.9903430938720703 -9.25347042083740234 -0.307741314172744751
-18.1704998016357422 -15.4886341094970703 12.6829032897949219
-10.3163747787475586 27.2616367340087891 -54.1622467041015625
14.2666225433349609 13.2854804992675781 -47.1518669128417969
3.97281002998352051 30.13897705078125 -68.341461181640625
-3.37429165840148926 16.6403789520263672 -31.6657009124755859
16.3182640075683594 1.25528395175933838 -39.6307258605957031
-15.2253627777099609 -12.058659553527832 34.516387939453125
-2.36843156814575195 -11.6608896255493164 53.3867530822753906
11.5743408203125 26.7327098846435547 51.8512611389160156
-6.0918269157409668 5.12478971481323242 13.7809028625488281
-13.3515033721923828 18.3639755249023438 -52.4404296875
0.724214076995849609 -26.7210865020751953 28.8156375885009766
-2.52306008338928223 -9.09517574310302734 55.6956253051757812
14.001551628112793 -2.32239007949829102 -9.86298274993896484
-1.80955302715301514 11.8154516220092773 27.8109474182128906
-18.2597770690917969 -14.1847944259643555 -27.5232791900634766
-14.9980678558349609 -10.4107513427734375 36.5018196105957031
-12.5049495697021484 -29.1816291809082031 -11.8906412124633789
0.580161750316619873 15.9844436645507812 -30.0510177612304688
-8.9417266845703125 -31.2780475616455078 8.95304203033447266
4.99019813537597656 10.8367204666137695 71.4511184692382812
5.22298002243041992 25.3601512908935547 44.8390464782714844
-0.0133721577003598213 -11.1581764221191406 -56.5455665588378906
-6.09252834320068359 -20.4750404357910156 -42.9340972900390625
-8.83958530426025391 -2.20244312286376953 59.7759628295898438
-8.90929889678955078 -19.7287178039550781 40.1452903747558594
8.79322433471679688 4.44369316101074219 -14.6108016967773438
-0.480142146348953247 -18.7905941009521484 -45.7778434753417969
-17.7019214630126953 -16.9576034545898438 -25.4940109252929688
-12.4010610580444336 0.841655194759368896 3.85487580299377441
-13.5023279190063477 11.0923709869384766 -58.1959075927734375
-9.36999416351318359 21.1667060852050781 61.9721488952636719
7.79332542419433594 3.47887420654296875 -7.66821575164794922
11.4026737213134766 24.3890762329101562 -65.542877197265625
12.5768260955810547 7.11402654647827148 -29.8002376556396484
14.8466768264770508 -19.0868721008300781 -23.8061199188232422
15.4672040939331055 -17.9316062927246094 -23.2829475402832031
-15.3098039627075195 -18.2526130676269531 28.5619468688964844
-12.4617233276367188 -29.9637699127197266 -3.1960599422454834
-12.922999382019043 -28.2606105804443359 -14.6527204513549805
-17.2787857055664062 -19.1558914184570312 16.1785831451416016
-11.2036962509155273 2.32004952430725098 13.2403688430786133
11.0773611068725586 -28.2512989044189453 -6.96408224105834961
-6.15152072906494141 7.10912084579467773 -16.2580852508544922
-2.53072094917297363 14.1600170135498047 32.1970558166503906
6.00435066223144531 18.6057586669921875 73.5453872680664062
3.23756766319274902 -31.4739151000976562 9.44096469879150391
-14.7239303588867188 -27.7327327728271484 -5.70336294174194336
14.4296789169311523 13.4385557174682617 -50.7458114624023438
8.44699573516845703 21.7301998138427734 -41.3209495544433594
3.06607556343078613 -31.7604961395263672 4.41803407669067383
0.62795555591583252 -16.0789852142333984 48.372467041015625
-18.0573291778564453 -20.5199317932128906 5.08291769027709961
-9.66699981689453125 3.09276413917541504 -6.51750326156616211
-10.8626117706298828 22.8176517486572266 -62.5698013305664062
7.73658943176269531 22.2120246887207031 -41.1848983764648438
8.26377201080322266 3.0965278148651123 -5.97787952423095703
-9.28345584869384766 9.172943115234375 -24.1832714080810547
-7.02100419998168945 6.74656248092651367 20.9004573822021484
18.4915275573730469 -2.75117039680480957 51.8292198181152344
-5.16728067398071289 5.82371139526367188 67.2132949829101562
-2.65799093246459961 -19.2173347473144531 43.3639869689941406
12.8189754486083984 -26.3084163665771484 -8.92985630035400391
7.53522205352783203 -26.3340511322021484 -26.3674564361572266
13.54620361328125 -8.85785007476806641 -46.8736457824707031
7.84113550186157227 31.577880859375 55.5956039428710938
5.79998779296875 17.3048286437988281 -72.744293212890625
-10.6300745010375977 15.2044401168823242 64.3117904663085938
12.1850070953369141 22.4603462219238281 -64.1107254028320312
-2.06870102882385254 25.096954345703125 -72.0329818725585938
6.45354747772216797 32.4585914611816406 76.1973953247070312
-6.19273900985717773 22.5009365081787109 -40.1132659912109375
-18.5080013275146484 -9.79508209228515625 -4.60907983779907227
-3.07155609130859375 -17.8356533050537109 -47.0931053161621094
14.2993936538696289 13.2293405532836914 -47.2294273376464844
-17.9973506927490234 -15.8671865463256836 -25.8357143402099609
-12.6109848022460938 -16.7970161437988281 -42.5214118957519531
-9.95054912567138672 5.69175243377685547 -16.9592742919921875
-10.2052125930786133 -31.1424350738525391 -2.41063189506530762
-18.8046035766601562 -11.9239749908447266 -23.6714801788330078
-9.13257312774658203 19.2459659576416016 -39.3736801147460938
0.256509363651275635 -31.6034412384033203 10.4575729370117188
17.0662326812744141 12.0075473785400391 42.7152099609375
-9.96093559265136719 -12.1892185211181641 49.1972694396972656
-5.07048940658569336 5.99445486068725586 15.9278087615966797
8.62083721160888672 -18.3667469024658203 -41.7702522277832031
13.6226911544799805 11.1682367324829102 -40.4645729064941406
7.86061620712280273 11.6974020004272461 -70.6418838500976562
9.29119491577148438 2.26697492599487305 2.50207018852233887
6.96540641784667969 17.2869834899902344 -72.2834014892578125
0.722268939018249512 31.6124248504638672 75.0893783569335938
-6.44547080993652344 -32.4017333984375 1.43869149684906006
16.3903236389160156 7.30155563354492188 34.4508857727050781
-14.7569608688354492 -13.9705924987792969 -42.2160758972167969
-14.2675409317016602 0.655866146087646484 -55.950653076171875
-8.05192756652832031 29.0860328674316406 -63.1137123107910156
19.9030570983886719 -0.00931098312139511108 47.2692756652832031
18.0096035003662109 -18.0827465057373047 10.1099729537963867
17.09259033203125 -6.6745758056640625 12.868586540222168
8.24890899658203125 -26.9701080322265625 -22.7678203582763672
17.2663917541503906 -12.6651945114135742 -14.9013147354125977
13.7954378128051758 -1.02589774131774902 -54.1501960754394531
-17.6249637603759766 -7.76799154281616211 1.48465347290039062
-5.83941459655761719 7.07922220230102539 -15.7541522979736328
0.60405421257019043 -26.2394237518310547 29.8623294830322266
-8.66089820861816406 29.8193149566650391 -51.8281097412109375
-7.58821678161621094 -12.5372095108032227 -53.1161346435546875
2.64237332344055176 -21.9994602203369141 -40.5456504821777344
-13.8036031723022461 14.7756519317626953 -42.7031822204589844
8.85296154022216797 -18.4398193359375 43.9154205322265625
0.667344152927398682 -29.5646915435791016 -22.7106056213378906
17.0430469512939453 -9.53542518615722656 -16.4815845489501953
-14.8745594024658203 -6.51416158676147461 38.90386962890625
-12.7957954406738281 4.96409511566162109 31.2128219604492188
-6.21409463882446289 -32.312408447265625 5.32195854187011719
7.43565177917480469 5.0277867317199707 -67.994781494140625
10.9072856903076172 1.29399585723876953 -60.7678108215332031
14.8373661041259766 -4.46580886840820312 57.1000022888183594
-8.72509002685546875 -31.5893745422363281 -9.31041717529296875
1.78892314434051514 35.0233573913574219 -52.4339179992675781
-18.4049568176269531 -15.5669527053833008 -22.6139736175537109
-10.5103540420532227 4.62555885314941406 -15.0291423797607422
-17.8144073486328125 -4.386505126953125 -38.6424407958984375
16.8932552337646484 -19.0919094085693359 -7.10410451889038086
9.36583614349365234 23.1405010223388672 43.6655731201171875
-14.8925018310546875 8.27359676361083984 -52.8635826110839844
-17.6053962707519531 -12.9324979782104492 19.9247856140136719
14.5780973434448242 0.239764243364334106 61.81109619140625
-7.07839250564575195 3.88831686973571777 65.3237533569335938
2.75065875053405762 34.8599586486816406 71.6334991455078125
10.6444797515869141 0.0406439751386642456 -60.46844482421875
16.8106708526611328 -17.7160263061523438 -13.0016956329345703
-4.4355616569519043 14.5640087127685547 -72.3792877197265625
-10.0019598007202148 20.0745449066162109 60.6551742553710938
-10.2712488174438477 4.7943415641784668 -15.1306514739990234
-3.21090102195739746 4.76940345764160156 0.597397327423095703
-1.60117912292480469 -20.1208324432373047 41.8904075622558594
11.8855915069580078 18.1986846923828125 -65.3875808715820312
3.75617837905883789 -22.5771503448486328 -39.4877662658691406
13.8569841384887695 3.46290326118469238 -56.3682937622070312
-16.1204547882080078 -2.05301427841186523 -48.0609245300292969
-9.59206962585449219 -31.0207557678222656 -11.5972537994384766
15.9814577102661133 -18.5435848236083984 29.6311664581298828
12.2444963455200195 -18.6246662139892578 -33.5966796875
-7.23880910873413086 11.1010951995849609 -25.8884372711181641
9.84934329986572266 16.0075893402099609 -36.4927444458007812
16.6550712585449219 -16.6118755340576172 -17.2469539642333984
-2.1697075366973877 -22.9398269653320312 36.647857666015625
8.90198230743408203 7.28071832656860352 19.6519603729248047
4.96541881561279297 32.8367118835449219 -61.0995101928710938
-15.6465253829956055 0.449755489826202393 -50.8585052490234375
-2.16835761070251465 13.3626689910888672 71.6601409912109375
-6.987274169921875 25.5298271179199219 -43.88092041015625
-11.1097440719604492 18.0931396484375 51.6765785217285156
-16.6748313903808594 -15.7794933319091797 25.0957107543945312
-5.59382247924804688 22.3208465576171875 -39.4266433715820312
7.9478912353515625 -22.5756664276123047 35.6679191589355469
11.1650333404541016 32.2301559448242188 72.28680419921875
4.1943058967590332 6.19033956527709961 12.2487630844116211
11.147486686706543 13.9622211456298828 -36.5758705139160156
-18.4036197662353516 -5.2994236946105957 -26.3042125701904297
8.44049930572509766 20.5473365783691406 -40.0733833312988281
18.8398380279541016 10.1385183334350586 59.0840072631835938
17.5501842498779297 -18.4019641876220703 0.557880759239196777
10.9892988204956055 -24.5163822174072266 25.0471267700195312
1.09963500499725342 9.70672321319580078 -19.4771595001220703
9.61843395233154297 -29.7345905303955078 7.46004199981689453
-8.06557083129882812 -24.7481632232666016 30.79150390625
13.1515483856201172 -26.2036151885986328 12.4721508026123047
-17.8801097869873047 -22.2111110687255859 -0.887755811214447021
15.282322883605957 17.8677444458007812 68.2370758056640625
0.102245151996612549 -26.8484973907470703 28.4045658111572266
6.23910140991210938 21.5704574584960938 40.1892662048339844
19.6898136138916016 -8.51823139190673828 30.0159130096435547
-11.7501592636108398 -19.6970901489257812 -39.7396202087402344
18.3475971221923828 -12.750396728515625 10.9302053451538086
-4.02886056900024414 -26.6901206970214844 28.1128273010253906
17.4913215637207031 19.0746078491210938 57.1950149536132812
-18.98828125 -16.1534500122070312 -10.5109148025512695
0.144253924489021301 -9.08663082122802734 56.0361557006835938
-16.9344100952148438 -23.5223350524902344 6.33072042465209961
3.12160515785217285 6.06405305862426758 -8.60982608795166016
-14.9603481292724609 -0.524295628070831299 -10.0360832214355469
-13.2728080749511719 0.299666553735733032 1.32345843315124512
-16.3980445861816406 -7.72216606140136719 -44.2999801635742188
19.2900428771972656 -8.40536212921142578 23.6168251037597656
12.6035146713256836 7.96478128433227539 -31.57568359375
