ply
format ascii 1.0
element vertex 783
comment vertices
property float x
property float y
property float z
end_header
-18.2855052947998047 -8.09829044342041016 10.0709772109985352
0.254506081342697144 8.70065689086914062 67.0336761474609375
13.2797813415527344 -0.397899746894836426 -43.4153633117675781
-13.9388332366943359 -13.3687038421630859 -9.20320320129394531
-3.29334926605224609 5.87740850448608398 -64.6829452514648438
0.427360475063323975 17.4861907958984375 43.93890380859375
14.7652902603149414 6.99788141250610352 -5.74220037460327148
-3.65524792671203613 -2.71346807479858398 58.1526260375976562
-11.9130411148071289 -9.07429313659667969 -42.73681640625
-17.0952320098876953 5.98331212997436523 -16.9855918884277344
-0.0116024985909461975 -17.2728538513183594 -31.4357185363769531
-16.7237224578857422 6.4039921760559082 -14.9725103378295898
-12.7478609085083008 9.00682163238525391 42.8973426818847656
-14.08984375 10.7331933975219727 -34.1920089721679688
10.4854507446289062 -15.0863046646118164 19.2959575653076172
-15.4168529510498047 -12.1823148727416992 9.13698005676269531
12.601557731628418 4.42697811126708984 45.961761474609375
-19.5960102081298828 -1.45394492149353027 -2.19005012512207031
-14.4924259185791016 -11.7185201644897461 -16.9181575775146484
-9.39118194580078125 14.8407878875732422 -37.5492782592773438
13.7264652252197266 7.15147829055786133 -23.5180034637451172
-13.467839241027832 -11.5122890472412109 31.2026233673095703
-1.65466117858886719 15.7394475936889648 19.5309257507324219
-11.6375322341918945 -13.8735618591308594 -24.2865867614746094
-15.8348779678344727 3.0071868896484375 -47.26654052734375
-2.69305610656738281 16.8528671264648438 -28.0166435241699219
-10.42767333984375 14.0534305572509766 -39.160888671875
-11.3790597915649414 -9.59212112426757812 41.8157119750976562
8.82918357849121094 13.8095970153808594 12.6879920959472656
11.022430419921875 3.71566033363342285 50.6227760314941406
0.642921864986419678 -10.127345085144043 -50.4968070983886719
-7.22966480255126953 10.3268699645996094 58.4004592895507812
1.25257134437561035 15.5876960754394531 0.478492051362991333
3.17931175231933594 -16.4474906921386719 -33.2589607238769531
6.73588418960571289 -18.3152351379394531 -14.9496698379516602
2.68651103973388672 -11.3039779663085938 49.0416450500488281
-17.2043952941894531 -8.65743923187255859 21.8425369262695312
9.04042530059814453 -17.0279312133789062 -11.496607780456543
-10.5379610061645508 13.6463890075683594 -42.8146324157714844
13.8033962249755859 7.36708498001098633 -27.8975620269775391
-7.37341785430908203 -6.38899040222167969 54.5163650512695312
13.1040668487548828 11.2385320663452148 19.2733383178710938
-4.2978663444519043 -19.9821548461914062 11.6785707473754883
-11.2310819625854492 12.0816841125488281 4.95171546936035156
9.13856124877929688 14.2631740570068359 23.63037109375
11.1794748306274414 0.627616286277770996 47.1124305725097656
-10.8862447738647461 10.3675575256347656 47.7699394226074219
-17.1182956695556641 -5.6867833137512207 33.2058219909667969
12.3752460479736328 -2.83387565612792969 38.2338371276855469
-17.1934661865234375 3.37265896797180176 39.5084266662597656
-12.1008234024047852 -13.439549446105957 -24.8277359008789062
-17.5784759521484375 -4.22966766357421875 -33.6570243835449219
14.708104133605957 1.04972612857818604 33.44775390625
-0.877825617790222168 15.7668342590332031 18.9093303680419922
-10.1702032089233398 12.8909749984741211 3.86200737953186035
4.53864049911499023 6.63130331039428711 65.7995986938476562
-4.51858234405517578 15.6834592819213867 21.3815441131591797
17.4543972015380859 -1.26379632949829102 3.46240043640136719
-8.57074356079101562 4.3387303352355957 59.3088798522949219
3.39331579208374023 -19.3741703033447266 -13.941584587097168
-12.9803342819213867 5.71800804138183594 -52.1376571655273438
-10.9868984222412109 12.4641828536987305 -6.17375326156616211
-14.6221189498901367 -13.0470571517944336 -1.65704202651977539
-19.3630466461181641 0.366709083318710327 4.39728021621704102
-14.1413555145263672 9.6663360595703125 -11.4605093002319336
-12.0086355209350586 -8.29385757446289062 43.1313514709472656
2.37851142883300781 17.0093307495117188 47.6192245483398438
-12.553706169128418 -15.5771570205688477 6.05293703079223633
-15.017176628112793 4.85579204559326172 47.1724395751953125
-13.3067474365234375 6.14630270004272461 -51.2154541015625
14.901275634765625 -7.18233346939086914 24.45556640625
-11.6950674057006836 -5.33259344100952148 50.6337089538574219
2.8104546070098877 -20.1830921173095703 5.80770254135131836
7.77193212509155273 10.1579160690307617 58.4853553771972656
12.5909976959228516 8.46268939971923828 -10.3443126678466797
7.45033979415893555 14.0400056838989258 5.02138328552246094
11.936802864074707 -14.3861494064331055 14.4782209396362305
3.1948707103729248 -6.99443912506103516 54.5064010620117188
3.72249960899353027 15.5476665496826172 -25.6700839996337891
-14.9623594284057617 -7.19153547286987305 -38.9035568237304688
9.34158229827880859 -7.28563165664672852 -47.1096267700195312
9.95116996765136719 11.3918428421020508 51.4838981628417969
-3.71911072731018066 14.2989597320556641 57.1662406921386719
12.4339141845703125 8.89205074310302734 -42.208831787109375
-15.365330696105957 6.31433391571044922 40.7890510559082031
-13.4403657913208008 -12.639256477355957 25.1613216400146484
-3.7642512321472168 1.41762816905975342 -60.5795974731445312
6.96607589721679688 4.77639532089233398 -57.3838043212890625
15.6991138458251953 -6.23605108261108398 -23.2101821899414062
1.34700989723205566 9.68507480621337891 -66.4513397216796875
5.34453105926513672 -10.6833972930908203 47.6125869750976562
12.4416933059692383 9.04897117614746094 -6.67520332336425781
-4.58514118194580078 16.8180313110351562 -39.9193077087402344
15.4189310073852539 8.46606636047363281 19.6421298980712891
-4.08787298202514648 16.0997447967529297 -48.3309059143066406
12.9576597213745117 -14.0135869979858398 -3.23085260391235352
-12.5304937362670898 5.3834834098815918 53.0320968627929688
-15.2709197998046875 -11.4884357452392578 21.4005126953125
12.7053079605102539 -6.27288007736206055 33.889251708984375
-14.2051153182983398 8.57251930236816406 27.9809608459472656
-18.2305870056152344 -7.05289602279663086 20.3778419494628906
13.8595771789550781 -12.5416116714477539 -9.80844020843505859
14.1461668014526367 8.34962940216064453 -1.22367668151855469
9.28618717193603516 -12.158473014831543 -37.5100936889648438
-13.2219171524047852 -14.6766910552978516 13.0201997756958008
8.73992919921875 11.8820657730102539 -15.7636499404907227
11.5364561080932617 3.02303886413574219 48.4455032348632812
14.7149486541748047 5.68644142150878906 -37.1087760925292969
-3.93546223640441895 16.5600624084472656 29.6356353759765625
-1.29064726829528809 14.917628288269043 -54.9682083129882812
2.4311668872833252 17.3326969146728516 34.9534492492675781
-9.66282749176025391 -1.26584255695343018 56.3361282348632812
-11.0548858642578125 -15.9991722106933594 -13.4403171539306641
11.4858293533325195 -5.0719447135925293 39.2441215515136719
3.28407669067382812 15.1828908920288086 55.6381645202636719
3.66942667961120605 0.406532526016235352 -59.3890762329101562
6.41329002380371094 -18.9355449676513672 8.72590923309326172
1.85266351699829102 14.7418918609619141 -52.0794334411621094
-13.3724546432495117 -12.2389621734619141 27.3102226257324219
-18.3760623931884766 -2.93793797492980957 33.89752197265625
-3.75157523155212402 14.1682071685791016 -62.7708663940429688
13.702366828918457 -6.84279727935791016 -35.4070968627929688
15.779088020324707 6.2772674560546875 -1.14791309833526611
2.99761724472045898 -18.9507160186767578 -20.2039718627929688
-9.27184295654296875 13.4044694900512695 12.4373159408569336
1.40921187400817871 -20.4033737182617188 2.91864657402038574
-0.35005149245262146 17.4756126403808594 43.2245597839355469
-12.2681818008422852 11.3564958572387695 -5.93190145492553711
-5.89185237884521484 15.2960300445556641 31.6075820922851562
5.91891765594482422 15.1304292678833008 -37.4614830017089844
0.576651513576507568 15.8067474365234375 19.3855037689208984
16.2652912139892578 -7.139556884765625 11.1508235931396484
-4.54947280883789062 -19.9215240478515625 -1.90593409538269043
-13.9481792449951172 10.779388427734375 -31.3821239471435547
10.2311363220214844 14.6955862045288086 35.7430763244628906
-3.96559667587280273 -19.3028106689453125 22.2275333404541016
2.86279773712158203 -5.51056814193725586 -55.1457290649414062
-13.4219512939453125 -12.2902727127075195 26.8832740783691406
8.34918498992919922 13.2806787490844727 -1.10017335414886475
-0.946254968643188477 -1.37907779216766357 -59.3562889099121094
-18.6294727325439453 2.90796637535095215 6.4493098258972168
14.9260883331298828 -8.77576160430908203 20.4840545654296875
-7.30195808410644531 2.16182971000671387 60.4802207946777344
-5.49376487731933594 -17.6740798950195312 31.1294479370117188
2.47122406959533691 15.3403806686401367 -1.2444537878036499
-5.39368581771850586 16.3728923797607422 -26.1749019622802734
-3.96562504768371582 15.6248378753662109 4.81344079971313477
15.9579973220825195 6.02445888519287109 29.9112815856933594
-17.1587276458740234 -9.70417404174804688 -1.2586895227432251
-9.70940208435058594 13.2378416061401367 4.33456087112426758
1.60614466667175293 14.0687437057495117 67.8800506591796875
16.9896030426025391 2.46986794471740723 -12.3074216842651367
-17.4424686431884766 5.77823495864868164 -34.4755668640136719
5.22081565856933594 14.4776973724365234 -6.32956838607788086
14.0041522979736328 -2.53157329559326172 -40.2763748168945312
4.57438421249389648 -17.0948543548583984 -28.6938285827636719
-15.8761157989501953 6.96351337432861328 21.5565547943115234
7.12180471420288086 1.03006517887115479 57.5895805358886719
-2.62878680229187012 15.5123424530029297 -63.3101577758789062
-0.677178859710693359 17.4171714782714844 34.6841201782226562
-10.5662107467651367 12.7296228408813477 -5.92147064208984375
2.66278743743896484 15.2925281524658203 -6.06484508514404297
12.740631103515625 1.87380588054656982 42.9859809875488281
10.9642448425292969 13.4277858734130859 43.3399238586425781
-11.8437004089355469 9.72158718109130859 45.3981781005859375
-4.27183914184570312 -11.9765796661376953 -45.5526542663574219
11.6284589767456055 5.17872381210327148 -48.7445793151855469
10.7817258834838867 -9.85784626007080078 36.6242637634277344
-8.24957275390625 8.994110107421875 58.1124191284179688
12.6011991500854492 9.49715137481689453 47.0489883422851562
-14.19390869140625 -8.69608020782470703 -37.5080947875976562
13.3763971328735352 -13.5577230453491211 -0.692318141460418701
17.1282901763916016 -2.68316078186035156 -13.3913736343383789
-11.0159444808959961 9.63589382171630859 50.5932044982910156
-3.69060945510864258 13.6365518569946289 -63.8598098754882812
-9.25370883941650391 7.7583465576171875 57.4829521179199219
3.72551155090332031 -18.1317825317382812 -24.0980186462402344
1.39456212520599365 -17.3604106903076172 33.6054649353027344
-1.84104585647583008 17.0084667205810547 30.2128334045410156
1.15777432918548584 15.5979576110839844 0.401341706514358521
-5.23171377182006836 15.3788318634033203 4.8110346794128418
9.76963329315185547 15.0568771362304688 38.6914253234863281
-11.6491298675537109 11.8520774841308594 -46.4525680541992188
12.7141532897949219 -2.28779268264770508 37.6007537841796875
11.5455102920532227 7.64621114730834961 50.3541069030761719
12.0403890609741211 10.2487049102783203 -36.61456298828125
-12.7356433868408203 10.6732873916625977 2.76849055290222168
-13.0931310653686523 10.7168560028076172 -9.35146617889404297
2.33164477348327637 16.7421760559082031 49.3185043334960938
6.57704877853393555 14.8017072677612305 15.1988897323608398
2.45287227630615234 -20.2468948364257812 -1.20465230941772461
6.41301298141479492 14.9517927169799805 17.9815502166748047
-9.23549747467041016 -17.7828941345214844 18.7347679138183594
-11.0378990173339844 -12.7398967742919922 -34.3951072692871094
-13.3705434799194336 9.47202682495117188 18.6492500305175781
11.7370100021362305 12.6550846099853516 23.2975292205810547
2.30033469200134277 14.0714263916015625 -54.3681602478027344
-2.01816630363464355 -19.8010940551757812 18.3475856781005859
-10.5490379333496094 12.1658964157104492 17.0518264770507812
1.57862186431884766 -20.1925926208496094 9.630096435546875
-16.1406364440917969 6.95380544662475586 5.50512599945068359
1.42134130001068115 15.8932571411132812 7.64118528366088867
-2.47520232200622559 -2.33192157745361328 -58.4712905883789062
4.40217971801757812 16.3702964782714844 48.6647720336914062
-4.15438461303710938 15.6562118530273438 7.78833675384521484
17.2757472991943359 2.80734467506408691 7.16738319396972656
8.99107837677001953 -17.6471576690673828 5.38843965530395508
-0.279590189456939697 15.8021879196166992 -49.3095169067382812
-8.64923381805419922 -6.4895472526550293 -50.7418441772460938
-0.796309351921081543 -10.6996078491210938 51.1843948364257812
-7.54388332366943359 7.59454584121704102 -58.7180213928222656
-16.4945793151855469 6.11397457122802734 21.5063762664794922
11.2859582901000977 -13.4188051223754883 -25.0890541076660156
3.97987246513366699 15.8215274810791016 -32.4088516235351562
15.6994543075561523 6.13894367218017578 32.0261383056640625
-14.1999855041503906 -9.04194068908691406 36.4706840515136719
-7.54592037200927734 -18.8300418853759766 0.896175861358642578
8.21086406707763672 -18.14227294921875 3.23299479484558105
12.7620611190795898 1.15545094013214111 -45.2832069396972656
14.6988430023193359 -10.853337287902832 12.0845212936401367
2.70859098434448242 15.3391304016113281 -0.396471589803695679
-5.48866462707519531 6.60011577606201172 63.7645301818847656
-8.79907989501953125 -14.1134786605834961 -34.7246475219726562
13.4527673721313477 1.14030945301055908 38.5401954650878906
12.1466808319091797 -8.42921352386474609 -38.1210784912109375
-2.1509242057800293 17.0446147918701172 44.6415977478027344
-15.8307037353515625 8.17325210571289062 -29.0862827301025391
0.401681959629058838 17.4689235687255859 66.0838775634765625
-17.3696937561035156 5.74139738082885742 -26.4364147186279297
0.660923302173614502 15.9654054641723633 23.4208698272705078
-9.48328304290771484 -14.5407466888427734 -31.2598323822021484
-9.99984264373779297 -2.49007534980773926 55.1998443603515625
14.6336145401000977 5.96697711944580078 -23.2742195129394531
13.4065237045288086 -12.207646369934082 17.2464485168457031
-8.22774219512939453 -17.0350456237792969 27.3752002716064453
16.3246631622314453 5.98233652114868164 9.71117782592773438
-18.1462364196777344 -7.39125299453735352 20.0755653381347656
5.92738103866577148 15.0364313125610352 16.79022216796875
-8.92703533172607422 -7.78509283065795898 -49.1019935607910156
-14.3066282272338867 -13.5746097564697266 2.34410309791564941
4.53847169876098633 15.1977863311767578 5.94276952743530273
-13.9559440612792969 -4.73751163482666016 46.3507919311523438
0.28714144229888916 -19.8211288452148438 17.7722530364990234
5.93260717391967773 -17.7025470733642578 22.7143611907958984
6.06766033172607422 8.89384841918945312 64.1407241821289062
9.67634010314941406 -16.2835807800292969 16.1580600738525391
-12.4615249633789062 -14.8363456726074219 -8.54998874664306641
-6.53744316101074219 14.5472860336303711 40.753204345703125
-12.1672630310058594 -15.3236370086669922 -4.19680404663085938
15.9323911666870117 2.5803685188293457 28.8934402465820312
-14.1009235382080078 -5.35524845123291016 44.4858283996582031
-2.12370133399963379 -10.0780696868896484 -50.5555801391601562
-13.1366291046142578 -14.2070388793945312 -6.36333656311035156
-16.5158119201660156 -3.14242315292358398 -41.1168365478515625
12.3313360214233398 3.07245850563049316 -46.8801307678222656
-7.55138063430786133 -8.20178699493408203 52.2243309020996094
2.63333320617675781 -20.1856021881103516 -2.3977348804473877
7.1298069953918457 7.01114797592163086 -57.3688774108886719
-14.2158269882202148 8.28385734558105469 31.4985523223876953
12.6645889282226562 -5.76039552688598633 -41.3368606567382812
11.3278474807739258 3.79064393043518066 -49.806182861328125
15.3142023086547852 4.90531063079833984 -33.1987495422363281
-16.2185173034667969 7.94916391372680664 -37.2036170959472656
16.1026782989501953 6.0070347785949707 5.15738153457641602
-9.76469802856445312 -0.198035016655921936 -55.3874931335449219
16.6296043395996094 -5.42528009414672852 -14.7162160873413086
14.4321203231811523 6.35563898086547852 -25.3108291625976562
17.1360454559326172 -4.51390171051025391 -8.09745311737060547
-9.02193164825439453 13.6486167907714844 4.92280435562133789
5.69327163696289062 6.38328027725219727 63.5442428588867188
-12.3697538375854492 9.62282276153564453 41.0775833129882812
-19.6288585662841797 -0.978001296520233154 13.0526514053344727
15.9925718307495117 1.05747735500335693 -27.638275146484375
-6.77093982696533203 14.8340988159179688 11.2232284545898438
5.68854141235351562 6.94105434417724609 63.6867942810058594
13.0487699508666992 9.49968624114990234 -1.57824790477752686
9.94922637939453125 13.4947366714477539 19.6090774536132812
-10.9335403442382812 11.9181928634643555 17.0660247802734375
11.761932373046875 -10.3040170669555664 -34.561676025390625
-13.1705265045166016 -9.08160686492919922 38.7583694458007812
-1.08071529865264893 4.02554941177368164 -63.4578590393066406
5.57957172393798828 5.46924018859863281 63.8973922729492188
-14.0853796005249023 -6.13802957534790039 42.1053276062011719
-8.33560562133789062 -14.652867317199707 -33.5350112915039062
1.31167745590209961 17.5326557159423828 43.8045578002929688
11.9253511428833008 -13.920893669128418 -18.2518749237060547
11.4797344207763672 6.40201425552368164 -48.9314651489257812
4.28662729263305664 -9.70858192443847656 50.2578582763671875
-4.28611183166503906 -16.8904495239257812 35.9732170104980469
-18.5352382659912109 2.1809847354888916 23.801483154296875
5.46272039413452148 -17.0006637573242188 28.1691951751708984
13.8617839813232422 -12.947575569152832 -1.45203030109405518
-16.3492755889892578 5.91104269027709961 28.4812431335449219
-5.58854818344116211 -13.9082069396972656 -40.0046119689941406
-17.5793285369873047 -4.86709880828857422 -32.1476783752441406
-14.5407733917236328 -13.4326190948486328 5.75886106491088867
-18.3749370574951172 -5.00613117218017578 28.4590682983398438
-14.8737144470214844 -10.9408493041992188 -18.0202102661132812
-18.3675003051757812 2.99734139442443848 -34.329681396484375
-10.506648063659668 -16.7029342651367188 -5.6237492561340332
7.37321329116821289 -14.1256208419799805 -35.8490638732910156
-1.24184060096740723 -4.87562942504882812 -56.5602226257324219
-0.601573944091796875 16.7813339233398438 -40.8303260803222656
-6.83390998840332031 14.3846778869628906 -49.6274986267089844
11.948155403137207 11.3103313446044922 7.91906595230102539
-4.29287385940551758 -14.9872474670410156 -37.6078453063964844
-4.73689031600952148 -19.9673347473144531 0.98777925968170166
-9.09210395812988281 14.3967733383178711 -20.4290943145751953
5.55536937713623047 14.2292709350585938 54.8992347717285156
13.2047319412231445 -12.5010356903076172 17.0183677673339844
-3.57875752449035645 -20.2393150329589844 6.24524021148681641
3.09243106842041016 15.5564966201782227 7.19004583358764648
5.92117452621459961 -10.6409826278686523 -46.7532997131347656
-3.46202564239501953 -1.12639379501342773 58.4958534240722656
0.571984648704528809 15.7488870620727539 17.7393627166748047
-6.90449190139770508 2.77269601821899414 61.0085792541503906
-7.46561527252197266 14.5720720291137695 -8.22942733764648438
-15.5841531753540039 -8.03762340545654297 -34.2179946899414062
-1.95331251621246338 16.0223064422607422 23.7375621795654297
-4.88236856460571289 -18.5524158477783203 26.61676025390625
15.7562637329101562 -8.61765289306640625 11.8269491195678711
-8.56827163696289062 13.875828742980957 -0.0395057424902915955
-17.7803630828857422 -7.02972412109375 -16.3272666931152344
16.4817409515380859 1.37091612815856934 -22.5299053192138672
-17.4969253540039062 -4.94635343551635742 -32.8186187744140625
17.0706863403320312 3.4314427375793457 -0.0158675946295261383
-4.30715799331665039 -16.7659759521484375 36.6400108337402344
5.79609394073486328 14.2954282760620117 68.5517196655273438
1.29051125049591064 16.0278759002685547 -18.8667373657226562
-10.4101696014404297 14.1596136093139648 -36.8785285949707031
-6.05442190170288086 -17.5996780395507812 30.7675762176513672
-3.4484560489654541 -3.28846263885498047 58.6283226013183594
16.8452529907226562 1.82557976245880127 21.9151287078857422
15.0038604736328125 9.44698143005371094 30.7338542938232422
6.39725637435913086 -18.7332420349121094 11.8941640853881836
16.5609798431396484 0.724669218063354492 23.7480621337890625
17.0721817016601562 3.61936187744140625 17.6003780364990234
0.818602383136749268 15.6068572998046875 -5.36092996597290039
-15.7527303695678711 7.48397111892700195 3.59656667709350586
5.36372041702270508 -17.933502197265625 22.8185501098632812
13.8112812042236328 7.66015148162841797 -33.2329368591308594
-16.7592067718505859 4.3890538215637207 39.9303741455078125
13.6291322708129883 9.42341327667236328 4.98861265182495117
1.92718291282653809 15.4565801620483398 -3.59304690361022949
7.10380887985229492 13.2495965957641602 -19.4716567993164062
6.24074029922485352 13.780120849609375 -12.7247638702392578
-0.866850376129150391 15.8220806121826172 20.3036384582519531
-19.3585948944091797 -5.51493406295776367 6.37488365173339844
9.64667892456054688 13.2719001770019531 11.4128179550170898
4.49602413177490234 -19.7085857391357422 -6.75665521621704102
17.1466102600097656 -4.80300474166870117 0.326872289180755615
-11.5604791641235352 -9.65889167785644531 -42.0638618469238281
5.17108011245727539 -19.1484508514404297 13.4818840026855469
12.8949241638183594 8.73593425750732422 -6.43409347534179688
-5.78431558609008789 16.0915908813476562 -23.6087913513183594
-12.8787784576416016 -13.2182903289794922 25.0142650604248047
17.3053607940673828 1.69600522518157959 3.38907122611999512
15.2587337493896484 -9.16654586791992188 -16.9083366394042969
13.4807119369506836 -12.8381986618041992 10.0332174301147461
-7.40798091888427734 12.7875137329101562 52.7176780700683594
-6.24197483062744141 14.9190435409545898 18.0957279205322266
-18.5410842895507812 2.63344120979309082 -3.26097989082336426
17.4283390045166016 -2.92245030403137207 -1.54648077487945557
9.66365337371826172 15.0068883895874023 40.1894111633300781
10.5709762573242188 3.73472833633422852 -51.4889259338378906
-12.7111616134643555 -14.0240240097045898 23.2972412109375
-1.74659764766693115 -20.4779052734375 5.22599172592163086
-13.9365644454956055 -4.05694007873535156 -47.1315231323242188
-17.0819034576416016 5.4808964729309082 -2.45857501029968262
5.8118290901184082 14.9435577392578125 -42.2289237976074219
-13.1944398880004883 10.0738725662231445 11.0411376953125
7.0315399169921875 -18.8740158081054688 3.75567460060119629
8.46822261810302734 12.4430484771728516 -25.3073883056640625
7.29117345809936523 13.523615837097168 -46.1645011901855469
6.87656736373901367 2.61714053153991699 58.6369209289550781
-0.47054213285446167 -5.50498867034912109 57.735382080078125
-9.90604496002197266 -16.1676883697509766 25.4589862823486328
-19.3891563415527344 -3.58005070686340332 20.9164772033691406
15.5666065216064453 -3.55041384696960449 -29.7197456359863281
16.9894981384277344 -5.7801976203918457 -4.17282438278198242
-18.8188076019287109 2.32972240447998047 7.13836574554443359
-3.93113327026367188 16.5930233001708984 35.0009956359863281
-19.1814041137695312 -3.16492795944213867 -19.4979496002197266
8.42534351348876953 13.2302274703979492 -1.4912494421005249
6.35870647430419922 -13.6392860412597656 -39.32275390625
1.79489481449127197 13.8118705749511719 -60.0219535827636719
13.2668952941894531 10.9931402206420898 18.6109104156494141
-5.84656190872192383 -19.6756076812744141 9.53521251678466797
14.4696474075317383 10.288691520690918 33.1396446228027344
9.20932769775390625 13.965876579284668 20.4363899230957031
9.22208023071289062 8.34230327606201172 56.0306434631347656
-2.79351162910461426 17.1204547882080078 32.2791099548339844
4.24676179885864258 -1.58809161186218262 -57.6373672485351562
4.11741399765014648 12.4180784225463867 -61.2350082397460938
3.41877269744873047 4.96828794479370117 64.545379638671875
-2.71456193923950195 -5.74240875244140625 57.6525993347167969
-9.81055355072021484 -12.3040533065795898 -38.7046623229980469
-8.01057338714599609 12.0761795043945312 53.4388236999511719
-9.17641639709472656 -17.6828632354736328 -8.156707763671875
9.95256996154785156 -7.19428634643554688 42.3045234680175781
-3.12704300880432129 15.6446924209594727 -5.77174949645996094
-5.65661144256591797 -14.9928083419799805 -36.421173095703125
-15.0923604965209961 7.91148614883422852 18.9980258941650391
0.380631864070892334 16.1875190734863281 67.1332778930664062
17.2663078308105469 -2.94755649566650391 7.10153722763061523
-2.46461319923400879 16.2219905853271484 -47.8487625122070312
-15.1471729278564453 9.48382663726806641 -34.5984458923339844
-18.5166187286376953 -2.5718841552734375 -30.2710418701171875
-19.0020523071289062 1.25767838954925537 -20.4540596008300781
2.94954371452331543 -17.2334232330322266 -29.8343734741210938
-16.0030384063720703 -8.90134048461914062 -28.9053916931152344
-6.0257720947265625 7.80651950836181641 63.3326225280761719
0.829308271408081055 5.13265466690063477 -64.5158462524414062
0.360792666673660278 -20.4116344451904297 1.20087504386901855
14.8796091079711914 -0.345361411571502686 31.3209934234619141
-4.65360355377197266 15.5294075012207031 -11.365203857421875
2.72052788734436035 15.6132535934448242 -16.2987232208251953
-18.6226921081542969 2.42722439765930176 -25.7914752960205078
-16.4439277648925781 6.81357765197753906 -14.4720497131347656
-17.4779109954833984 4.72118568420410156 14.4093103408813477
-8.66831302642822266 3.60788559913635254 59.0802688598632812
-9.90804195404052734 12.9119844436645508 11.6710700988769531
-19.4050960540771484 -0.829672515392303467 18.4035396575927734
11.0196352005004883 11.0324640274047852 49.4407234191894531
2.07011890411376953 10.1547880172729492 -65.7931060791015625
-16.5209388732910156 -7.01340484619140625 31.8968582153320312
-18.3968505859375 -1.39739274978637695 -34.2745361328125
14.3394031524658203 8.55912017822265625 5.04883146286010742
11.6575050354003906 11.2134809494018555 2.18521761894226074
6.81340837478637695 -5.17682075500488281 52.7717247009277344
-13.6126270294189453 8.83722686767578125 35.0631866455078125
0.308065682649612427 -6.7740941047668457 56.0232124328613281
-11.6917238235473633 12.9970321655273438 -30.9315986633300781
6.36334466934204102 7.73013925552368164 -58.7545585632324219
16.5041446685791016 5.34951877593994141 3.97425436973571777
-5.09632682800292969 13.8966693878173828 -53.9697265625
1.45804679393768311 13.81121826171875 -61.7429656982421875
-18.6954116821289062 2.05283117294311523 -27.2767181396484375
14.9756031036376953 -8.26169776916503906 -22.9688186645507812
-0.692182660102844238 7.68607759475708008 66.2886962890625
-5.6363983154296875 -14.5948486328125 41.8604278564453125
-0.62402653694152832 16.6629695892333984 -42.9161415100097656
17.4576320648193359 -0.442314654588699341 3.0159146785736084
-2.25547623634338379 -13.6927022933959961 -43.0159034729003906
11.5483818054199219 -10.866938591003418 -33.6574554443359375
-1.11759281158447266 -20.38177490234375 9.04598331451416016
-2.62781047821044922 16.8983860015869141 -39.8368339538574219
-0.819219708442687988 -19.5674343109130859 -15.9339170455932617
-12.9555368423461914 10.0544147491455078 14.4432992935180664
10.1927700042724609 -15.2416582107543945 19.7562313079833984
-9.06757640838623047 -17.8753318786621094 -1.75453603267669678
-10.1085443496704102 -16.5511054992675781 23.1271839141845703
-14.8988981246948242 -10.9140233993530273 25.7930774688720703
-1.57454311847686768 16.7566699981689453 -41.8477897644042969
10.2042036056518555 -16.0171222686767578 14.2616872787475586
16.8684959411621094 3.77932095527648926 -5.55740547180175781
-7.09963703155517578 -17.6906280517578125 -19.7615089416503906
10.5548248291015625 11.1745128631591797 -4.0656280517578125
-17.15338134765625 4.90425348281860352 27.3692874908447266
-13.7888898849487305 10.0540971755981445 -11.8014965057373047
-14.3624229431152344 -1.47752070426940918 48.96905517578125
-12.4897098541259766 -13.1466608047485352 -21.6257743835449219
10.3629140853881836 -16.4545764923095703 -8.20048904418945312
-11.4109611511230469 -16.4500331878662109 13.856410026550293
3.02018833160400391 7.12907600402832031 -63.5597648620605469
-14.0128412246704102 9.47753810882568359 -2.14287185668945312
11.702031135559082 2.17576694488525391 -48.9360389709472656
-12.7122945785522461 3.98444604873657227 53.3877220153808594
-15.1168670654296875 8.84289264678955078 -19.9030742645263672
-9.475799560546875 -15.4615259170532227 29.9133510589599609
7.9755096435546875 13.8778324127197266 -40.2885055541992188
-13.8233251571655273 9.73369121551513672 -4.06788015365600586
-16.4022483825683594 -1.26618647575378418 -43.8292045593261719
0.445151627063751221 14.7814435958862305 -53.8266448974609375
-17.1995601654052734 6.30107736587524414 -31.4167671203613281
-4.44932460784912109 15.3697719573974609 15.8226375579833984
14.6315746307373047 6.68851518630981445 38.2392158508300781
-11.5130138397216797 6.37959814071655273 -54.0037345886230469
-16.4957675933837891 -7.55667734146118164 -31.0572719573974609
-17.0412235260009766 -9.95887088775634766 0.420463025569915771
7.99024152755737305 12.5451431274414062 -19.9315547943115234
9.38829708099365234 4.23275995254516602 55.2485275268554688
8.77890396118164062 -15.6173543930053711 -25.6232395172119141
-19.3406429290771484 -3.43651437759399414 -14.657989501953125
-10.8535985946655273 -14.6598606109619141 -23.8087844848632812
-13.4524011611938477 -12.6763820648193359 24.9637641906738281
-5.20601558685302734 -19.8579978942871094 1.76051390171051025
7.47078180313110352 16.0393352508544922 41.9116897583007812
13.4740228652954102 -13.2047500610351562 6.40039730072021484
4.00045156478881836 -8.46757793426513672 52.1814117431640625
15.3252668380737305 -10.7461566925048828 -0.370213121175765991
-13.8198966979980469 -13.5039758682250977 -9.72224903106689453
-16.50360107421875 7.3355717658996582 -38.9331169128417969
14.3713970184326172 1.77465665340423584 -40.028564453125
-13.0405941009521484 9.69147872924804688 27.8716945648193359
15.2636890411376953 -10.8486413955688477 -0.64178919792175293
4.64585638046264648 6.9702153205871582 66.0644683837890625
12.4735612869262695 10.7084484100341797 5.96702289581298828
-2.32604813575744629 13.8654184341430664 66.6923675537109375
-6.71461057662963867 -15.3506479263305664 -34.0091629028320312
-7.84835672378540039 14.3793220520019531 10.0049819946289062
-14.149968147277832 6.21387815475463867 -49.4510345458984375
-6.23766279220581055 6.0734715461730957 -60.3434791564941406
-12.5796003341674805 10.7503223419189453 5.17437887191772461
7.50922632217407227 -17.6547718048095703 17.160919189453125
-14.9537572860717773 9.18866348266601562 -23.6768093109130859
9.56085014343261719 -17.189727783203125 -4.56464576721191406
14.7723484039306641 -7.06112575531005859 -28.6873779296875
-17.7490444183349609 4.46839475631713867 -12.3865509033203125
-8.62255668640136719 -15.5110254287719727 33.6824836730957031
-0.446635186672210693 -17.8521633148193359 -28.3628635406494141
-13.447422981262207 -14.0017805099487305 -4.73073148727416992
-5.89822292327880859 15.246220588684082 7.05523490905761719
9.93323040008544922 -10.7920112609863281 -39.1531486511230469
-19.6686305999755859 -1.33388054370880127 5.23487949371337891
-1.93125796318054199 5.12807703018188477 -64.6849594116210938
1.82158088684082031 14.2084846496582031 -54.6090812683105469
-4.71226835250854492 -1.04354941844940186 61.3691024780273438
-12.4700107574462891 -15.1655082702636719 18.0092353820800781
-19.2190704345703125 0.961972296237945557 4.91196966171264648
7.99785757064819336 -6.39504575729370117 49.2919692993164062
-8.46853828430175781 -17.0850811004638672 -17.8844146728515625
-9.985382080078125 -17.3428802490234375 0.0924885943531990051
-11.550724983215332 10.7460107803344727 31.2666740417480469
7.41061115264892578 1.20137953758239746 57.2433547973632812
-13.5535907745361328 1.88340914249420166 -51.4623870849609375
12.4814624786376953 9.09786701202392578 -40.6740493774414062
16.1155624389648438 -5.58486318588256836 19.6265125274658203
-1.3728405237197876 16.6030902862548828 -24.0907478332519531
-6.97951221466064453 -0.346959203481674194 58.6404304504394531
-13.7102441787719727 9.86418628692626953 -4.76828289031982422
-16.1258220672607422 8.05079746246337891 -34.7530975341796875
-16.2668933868408203 -10.7037591934204102 -6.32123422622680664
-13.4726076126098633 9.67710113525390625 12.6223678588867188
-16.8176918029785156 5.97823238372802734 3.49726009368896484
9.75416183471679688 -14.3944005966186523 -27.7246227264404297
8.45347881317138672 3.7306363582611084 56.9434700012207031
11.4598865509033203 12.280217170715332 45.1954002380371094
-15.3739299774169922 -3.4136197566986084 -44.7205429077148438
-9.94271659851074219 -16.4998931884765625 -15.6369600296020508
-0.503667235374450684 -19.0063018798828125 -21.4242801666259766
-7.88130092620849609 -18.6610908508300781 0.412956416606903076
-5.92631769180297852 -10.2913484573364258 -47.9311332702636719
-15.8482294082641602 -11.6214160919189453 6.49595260620117188
11.9447202682495117 -13.0125789642333984 22.6631050109863281
-1.05682551860809326 16.7149600982666016 65.2887725830078125
10.1660423278808594 -16.8164997100830078 -2.32340168952941895
8.28982257843017578 -6.31313943862915039 48.4605941772460938
-13.6073722839355469 10.7877273559570312 -24.6810169219970703
-9.84389019012451172 -15.2077951431274414 30.1484088897705078
14.8832988739013672 7.80032634735107422 4.43398952484130859
7.26148700714111328 15.034358024597168 23.8983001708984375
-6.83063983917236328 -16.7624034881591797 32.5535049438476562
12.9012079238891602 8.57135486602783203 -40.3015937805175781
-13.9242734909057617 8.88262462615966797 28.8630084991455078
-12.1865806579589844 10.7698354721069336 16.5086040496826172
1.4210057258605957 16.7791538238525391 -36.0441055297851562
-17.0604934692382812 6.39748430252075195 -28.0747642517089844
-0.970811069011688232 16.0498142242431641 -14.418156623840332
-11.8863639831542969 -15.4730701446533203 19.1136131286621094
8.80053615570068359 -2.4954075813293457 51.0475196838378906
9.48230171203613281 -0.0835479125380516052 51.5224685668945312
6.41526222229003906 -19.1606540679931641 -3.38049602508544922
-17.5909976959228516 -8.72975063323974609 -4.17023611068725586
11.898686408996582 -14.5458440780639648 -13.1457233428955078
14.5384378433227539 -4.61554574966430664 28.7035694122314453
17.5344257354736328 -1.54652762413024902 -6.43023347854614258
4.99666690826416016 14.6193504333496094 -19.2967872619628906
14.5494775772094727 -8.29880332946777344 -26.5382556915283203
-5.12354612350463867 12.1842451095581055 -62.9738121032714844
-9.31184768676757812 13.4003686904907227 11.7191696166992188
-7.26597833633422852 14.5415887832641602 3.71171712875366211
-7.05002355575561523 -7.74136543273925781 -50.9725494384765625
-2.68728232383728027 -10.7526369094848633 -49.3386688232421875
13.0397157669067383 -13.8980579376220703 -4.14920997619628906
8.5022125244140625 5.58801078796386719 57.4572372436523438
-7.69154596328735352 -18.8947525024414062 4.68314266204833984
-17.3735847473144531 -9.74350261688232422 8.5318603515625
6.54191446304321289 14.9231758117675781 18.2250537872314453
-18.6422996520996094 2.45552849769592285 17.87188720703125
-18.7843875885009766 2.2487940788269043 2.0611107349395752
-11.6724510192871094 11.9157705307006836 -46.152679443359375
-8.32114791870117188 13.3652524948120117 35.8147163391113281
17.1404132843017578 -3.8868248462677002 -9.93069648742675781
-10.9825439453125 11.7767133712768555 -48.2320785522460938
17.0150108337402344 -3.67062234878540039 12.6592912673950195
-7.77738809585571289 -18.4098720550537109 -6.74242353439331055
-13.7105531692504883 -11.8992424011230469 -27.2085399627685547
6.33530139923095703 15.381556510925293 25.5544948577880859
-7.38242197036743164 2.17376708984375 60.4049491882324219
-7.94032859802246094 -16.6702499389648438 -24.519775390625
-13.529022216796875 10.9135637283325195 -25.8039035797119141
0.319787263870239258 -9.13587570190429688 53.1135787963867188
-0.13080008327960968 16.1166229248046875 62.014495849609375
-16.0179996490478516 8.04601860046386719 -29.6983871459960938
17.4539756774902344 -0.672773778438568115 -7.95548009872436523
16.9648494720458984 -4.14172458648681641 -13.1524124145507812
-17.75726318359375 4.22489738464355469 25.0648136138916016
8.69822406768798828 -13.8915233612060547 32.8980598449707031
-11.7075719833374023 1.40874946117401123 54.5980567932128906
10.891688346862793 13.0018653869628906 20.1544837951660156
-13.2391319274902344 -12.033116340637207 28.7542304992675781
-6.79082059860229492 14.7981452941894531 25.6736049652099609
-17.1278038024902344 2.13752198219299316 41.8051338195800781
-5.97719287872314453 -18.3037166595458984 26.2852516174316406
7.59854602813720703 -17.6360263824462891 -16.319244384765625
-16.9031639099121094 -1.50356602668762207 41.5622787475585938
12.2082233428955078 -11.4107522964477539 -28.5255031585693359
15.5409727096557617 5.01365852355957031 -12.3463048934936523
0.508560717105865479 15.7802944183349609 61.3383255004882812
16.5712738037109375 5.41380500793457031 24.4528770446777344
-1.92061090469360352 15.988032341003418 23.1020107269287109
-14.4045381546020508 8.96292304992675781 6.50365257263183594
-11.6279048919677734 13.1895418167114258 -36.4184494018554688
-13.4133777618408203 11.1841039657592773 -27.9022235870361328
6.00818634033203125 -19.1334686279296875 9.72110366821289062
-10.724395751953125 -16.7703933715820312 0.545782148838043213
-12.1247806549072266 -12.3000164031982422 34.2692222595214844
15.1923370361328125 -7.01347970962524414 23.0972919464111328
-18.9625778198242188 1.30319881439208984 -2.39936518669128418
9.37076282501220703 13.7839946746826172 16.1648921966552734
-1.3707125186920166 17.3069419860839844 43.7044410705566406
14.9328022003173828 2.63145613670349121 -36.28826904296875
6.16701126098632812 -18.3802967071533203 -16.3463973999023438
-10.1997594833374023 -14.761082649230957 -28.0032825469970703
9.18747806549072266 -9.63457584381103516 41.8172645568847656
-3.61212778091430664 16.9490642547607422 -35.1025962829589844
-4.09693288803100586 16.3944492340087891 37.0703926086425781
7.39700031280517578 -15.5541048049926758 -29.9932460784912109
-17.6531696319580078 5.25966215133666992 -25.0927085876464844
-6.6357874870300293 15.4565906524658203 -19.0555248260498047
1.33612394332885742 14.1732387542724609 -60.9173011779785156
4.30984973907470703 -16.5619087219238281 -31.4796314239501953
-18.8706912994384766 -1.19674074649810791 -30.1825332641601562
-16.5295600891113281 6.62955522537231445 -13.9544811248779297
-3.94819021224975586 16.5098381042480469 27.9809799194335938
5.41399097442626953 -1.00608587265014648 58.2108306884765625
-6.42966890335083008 -9.10659694671630859 51.8790931701660156
-15.844294548034668 6.33197450637817383 32.7783889770507812
5.33725214004516602 14.6533498764038086 -2.11559653282165527
-5.64219236373901367 -16.4083404541015625 36.36602783203125
10.9678478240966797 8.27660846710205078 -48.5166473388671875
-3.16571903228759766 -16.5458316802978516 37.9187164306640625
14.0690345764160156 8.83446693420410156 3.4801025390625
14.3017120361328125 -10.5518503189086914 -19.4726161956787109
-16.3267326354980469 6.88764524459838867 -8.66072845458984375
-10.7752466201782227 2.7953345775604248 56.3347206115722656
-0.856540977954864502 16.0349788665771484 55.569854736328125
-18.8807449340820312 -6.9669489860534668 5.13154458999633789
-2.79981398582458496 -14.5542459487915039 -39.9485359191894531
14.2221088409423828 8.85740184783935547 7.46275138854980469
-11.1793451309204102 10.5650672912597656 43.5974197387695312
-18.0689754486083984 4.28706836700439453 -33.5991668701171875
-7.60523319244384766 15.2209033966064453 -44.8652496337890625
0.681579768657684326 15.6339206695556641 56.4897232055664062
16.3118476867675781 1.50037467479705811 25.8128948211669922
5.30720806121826172 16.8886528015136719 43.846038818359375
-18.2787437438964844 1.22487115859985352 -37.6715774536132812
14.6027002334594727 -11.6564760208129883 -7.78678131103515625
13.6719875335693359 8.71295642852783203 42.8617935180664062
-2.86076760292053223 7.46839666366577148 -65.7581710815429688
-12.3278827667236328 -12.2701892852783203 33.06781005859375
6.68900394439697266 14.0192298889160156 52.7741661071777344
5.9644017219543457 1.59065377712249756 -57.6307334899902344
-16.5233154296875 7.17895889282226562 -27.8634071350097656
14.7177820205688477 -11.2515182495117188 -10.1704721450805664
-2.24272990226745605 16.0374469757080078 23.5379009246826172
-14.5804824829101562 8.83765029907226562 -0.66033470630645752
16.1024112701416016 -8.18717575073242188 -11.3795108795166016
-12.2543430328369141 -14.4843921661376953 23.4312381744384766
14.3141975402832031 1.77138304710388184 35.9477767944335938
3.39557313919067383 17.0986747741699219 45.6876792907714844
2.43034648895263672 12.5593624114990234 67.83892822265625
-12.2192831039428711 5.32249832153320312 -53.5110435485839844
13.3691339492797852 -12.419276237487793 -16.3174304962158203
-3.88574004173278809 14.9721765518188477 -53.6222572326660156
12.9524631500244141 -4.86302471160888672 -41.7011070251464844
15.4384403228759766 -8.850677490234375 -16.155120849609375
0.763373076915740967 -18.9867916107177734 25.5329322814941406
13.3743305206298828 -1.98115074634552002 -42.5998344421386719
0.731219053268432617 16.5302486419677734 -25.6768913269042969
6.55330514907836914 13.6308984756469727 -17.4261131286621094
-5.12040376663208008 1.13324499130249023 -59.4071235656738281
-13.9077701568603516 10.8944234848022461 -32.8089675903320312
14.0423421859741211 -0.180473446846008301 34.9270591735839844
-14.622035026550293 8.74701023101806641 0.590463876724243164
8.90791225433349609 13.2178945541381836 -34.5928840637207031
-19.1621417999267578 -1.76959562301635742 27.7380161285400391
12.4707698822021484 -12.2565202713012695 23.0427455902099609
-6.61895513534545898 -14.048487663269043 42.08404541015625
8.66431713104248047 13.6296634674072266 49.4318923950195312
-8.27380752563476562 -18.6739482879638672 10.4946022033691406
17.3533935546875 1.37546384334564209 6.92203855514526367
-12.8703927993774414 10.4523239135742188 10.0761842727661133
1.6404266357421875 0.447821229696273804 -60.207366943359375
-18.2152614593505859 3.74070072174072266 4.92953157424926758
13.8065729141235352 -12.8055877685546875 -7.29250526428222656
6.40517663955688477 -18.6631565093994141 12.2578125
8.34398555755615234 -17.9644031524658203 7.51723051071166992
5.26919841766357422 12.4574403762817383 60.7497177124023438
9.54571342468261719 11.5446901321411133 -8.16605377197265625
-8.63256359100341797 13.8889493942260742 -5.46708774566650391
-13.6701183319091797 9.90239620208740234 -6.45353031158447266
15.5624275207519531 -7.75844049453735352 18.7503414154052734
-10.2693138122558594 4.33317136764526367 -55.9054450988769531
6.18735694885253906 -19.1635093688964844 -6.09982681274414062
-9.97067546844482422 6.13794374465942383 -56.1201324462890625
2.76751971244812012 -2.32623791694641113 -57.7719879150390625
-12.1103630065917969 10.2948799133300781 32.8590507507324219
2.42443728446960449 -18.4404315948486328 -23.7649993896484375
15.2992982864379883 5.06570053100585938 -22.8277778625488281
11.1761283874511719 12.5366220474243164 14.821497917175293
5.54732656478881836 -4.54737424850463867 54.9007415771484375
1.56071913242340088 16.8045902252197266 49.6617355346679688
-17.5707759857177734 1.49086296558380127 39.8253898620605469
4.57026147842407227 14.7250652313232422 -47.7463951110839844
-11.1175451278686523 6.05348014831542969 -54.7767753601074219
16.2588939666748047 -5.95177412033081055 17.4723072052001953
-14.3621978759765625 -10.7448787689208984 30.9459037780761719
1.71890175342559814 -18.9877662658691406 -20.4128952026367188
13.590362548828125 -13.2849674224853516 0.474472314119338989
-1.50192093849182129 16.5853672027587891 -23.5848045349121094
6.29562616348266602 13.3356618881225586 68.379730224609375
-16.8009109497070312 -10.5637845993041992 11.8417806625366211
-13.2738780975341797 10.5897703170776367 -11.3737125396728516
14.9123907089233398 9.62480831146240234 31.3017501831054688
1.10818588733673096 15.6969738006591797 3.50857019424438477
-16.2451972961425781 6.48483848571777344 12.0838623046875
-3.94713306427001953 16.3864669799804688 39.0748634338378906
1.08747565746307373 15.9126348495483398 22.2754039764404297
0.40101352334022522 -16.8411579132080078 -33.2164497375488281
-4.58652448654174805 8.12350082397460938 -64.94732666015625
-3.40770554542541504 -19.7886753082275391 -8.92682743072509766
10.667414665222168 11.7228116989135742 -35.5976409912109375
16.9252471923828125 4.83781909942626953 18.2539730072021484
16.0091590881347656 -6.95138311386108398 -17.7508869171142578
-17.5551033020019531 5.06257295608520508 -19.0990447998046875
6.69936418533325195 12.5061483383178711 -50.7264404296875
-1.29015302658081055 -13.6259031295776367 -43.4405937194824219
-9.27510452270507812 13.4575881958007812 2.18047285079956055
-3.74539303779602051 15.5633583068847656 1.09269332885742188
-10.931462287902832 -4.98300743103027344 -50.1614418029785156
-3.11914420127868652 15.3436918258666992 54.7071990966796875
2.23344683647155762 -6.40062713623046875 -54.6154098510742188
-3.59446239471435547 15.4425668716430664 52.4689178466796875
2.87848091125488281 15.6378278732299805 13.4124917984008789
2.99531388282775879 -20.1087417602539062 -3.45882558822631836
-10.9624090194702148 11.3115100860595703 34.0132293701171875
-10.3422269821166992 12.8171100616455078 5.33374452590942383
-2.07197999954223633 1.82894515991210938 -61.4893875122070312
1.64873707294464111 15.5417556762695312 -7.42900896072387695
-3.71811962127685547 14.6564855575561523 -60.2734413146972656
17.3692188262939453 -1.46210002899169922 -9.86336231231689453
-15.073369026184082 8.75147438049316406 -17.0672512054443359
-2.10307908058166504 -7.41948795318603516 -53.9842758178710938
8.76400661468505859 -17.3050289154052734 11.4617109298706055
-17.9413490295410156 -8.66779708862304688 1.25688028335571289
12.6406869888305664 10.6383810043334961 6.87293767929077148
4.52030181884765625 -19.0672836303710938 -15.1265344619750977
-4.00761795043945312 -0.820969998836517334 59.2858963012695312
-18.7963619232177734 -1.41326451301574707 32.0960540771484375
-17.3089561462402344 4.93576860427856445 19.8201560974121094
-2.52410578727722168 6.34882307052612305 65.8173294067382812
0.118679195642471313 -19.8221321105957031 18.1806716918945312
-5.58881902694702148 16.4139556884765625 -27.1387672424316406
14.8618698120117188 5.82088613510131836 -27.946563720703125
-12.7374887466430664 8.70537662506103516 46.0554847717285156
-14.4506292343139648 8.45969009399414062 20.3390464782714844
0.200690686702728271 17.4386062622070312 44.2799530029296875
14.2438211441040039 -6.23641538619995117 28.5455093383789062
11.0219364166259766 -10.6204309463500977 34.7321090698242188
2.21198034286499023 -17.0460929870605469 -31.3304252624511719
3.4427647590637207 15.3039379119873047 2.72991538047790527
-7.63843488693237305 0.689552783966064453 59.5066108703613281
16.0722484588623047 7.54931402206420898 26.5232162475585938
-18.8934097290039062 -0.0893849432468414307 28.7243309020996094
12.7647075653076172 8.75479888916015625 -40.41015625
-1.29836463928222656 16.6173667907714844 -24.3779640197753906
1.35070443153381348 -20.3087272644042969 -3.29699230194091797
9.47132587432861328 11.3015260696411133 -14.4409732818603516
6.71264553070068359 13.7737503051757812 -24.9247074127197266
-4.86127662658691406 -10.687870979309082 -48.09783935546875
5.49706077575683594 15.247715950012207 -35.0221900939941406
