ply
format ascii 1.0
element vertex 783
comment vertices
property float x
property float y
property float z
end_header
-7.36735343933105469 17.7241382598876953 -21.0638351440429688
7.07586908340454102 -13.5211248397827148 -16.2005577087402344
-13.9637451171875 -6.38113689422607422 -19.7517013549804688
-13.1526355743408203 -0.785055339336395264 -21.3551101684570312
12.4686040878295898 21.4470577239990234 10.5851039886474609
7.93225383758544922 24.4058685302734375 -5.07508182525634766
13.5493230819702148 -8.67795944213867188 -23.0449180603027344
-12.6819229125976562 -8.45207881927490234 -4.51460933685302734
5.22150897979736328 -14.5780792236328125 7.03667211532592773
-10.8669395446777344 17.8146305084228516 -1.87052059173583984
-2.9375312328338623 7.86960363388061523 -21.8518295288085938
4.29805183410644531 24.6621646881103516 -3.82835865020751953
-14.1718893051147461 10.2482471466064453 1.41782820224761963
-7.40220499038696289 20.419525146484375 11.7533626556396484
7.6232457160949707 10.7068262100219727 21.8255176544189453
-14.3495912551879883 11.7199897766113281 -3.98953461647033691
-2.49091434478759766 8.2407379150390625 23.0476036071777344
19.0510616302490234 -2.87003040313720703 -16.8894443511962891
18.6750946044921875 10.3746137619018555 3.57436704635620117
9.01214981079101562 23.6337013244628906 1.1778862476348877
-9.51728248596191406 3.54882311820983887 24.7307662963867188
-1.51472330093383789 -14.658055305480957 12.8633632659912109
-17.1672019958496094 9.97597599029541016 -18.7417945861816406
-15.2657833099365234 0.85746467113494873 -20.8169403076171875
-10.9437465667724609 22.4833431243896484 -16.3779888153076172
17.1829662322998047 15.2689962387084961 -0.950331449508666992
19.1111583709716797 -1.87648451328277588 -24.3597812652587891
8.94684028625488281 8.29843616485595703 -22.9235210418701172
-16.4162235260009766 2.07636070251464844 -9.78221988677978516
-1.53303897380828857 0.751640796661376953 25.0103359222412109
16.7491436004638672 -7.2180476188659668 -14.5520505905151367
15.5144500732421875 -3.24779891967773438 24.3353767395019531
-3.06134557723999023 -10.4241151809692383 24.8880901336669922
-9.675689697265625 -10.5110406875610352 9.32830619812011719
3.95219230651855469 -3.38310003280639648 -22.9252872467041016
7.87090873718261719 -12.5527820587158203 -20.6972465515136719
-3.77016234397888184 -2.66677260398864746 -22.0296173095703125
-16.70721435546875 2.7773594856262207 -11.6046257019042969
-11.9060020446777344 11.8278942108154297 15.9759120941162109
7.57598686218261719 -14.0837001800537109 -10.3479328155517578
-4.45947122573852539 -3.79048609733581543 -21.9933605194091797
9.16189193725585938 -4.93303060531616211 -23.2966346740722656
-0.280063897371292114 -1.85900461673736572 25.8573951721191406
-17.2407493591308594 9.21928501129150391 -18.1672897338867188
0.138325899839401245 17.1981716156005859 -21.7847766876220703
6.84583330154418945 23.7092666625976562 6.54423093795776367
16.9024543762207031 13.255885124206543 11.9994392395019531
-15.9329643249511719 11.1596136093139648 -12.7409048080444336
0.115458667278289795 -2.72738361358642578 -22.4679012298583984
1.95515918731689453 -15.1130800247192383 8.22588729858398438
-9.02349090576171875 19.7787094116210938 -0.191265881061553955
2.03414201736450195 -14.1035499572753906 14.3185558319091797
15.0025243759155273 -1.17784011363983154 -23.7011756896972656
13.1175146102905273 21.2601203918457031 5.40730047225952148
16.4408397674560547 18.8104038238525391 -14.9415035247802734
-10.4228067398071289 4.34071588516235352 -21.3569698333740234
-10.7350997924804688 4.55948162078857422 -21.3446216583251953
-7.11638164520263672 8.63101959228515625 -21.3277854919433594
-8.61861038208007812 18.4697284698486328 16.9246730804443359
7.58294486999511719 -14.2406997680664062 2.20405030250549316
11.3792085647583008 -7.77046632766723633 -23.84539794921875
-3.61397671699523926 24.0382957458496094 13.3935861587524414
-9.52924346923828125 -9.49282455444335938 13.4881992340087891
-14.0279064178466797 12.3699684143066406 -3.63452529907226562
-2.23642301559448242 15.4480094909667969 -21.5961647033691406
10.4892148971557617 2.80635261535644531 24.6093463897705078
14.6217899322509766 -10.5095243453979492 7.22695350646972656
0.634746909141540527 -15.6058855056762695 4.09353828430175781
-11.2892704010009766 16.0083961486816406 1.96093201637268066
12.9790401458740234 23.0203857421875 -8.91866397857666016
2.84509086608886719 15.2557706832885742 20.8602924346923828
-12.784062385559082 -1.1601102352142334 17.4577121734619141
0.662649810314178467 2.73558354377746582 -22.3911018371582031
12.5623092651367188 1.55398857593536377 -23.6422386169433594
11.567194938659668 -8.43325519561767578 -23.7241153717041016
18.0100879669189453 12.6819267272949219 2.8443605899810791
10.1813821792602539 24.0946826934814453 -6.44238471984863281
20.4219093322753906 7.10103034973144531 -22.0241031646728516
-13.3459987640380859 15.1662511825561523 -6.76758098602294922
11.084834098815918 -13.1404228210449219 -1.00561487674713135
0.756118714809417725 -15.4159622192382812 -10.7138938903808594
-10.4657764434814453 12.7756633758544922 22.2756710052490234
17.8094768524169922 7.93530178070068359 17.5980377197265625
-13.1960935592651367 -6.41369819641113281 1.85804343223571777
-7.01474428176879883 -2.04939556121826172 26.0974979400634766
12.7628564834594727 15.0956430435180664 20.6181850433349609
4.56655263900756836 -4.41033458709716797 -23.06640625
-12.512298583984375 16.5167236328125 -20.6837158203125
19.9998607635498047 7.32897043228149414 -3.0985264778137207
-12.1934280395507812 -3.42158675193786621 16.7630691528320312
-10.105860710144043 15.6445074081420898 20.0538425445556641
-7.16548919677734375 -9.62535285949707031 19.6618804931640625
8.95379734039306641 14.0806636810302734 21.1908473968505859
17.7028102874755859 -0.585375189781188965 19.4097652435302734
7.01044845581054688 26.3886451721191406 -15.3777151107788086
-9.81259536743164062 -11.5061960220336914 -13.6210260391235352
4.51587677001953125 -13.0933170318603516 16.7483711242675781
-15.8086814880371094 -3.12203645706176758 -16.6976985931396484
7.97194671630859375 1.28499066829681396 -23.1925735473632812
-5.33084487915039062 -9.36775875091552734 23.9508190155029297
-15.1854782104492188 6.77139186859130859 0.662840366363525391
-5.01719236373901367 23.8464107513427734 6.93194007873535156
-17.7405834197998047 2.99785041809082031 -19.5794181823730469
-10.3765602111816406 18.5217475891113281 -2.05510377883911133
16.3399677276611328 20.5529804229736328 -22.7029514312744141
-1.81186783313751221 -8.72594738006591797 27.8434028625488281
-17.2284126281738281 0.778795778751373291 -19.1806735992431641
9.61544513702392578 -10.4661731719970703 20.1322841644287109
-4.74877119064331055 23.8435478210449219 10.8273248672485352
18.4945049285888672 -4.26132440567016602 -14.8100910186767578
-10.6198396682739258 -10.7774648666381836 -16.2612648010253906
19.5864925384521484 -2.58603477478027344 -3.58542203903198242
16.9311885833740234 18.7419013977050781 -19.2808666229248047
6.08519887924194336 -10.8381977081298828 22.9846763610839844
-16.0833396911621094 14.6936073303222656 -19.9906501770019531
-15.5230445861816406 2.61756038665771484 -20.8327293395996094
2.04555535316467285 -15.4881296157836914 -4.31668329238891602
13.3459692001342773 20.6705646514892578 7.95972061157226562
-11.2488317489624023 12.5930919647216797 19.0243625640869141
3.50979161262512207 19.0872478485107422 19.8384647369384766
19.5585403442382812 10.2048616409301758 -24.1853580474853516
12.35552978515625 -12.6708354949951172 -4.3462677001953125
-6.96494388580322266 20.9468479156494141 13.0472574234008789
-11.3292007446289062 9.47097110748291016 -21.1116085052490234
5.7054142951965332 -2.19874072074890137 -23.0387992858886719
-8.12115383148193359 -12.7249822616577148 0.771888434886932373
-9.31005191802978516 5.80335617065429688 24.1855640411376953
-3.80677080154418945 2.24562525749206543 24.7909355163574219
-9.06402301788330078 -8.32636165618896484 18.5988006591796875
17.2153167724609375 10.9319038391113281 17.41204833984375
-7.81207466125488281 20.1110477447509766 8.16858196258544922
6.78051137924194336 25.4152011871337891 -10.9026346206665039
13.5688714981079102 -0.876863300800323486 -23.5684356689453125
0.427705377340316772 -14.5188684463500977 13.7902021408081055
-4.15449953079223633 13.0767145156860352 21.8204689025878906
-1.54121625423431396 -7.40559959411621094 26.7383327484130859
-7.70467281341552734 -1.93344461917877197 -21.6503658294677734
5.24198627471923828 24.0269908905029297 1.60916948318481445
20.2358112335205078 8.12431716918945312 -24.0875816345214844
18.9343338012695312 11.2168483734130859 -3.84534311294555664
2.5361175537109375 16.2856178283691406 -21.9630947113037109
20.5327911376953125 5.14161443710327148 -19.3258781433105469
10.3973302841186523 11.2377767562866211 21.8587074279785156
3.29739141464233398 24.2502727508544922 0.747506320476531982
12.9299516677856445 14.4425811767578125 -23.1263713836669922
20.2362194061279297 7.2634429931640625 -8.35212135314941406
-14.5747518539428711 -1.36064362525939941 4.89303731918334961
-10.4640779495239258 19.2313671112060547 -5.06525897979736328
-1.90981411933898926 13.3015623092651367 -21.46539306640625
-6.15073299407958984 -11.431884765625 16.6621685028076172
-13.6250267028808594 -6.09515905380249023 -1.8347480297088623
1.61680889129638672 -10.9440765380859375 25.5028171539306641
-2.98363423347473145 15.4961328506469727 20.8717555999755859
-10.8714466094970703 14.383448600769043 15.387059211730957
-10.0357217788696289 22.2822399139404297 -13.2130126953125
-3.6629631519317627 24.0173625946044922 13.9712057113647461
-6.61118507385253906 -13.9007158279418945 -3.66771245002746582
0.188883081078529358 11.0678348541259766 22.0677547454833984
-12.3521747589111328 -9.20008087158203125 -22.0683727264404297
18.1063079833984375 9.68191909790039062 -23.8294124603271484
-9.23651885986328125 17.9506549835205078 11.0076961517333984
18.027008056640625 -3.58620524406433105 -21.8579540252685547
11.4876728057861328 22.4602108001708984 12.4142665863037109
-9.96448135375976562 -10.1783905029296875 9.232086181640625
-15.1459455490112305 -1.72735726833343506 -6.28608417510986328
17.876007080078125 -3.35942697525024414 14.6355657577514648
18.8445587158203125 -2.23144435882568359 -20.5729312896728516
-7.0500340461730957 -12.9646501541137695 5.54578828811645508
14.9664220809936523 -10.306178092956543 -9.66933441162109375
-5.18890571594238281 26.4724292755126953 -11.9574947357177734
19.8162975311279297 -0.351199984550476074 -18.7383441925048828
12.1854925155639648 20.7917556762695312 17.0108737945556641
-2.95472311973571777 24.0552253723144531 11.3709096908569336
-5.89187145233154297 -12.6090726852416992 12.3639516830444336
20.6327056884765625 3.90768051147460938 -12.0272455215454102
-0.771332800388336182 24.2488918304443359 2.42879700660705566
15.9811296463012695 -7.84837245941162109 -17.5542373657226562
4.7405238151550293 -12.3074493408203125 19.5117626190185547
-6.00634860992431641 19.493408203125 -21.0552597045898438
-0.966091454029083252 -13.7580375671386719 17.7934780120849609
14.267247200012207 -7.89513635635375977 19.2626724243164062
17.9650650024414062 -4.20072317123413086 -19.9266433715820312
-13.2430410385131836 10.2249460220336914 8.21777820587158203
17.8302688598632812 13.251399040222168 1.68118166923522949
-2.49934577941894531 24.0394287109375 17.4026031494140625
-3.49836611747741699 -15.1705942153930664 3.46630311012268066
-15.2694015502929688 14.7570858001708984 -15.9268102645874023
20.2606945037841797 -0.274183154106140137 -12.5009975433349609
15.298710823059082 13.0471181869506836 21.2905006408691406
-9.87271499633789062 22.6465225219726562 -13.6192083358764648
-6.5402827262878418 14.3200511932373047 -21.3290042877197266
4.4253077507019043 24.3045539855957031 -0.879925787448883057
5.34315872192382812 -11.842066764831543 20.6171436309814453
16.9187965393066406 0.495135217905044556 -23.9173202514648438
-14.1061697006225586 1.39288175106048584 12.7642250061035156
13.5224447250366211 -10.8928718566894531 -16.2800273895263672
-3.98343563079833984 23.9651699066162109 17.5673751831054688
-7.28811454772949219 -4.49154329299926758 26.8694725036621094
-10.3911914825439453 24.4954490661621094 -19.6497821807861328
2.71773719787597656 17.598907470703125 20.2460117340087891
-3.87889504432678223 -14.6383914947509766 6.97129106521606445
11.0846614837646484 19.1454906463623047 19.49896240234375
17.8752880096435547 -6.29942464828491211 -8.10429573059082031
-11.4302663803100586 19.9782218933105469 -11.2399272918701172
-14.1944770812988281 2.06761550903320312 12.5593070983886719
-16.1220874786376953 8.25223445892333984 -9.15454673767089844
10.6992225646972656 19.9396343231201172 19.3001117706298828
0.628128170967102051 0.356500953435897827 25.1507740020751953
-8.46259689331054688 14.4854927062988281 21.54290771484375
-12.5223608016967773 -8.85106372833251953 -5.85664224624633789
-0.299069732427597046 -9.15238666534423828 -22.5982666015625
20.4749088287353516 4.58038473129272461 -21.4103679656982422
-2.75256824493408203 -14.8174037933349609 -18.5528984069824219
-14.2905740737915039 -2.84322905540466309 -1.85896956920623779
18.284149169921875 -3.10486221313476562 -22.1826152801513672
-11.0669078826904297 15.2176017761230469 6.89933395385742188
-1.31537008285522461 22.7246208190917969 -21.306427001953125
-14.4949731826782227 -3.24142026901245117 -21.1773586273193359
-15.8058872222900391 12.2877082824707031 -14.2564334869384766
20.487213134765625 6.42034196853637695 -20.191558837890625
-11.6964921951293945 12.8259029388427734 12.0434436798095703
-13.6309566497802734 1.69477081298828125 15.8301820755004883
-11.1513462066650391 -10.6566152572631836 -5.15796661376953125
-13.7195301055908203 -2.61805987358093262 10.3684206008911133
7.38246822357177734 27.7259693145751953 -21.8626384735107422
5.11866426467895508 -14.4736452102661133 -12.3955259323120117
-8.90464401245117188 4.57588291168212891 24.5284423828125
16.6862373352050781 13.5645990371704102 13.2506465911865234
10.5090188980102539 19.6008510589599609 19.3175716400146484
12.4608488082885742 26.0947113037109375 -21.1481990814208984
7.11803531646728516 13.3612537384033203 -22.6301708221435547
17.8742485046386719 10.4910802841186523 11.4227914810180664
12.3332080841064453 -10.0186185836791992 17.5210151672363281
20.0050735473632812 6.84512186050415039 -2.5380241870880127
18.1166439056396484 11.9568338394165039 3.45587611198425293
11.2724142074584961 0.971007883548736572 25.0688400268554688
18.8712196350097656 4.49102354049682617 13.4387941360473633
-12.9100656509399414 10.8309516906738281 8.543304443359375
-17.8009414672851562 1.58639848232269287 -20.627166748046875
11.1618108749389648 -12.2606840133666992 10.0126752853393555
-17.4209423065185547 5.29798221588134766 -20.9617424011230469
0.0607717409729957581 -2.25482892990112305 25.9524135589599609
-11.052922248840332 12.0581121444702148 22.4625492095947266
-8.82081508636474609 -12.2958488464355469 -10.9651288986206055
9.53077316284179688 23.4329738616943359 2.98389649391174316
16.1621170043945312 -9.290069580078125 -4.73566532135009766
16.7644214630126953 15.8613996505737305 2.3537440299987793
-0.667096853256225586 21.4727020263671875 19.1356906890869141
-13.605224609375 8.28830146789550781 10.685023307800293
13.8886890411376953 -11.0214471817016602 8.68922233581542969
-6.5874028205871582 1.65069091320037842 25.1889724731445312
19.1037101745605469 -1.79460859298706055 9.51798820495605469
9.50955772399902344 5.71300125122070312 -23.1560840606689453
7.61426734924316406 24.8072662353515625 -22.1654739379882812
14.4488487243652344 -10.2769441604614258 10.338043212890625
8.89168739318847656 4.36559820175170898 24.0376358032226562
-10.5313758850097656 -11.1711025238037109 -2.24403929710388184
18.4088535308837891 3.92591166496276855 -24.0968265533447266
20.1284637451171875 0.79349064826965332 -17.8018608093261719
13.9327020645141602 22.5743255615234375 -22.8039016723632812
5.09790515899658203 -14.8601608276367188 -5.58397340774536133
15.0533018112182617 17.9703788757324219 8.15493202209472656
7.77900505065917969 -14.1043033599853516 4.27053356170654297
-3.2077336311340332 -13.5403776168823242 14.9498090744018555
-6.75118589401245117 22.0064373016357422 4.0680232048034668
-10.9032583236694336 14.5612258911132812 13.1250953674316406
3.52205300331115723 4.80672502517700195 23.6663036346435547
-5.69565248489379883 -14.4433650970458984 -9.20919990539550781
14.9802713394165039 -10.4761724472045898 3.29281330108642578
-1.2170557975769043 11.0847272872924805 22.0657577514648438
-14.433833122253418 16.0464210510253906 -13.9580049514770508
2.81373429298400879 -3.58020520210266113 26.2700901031494141
11.9707918167114258 -1.13590526580810547 -23.5737266540527344
6.01992988586425781 -14.6977043151855469 -5.04925775527954102
-13.9766206741333008 10.2945375442504883 2.59504508972167969
16.9168968200683594 1.7956918478012085 -23.9913730621337891
-9.01465225219726562 20.4672069549560547 -3.62653899192810059
-0.934320330619812012 1.98598790168762207 -22.2613296508789062
16.3934745788574219 20.0386295318603516 -20.7015628814697266
18.64691162109375 -2.56267809867858887 11.7909021377563477
-5.20356082916259766 -14.0928401947021484 -18.8157081604003906
-4.53348350524902344 -2.39189863204956055 26.2125205993652344
10.607325553894043 1.84418034553527832 -23.4532070159912109
-12.7103729248046875 -2.48148155212402344 15.9287633895874023
-7.25847530364990234 -9.22863960266113281 -22.1586093902587891
-6.00837850570678711 -9.29186439514160156 22.8345870971679688
9.92536163330078125 8.06210136413574219 22.9258041381835938
-2.31489682197570801 13.8192853927612305 21.4175853729248047
2.95121240615844727 25.2598094940185547 -7.70698451995849609
3.87407851219177246 -15.1001710891723633 2.95904421806335449
10.9652042388916016 -12.60406494140625 8.35068893432617188
-0.366481512784957886 -15.835566520690918 -5.77069711685180664
-4.04215335845947266 -9.24449253082275391 26.2078800201416016
12.8819761276245117 -12.3424520492553711 -5.81075096130371094
-4.07239341735839844 -10.2399396896362305 -22.2394351959228516
-5.13271093368530273 24.7976760864257812 -2.92035436630249023
14.3802070617675781 -11.3527994155883789 -3.76558160781860352
20.2104644775390625 5.6445307731628418 -3.9335029125213623
15.2347326278686523 9.71604537963867188 22.2023735046386719
12.5075197219848633 14.3813447952270508 -23.086761474609375
-12.2411737442016602 3.71760344505310059 -21.2773609161376953
-1.6764456033706665 -15.3813762664794922 6.96238136291503906
7.479248046875 27.8027019500732422 -20.8296260833740234
19.4351959228515625 -2.5019679069519043 -12.6715469360351562
-9.41543865203857422 6.7328038215637207 23.9877738952636719
18.7742862701416016 13.0053606033325195 -13.1877708435058594
19.0514907836914062 7.0883336067199707 8.07033443450927734
-8.50356483459472656 19.7945556640625 2.84679174423217773
12.9916219711303711 7.2331538200378418 23.077178955078125
-3.75550723075866699 -14.2768764495849609 10.1960382461547852
17.3252277374267578 -7.72428607940673828 -2.00734567642211914
17.6480140686035156 -3.86976718902587891 -23.5250530242919922
7.95016002655029297 -14.1696701049804688 -1.15777945518493652
0.774710118770599365 18.7337837219238281 19.9958152770996094
5.68108510971069336 18.9500522613525391 -22.1795196533203125
-12.5857486724853516 8.54452800750732422 19.62615966796875
15.0328207015991211 18.9488964080810547 2.39422011375427246
-4.09288978576660156 -13.0318117141723633 15.3775548934936523
-13.2960433959960938 -7.64714384078979492 -10.6619243621826172
5.39263439178466797 24.7686614990234375 -5.48145675659179688
4.24710178375244141 28.0867080688476562 -20.29351806640625
-14.8414640426635742 -0.833627223968505859 -3.0043635368347168
6.83887147903442383 24.2727909088134766 -2.8045651912689209
10.4769601821899414 10.1561622619628906 -22.7696323394775391
-3.56481122970581055 -11.7474451065063477 21.0623760223388672
15.8775234222412109 -7.53077125549316406 -19.6874923706054688
-7.57993507385253906 -13.2891454696655273 -5.70146989822387695
13.2727890014648438 19.4703273773193359 16.1763210296630859
19.5408878326416016 1.10577046871185303 8.63971996307373047
13.4064130783081055 -10.9266500473022461 10.9160385131835938
16.3583984375 16.2391929626464844 5.07757949829101562
11.8852214813232422 20.8708992004394531 18.6009006500244141
16.4983711242675781 17.7072505950927734 -9.78931522369384766
19.8131561279296875 1.2388765811920166 4.63025474548339844
-4.55340671539306641 -0.167179420590400696 25.6260013580322266
-7.87268352508544922 17.3438186645507812 20.759033203125
17.3762283325195312 -7.64873361587524414 -1.44707310199737549
-5.82288122177124023 -8.02147579193115234 25.7099151611328125
-14.2834081649780273 8.46599006652832031 5.07367181777954102
12.9840536117553711 -4.41511917114257812 26.4617061614990234
-9.20414638519287109 -12.0327863693237305 1.11285412311553955
5.92977094650268555 -4.20191574096679688 -23.1023292541503906
9.52093982696533203 15.6565761566162109 -22.7679882049560547
-14.9306726455688477 -4.02338695526123047 -7.57657337188720703
-7.24026393890380859 26.7906951904296875 -15.4603672027587891
9.16854763031005859 -13.8201637268066406 -2.63324499130249023
18.0124015808105469 2.64181160926818848 19.9886760711669922
-1.62110412120819092 27.4560890197753906 -16.6443881988525391
-11.1029214859008789 13.8125524520874023 16.1205997467041016
3.94199872016906738 23.3145198822021484 -21.7901134490966797
12.5020160675048828 22.9677715301513672 -4.17323970794677734
-2.17295575141906738 -11.7945804595947266 -22.7111148834228516
-13.8467721939086914 17.8766212463378906 -15.6873502731323242
-4.00562667846679688 24.1513938903808594 5.24590826034545898
-10.9266510009765625 13.6275215148925781 19.1459903717041016
-15.9419193267822266 12.5223264694213867 -15.5972118377685547
3.37861967086791992 6.50333213806152344 -22.3213863372802734
-6.01843595504760742 22.5257225036621094 10.4957447052001953
2.06155514717102051 3.34483146667480469 -22.5312862396240234
11.8602828979492188 -12.5709781646728516 4.84873580932617188
-9.80748176574707031 10.1001510620117188 -21.1978416442871094
-14.0218515396118164 -2.55393719673156738 7.66842269897460938
17.3105258941650391 2.31067728996276855 -23.9729862213134766
-6.85132694244384766 13.0263595581054688 -21.2354793548583984
-2.67608118057250977 28.4642047882080078 -20.2601261138916016
0.276056826114654541 -9.97759246826171875 -22.7130584716796875
18.8441505432128906 5.26763820648193359 12.4080371856689453
-3.35553407669067383 -9.02110481262207031 -22.1079769134521484
-0.59841388463973999 11.9513626098632812 21.8608913421630859
19.3696537017822266 7.8702235221862793 2.78280067443847656
-12.0155744552612305 -9.66741752624511719 -7.14930963516235352
-2.05263257026672363 21.6156673431396484 -21.2957744598388672
-1.07192957401275635 -8.53279876708984375 -22.4993324279785156
6.09867000579833984 7.9231109619140625 22.5799331665039062
-10.3120279312133789 -11.1557531356811523 -14.1476325988769531
-8.48577117919921875 -0.187933057546615601 -21.6025772094726562
-0.208631768822669983 -5.08366775512695312 -22.6106491088867188
-12.71978759765625 16.7399234771728516 -20.6400318145751953
7.72672367095947266 -12.9433412551879883 12.9097042083740234
13.7240428924560547 20.1734828948974609 7.88194131851196289
-4.92819404602050781 23.7478141784667969 10.0354700088500977
20.3800716400146484 7.19189596176147461 -14.2982597351074219
-12.7431497573852539 7.50093221664428711 20.0604152679443359
8.03364181518554688 2.17489719390869141 24.5996322631835938
-1.08822035789489746 -12.5712356567382812 21.6124401092529297
4.89353752136230469 -8.21163177490234375 -23.2046623229980469
10.1693277359008789 -12.9918460845947266 -12.3877592086791992
16.4605884552001953 12.9278860092163086 17.1807193756103516
19.2948284149169922 -1.4314885139465332 -20.1667098999023438
-14.1065120697021484 -6.14567708969116211 -17.3961009979248047
-13.9793634414672852 0.536475479602813721 -21.0699462890625
12.3025016784667969 -4.51574325561523438 26.3485088348388672
0.678484916687011719 -6.38275432586669922 -22.7554779052734375
19.2291412353515625 2.83436751365661621 -24.2493362426757812
-10.5137624740600586 -7.08854341506958008 16.2809658050537109
-9.83024024963378906 -11.9195175170898438 -4.0828404426574707
-1.26012468338012695 -12.2189064025878906 22.5560817718505859
-5.01920175552368164 -14.207249641418457 -17.8252582550048828
8.46535682678222656 16.6649932861328125 -22.5838890075683594
-5.24741125106811523 23.6388034820556641 -20.9546623229980469
16.1074562072753906 17.5033283233642578 -1.39205265045166016
1.51599967479705811 28.0059661865234375 -21.2254867553710938
-0.218290954828262329 -3.15601539611816406 -22.4720954895019531
19.4253215789794922 7.31716728210449219 3.48887348175048828
-2.25776767730712891 6.17144298553466797 23.5504989624023438
-7.86194181442260742 10.8181419372558594 22.7736358642578125
12.7169122695922852 -5.88555240631103516 26.4749813079833984
-14.4926519393920898 17.0677242279052734 -16.8962306976318359
-0.889029860496520996 -15.407444953918457 7.77787971496582031
15.1550731658935547 19.8536415100097656 -8.42061519622802734
-10.5757770538330078 7.19140863418579102 -21.2437877655029297
5.62447452545166016 -9.40321254730224609 26.6228160858154297
4.04395580291748047 -13.4863557815551758 14.9580259323120117
-8.90116119384765625 18.5695648193359375 10.8533954620361328
6.30576133728027344 16.6248683929443359 20.3930282592773438
20.4966354370117188 2.36251401901245117 -13.7164115905761719
-2.13170385360717773 26.7701072692871094 -14.0059833526611328
18.5880279541015625 6.85820388793945312 12.6489162445068359
10.0975866317749023 -12.9666414260864258 8.01091670989990234
13.0873069763183594 3.34241986274719238 -23.6226406097412109
5.33612918853759766 -13.9233436584472656 -16.3644752502441406
-10.8250083923339844 -10.9173917770385742 -12.8646011352539062
-9.58833885192871094 17.7888374328613281 6.27121400833129883
17.9667224884033203 13.3668956756591797 0.102026507258415222
-9.07381153106689453 3.07176613807678223 24.8775825500488281
12.3595209121704102 5.64113712310791016 -23.4517478942871094
-12.7671594619750977 4.4485011100769043 -21.1293544769287109
-3.76311492919921875 25.6065750122070312 -8.05823135375976562
-1.13425552845001221 -15.4770240783691406 -13.7872295379638672
-14.0291957855224609 -2.2654881477355957 8.48550891876220703
12.861973762512207 -12.2766275405883789 1.16319775581359863
18.4508686065673828 15.9110355377197266 -24.1362571716308594
16.4436225891113281 -8.80210494995117188 -7.62320804595947266
-8.99053573608398438 7.16951894760131836 23.830963134765625
-3.35920214653015137 -15.112818717956543 -14.2843866348266602
-0.594674646854400635 24.5737190246582031 -0.826966285705566406
18.2567005157470703 7.45913791656494141 15.1409292221069336
15.7694463729858398 20.2505607604980469 -16.2449378967285156
-4.45194768905639648 9.70233535766601562 22.8235988616943359
-4.74571514129638672 -11.7022647857666016 19.093414306640625
-0.749869227409362793 23.9842777252197266 8.00095462799072266
-10.9714450836181641 13.0110988616943359 -20.9681034088134766
3.28466463088989258 23.8020038604736328 15.2448091506958008
-10.2102365493774414 16.0714550018310547 13.3588924407958984
20.4050769805908203 7.83893966674804688 -19.9005794525146484
16.2914161682128906 -9.32099246978759766 -3.02447986602783203
-4.68871355056762695 24.2111721038818359 2.67741107940673828
-6.61143302917480469 -12.8315820693969727 8.7971343994140625
3.68911361694335938 26.2544784545898438 -13.346470832824707
7.54304838180541992 -10.1825885772705078 23.2028865814208984
18.9991607666015625 -3.64436221122741699 -12.4379634857177734
-9.30143642425537109 18.876373291015625 2.46668100357055664
13.0379400253295898 -9.11539554595947266 -22.7724971771240234
-11.6996192932128906 13.0918941497802734 10.7771339416503906
-1.86017441749572754 26.6997547149658203 -13.7997274398803711
-11.2509784698486328 16.7457962036132812 -0.251368671655654907
0.978671848773956299 -14.6716766357421875 -17.8850841522216797
-12.5233249664306641 -4.72099685668945312 13.2387113571166992
19.1720066070556641 -2.30506515502929688 -17.5328655242919922
-13.3035097122192383 12.1311864852905273 1.86042165756225586
-8.47926235198974609 7.25284385681152344 -21.3215579986572266
1.47449922561645508 13.8932933807373047 21.1187381744384766
-11.6720647811889648 -6.90637445449829102 11.080470085144043
-11.9314699172973633 -8.72101688385009766 1.7592465877532959
-16.1886920928955078 -2.00990700721740723 -14.1844663619995117
17.5343799591064453 17.1103916168212891 -17.0388336181640625
-6.30075883865356445 -6.40307950973510742 27.1802291870117188
11.9176082611083984 -5.3656306266784668 26.8371047973632812
5.96293210983276367 -12.356719970703125 -23.1994781494140625
17.2512187957763672 12.4674692153930664 11.3535594940185547
12.2412757873535156 -6.48114871978759766 25.9685401916503906
-15.5894174575805664 -3.59783530235290527 -20.6067276000976562
-3.52516961097717285 -14.1112957000732422 -22.1494808197021484
14.6171054840087891 21.4064579010009766 -11.8193082809448242
16.086181640625 14.770207405090332 13.8283071517944336
-8.46983146667480469 -3.29885721206665039 26.5410041809082031
5.69792842864990234 -5.63189220428466797 -23.0413894653320312
20.3378276824951172 5.92561531066894531 -6.43203067779541016
8.79507732391357422 17.4935436248779297 19.9066028594970703
15.3310956954956055 20.2360191345214844 -11.8496189117431641
14.2433147430419922 -8.93799686431884766 16.2292900085449219
-15.4743661880493164 5.01991891860961914 -3.1855933666229248
12.4070968627929688 -10.7369384765625 14.7229347229003906
0.626865208148956299 -15.0131340026855469 10.6244726181030273
5.83448219299316406 -13.5794162750244141 -17.7030754089355469
9.04011440277099609 -12.9824495315551758 -15.8957004547119141
19.9215412139892578 6.88101005554199219 -1.28407740592956543
-14.9184427261352539 3.61119842529296875 6.74871683120727539
-4.07290792465209961 7.94317150115966797 23.1897602081298828
-15.1409225463867188 0.501961767673492432 2.40981411933898926
6.72309207916259766 17.7495956420898438 19.9111576080322266
-10.7295045852661133 -2.8224492073059082 22.5451068878173828
17.9719944000244141 12.4726142883300781 4.30474138259887695
20.5131092071533203 5.22988128662109375 -15.3628921508789062
-7.01272916793823242 -12.6809244155883789 8.12776660919189453
16.0226821899414062 16.9108314514160156 4.37195348739624023
-10.3079109191894531 20.4852294921875 -8.7677154541015625
18.0134086608886719 -6.34342002868652344 0.25780835747718811
-2.55025601387023926 -15.3984193801879883 3.89256596565246582
7.33023929595947266 -3.71070718765258789 -23.1385211944580078
-1.88673090934753418 -12.336329460144043 21.7146816253662109
-7.69114303588867188 -13.1963644027709961 -3.79828214645385742
-6.94596767425537109 -13.6005659103393555 -10.7020759582519531
4.66889476776123047 23.7295551300048828 12.7298145294189453
-13.0897359848022461 0.988329768180847168 18.1437625885009766
8.97191810607910156 24.5288581848144531 -7.51461887359619141
-4.10231208801269531 23.8804187774658203 15.8866548538208008
-5.69706296920776367 25.6082248687744141 -8.59190654754638672
15.7871990203857422 15.3326930999755859 13.9378461837768555
-8.38816452026367188 18.7071609497070312 18.4250068664550781
-3.23104739189147949 26.0237083435058594 -10.207000732421875
-14.0884523391723633 12.4326934814453125 -3.99294590950012207
2.57075357437133789 1.77464878559112549 -22.5543479919433594
-11.0470762252807617 -10.4361963272094727 -16.6310138702392578
10.9275083541870117 22.8979854583740234 9.70217514038085938
10.1183013916015625 4.05446624755859375 -23.3530960083007812
-8.74381828308105469 5.38007926940917969 24.2506561279296875
19.0774269104003906 6.55293130874633789 8.73072528839111328
20.4976482391357422 1.36798250675201416 -10.3855714797973633
-13.501953125 -1.44696784019470215 13.2228889465332031
16.8986988067626953 14.2514944076538086 7.70108604431152344
20.0773715972900391 2.8542180061340332 0.783918261528015137
4.40226459503173828 0.890643656253814697 24.8910636901855469
0.35729631781578064 9.94537639617919922 -21.9439544677734375
8.44916725158691406 -3.98654460906982422 -23.3363914489746094
17.639923095703125 -4.13443326950073242 -22.4860267639160156
-0.119951128959655762 -11.3636894226074219 24.9705085754394531
8.4859619140625 -11.9654321670532227 -22.6153011322021484
6.39172220230102539 -14.5990190505981445 -1.42289829254150391
-7.80432319641113281 -13.1004486083984375 -3.53854584693908691
-12.4688644409179688 5.98153066635131836 22.9168300628662109
19.8535099029541016 3.26709914207458496 3.43398356437683105
-0.887812554836273193 -14.2728948593139648 -21.5574855804443359
14.5272674560546875 21.3031482696533203 -10.8766164779663086
-14.2460670471191406 -0.944674909114837646 9.32680225372314453
-7.42470502853393555 20.4765205383300781 8.98098087310791016
6.22931385040283203 24.7499256134033203 -6.07215595245361328
19.3189773559570312 11.0422220230102539 -11.1896629333496094
-7.80273008346557617 21.1416053771972656 0.665189921855926514
-16.37860107421875 -1.70631158351898193 -17.5619659423828125
-7.34781885147094727 -12.7155704498291016 5.90864086151123047
9.3924560546875 16.7072563171386719 -22.6689605712890625
-7.62726736068725586 20.8962688446044922 3.08339858055114746
-6.55238485336303711 23.7462215423583984 -2.6267240047454834
0.791472375392913818 15.595423698425293 -21.8621768951416016
10.8896408081054688 -12.5219583511352539 -14.034937858581543
17.3613491058349609 12.7606410980224609 -23.4586563110351562
9.85315799713134766 25.1029396057128906 -22.1417083740234375
7.70555448532104492 24.3513298034667969 -4.10827922821044922
13.1577930450439453 -1.55479216575622559 -23.6565494537353516
-12.9494056701660156 9.41127681732177734 13.9997711181640625
14.1638889312744141 23.8257045745849609 -20.2447090148925781
14.4406566619873047 23.7661800384521484 -21.6632194519042969
-12.2609043121337891 -8.12642955780029297 1.81038093566894531
-6.90662908554077148 26.2756481170654297 -13.6280956268310547
10.7321557998657227 9.93840217590332031 22.2929000854492188
-12.2899246215820312 1.97976088523864746 22.2715358734130859
-2.30405163764953613 24.8979663848876953 -3.18859720230102539
-9.44590377807617188 -6.87920475006103516 20.6431331634521484
13.9815282821655273 -11.6282491683959961 1.27966845035552979
-13.964594841003418 8.24133777618408203 7.74285697937011719
-9.64878940582275391 2.00731158256530762 25.1592063903808594
-0.161523580551147461 -15.7120256423950195 3.92943835258483887
3.32503819465637207 -14.9798240661621094 6.70797300338745117
-6.64877033233642578 23.6867618560791016 -2.84030628204345703
-12.7996978759765625 8.65277481079101562 17.6181259155273438
15.8864974975585938 -6.74336624145507812 16.0227909088134766
6.90252208709716797 -9.66265296936035156 -23.4115314483642578
5.75853061676025391 -14.4346113204956055 7.01019191741943359
-15.4020605087280273 11.1716117858886719 -10.4683494567871094
-2.57146763801574707 26.4954547882080078 -12.773463249206543
10.6429986953735352 24.8767871856689453 -11.7678775787353516
-15.8033533096313477 11.7708206176757812 -13.1009359359741211
-1.82309794425964355 -12.2724752426147461 -22.8333396911621094
20.1976051330566406 0.746266782283782959 -0.465316712856292725
16.2961273193359375 17.7634830474853516 -7.94932889938354492
11.6960067749023438 22.7378482818603516 4.43414306640625
15.3217782974243164 -6.68812274932861328 18.8181114196777344
16.0507984161376953 18.7302036285400391 -10.3304023742675781
-7.93185138702392578 4.81788730621337891 24.3436069488525391
20.4968662261962891 4.79050302505493164 -20.1584205627441406
9.06221294403076172 16.8230381011962891 -22.6335239410400391
14.6294708251953125 -9.02434539794921875 14.3332319259643555
8.92339515686035156 23.5611572265625 2.73663616180419922
-1.91576671600341797 -0.338302254676818848 -22.0446128845214844
18.4421539306640625 6.84029150009155273 14.3276491165161133
12.8480377197265625 20.0356292724609375 -22.8919105529785156
8.00776100158691406 -14.0235490798950195 -7.93405961990356445
10.9985504150390625 22.7162685394287109 14.4658355712890625
-10.2928380966186523 -5.78831005096435547 -21.4563159942626953
8.45906639099121094 23.3335170745849609 15.5064449310302734
18.5484867095947266 14.7874660491943359 -18.7536468505859375
-13.8106689453125 -6.32908058166503906 -5.51462793350219727
9.22556877136230469 6.68434667587280273 -23.1047935485839844
18.7750625610351562 12.1839876174926758 -7.57086372375488281
12.4434194564819336 -8.43905830383300781 21.7114219665527344
-10.1949939727783203 -11.5732965469360352 -10.7723178863525391
8.42884635925292969 13.2303380966186523 -22.7888717651367188
6.36163806915283203 -13.8105621337890625 -15.5877532958984375
19.6844348907470703 1.86684143543243408 7.30918359756469727
-13.050806999206543 -7.74320173263549805 -18.8050651550292969
11.646449089050293 25.9992103576660156 -22.3635215759277344
-14.2751274108886719 7.45375251770019531 7.2823176383972168
-16.9062118530273438 7.05368375778198242 -14.1013040542602539
-10.0489397048950195 8.54020404815673828 23.477142333984375
-0.0688382610678672791 -15.6430158615112305 4.80289697647094727
19.5982456207275391 11.2046375274658203 -17.4895420074462891
6.57561302185058594 2.29312872886657715 -22.7397060394287109
3.5772404670715332 -4.96258783340454102 26.9053268432617188
9.44473361968994141 -3.66904711723327637 -23.2700920104980469
10.6186819076538086 -13.1937446594238281 3.50206589698791504
0.857218563556671143 23.3712749481201172 -21.4914779663085938
15.5942878723144531 18.7300796508789062 -5.88551855087280273
-15.3062353134155273 8.02145862579345703 -2.46217632293701172
12.5102472305297852 20.9924468994140625 13.0587482452392578
-13.9099655151367188 -5.90123891830444336 -21.356231689453125
-13.1294736862182617 -5.64043235778808594 5.95505666732788086
14.678339958190918 23.23809814453125 -20.95465087890625
-10.5064573287963867 18.6296043395996094 -3.06727814674377441
-5.70065116882324219 22.9664974212646484 11.4039573669433594
20.5090789794921875 4.92435836791992188 -13.5825824737548828
1.52191066741943359 9.00843334197998047 22.6339263916015625
8.31083869934082031 23.5027847290039062 6.63312673568725586
-3.99657368659973145 24.9914035797119141 -20.8523311614990234
17.8356437683105469 8.55680274963378906 16.9404983520507812
16.3042316436767578 18.4940090179443359 -11.7116775512695312
-15.1703834533691406 11.7469482421875 -10.1400251388549805
-0.989155352115631104 -2.28499174118041992 -22.2259731292724609
9.61716079711914062 -13.6721410751342773 -3.51006507873535156
-9.85422801971435547 -10.7507295608520508 7.01670598983764648
9.91285610198974609 23.8503608703613281 -3.74962258338928223
-12.9533367156982422 1.64267468452453613 -21.258392333984375
-4.20030975341796875 -8.81532192230224609 26.8030128479003906
-5.20219182968139648 26.3083057403564453 -20.5414237976074219
9.78238296508789062 19.5868110656738281 19.2295436859130859
9.74142360687255859 -11.6495485305786133 15.6229400634765625
-10.2367610931396484 -11.0926141738891602 -15.3323736190795898
-13.8262720108032227 5.4084782600402832 14.0593433380126953
10.4822378158569336 -13.1261377334594727 -9.48853302001953125
-0.943607091903686523 -8.44561862945556641 -22.4842090606689453
14.5946769714355469 18.7816638946533203 8.16722297668457031
17.5028438568115234 -7.24434089660644531 -4.6458735466003418
17.2954978942871094 -7.79001426696777344 -0.526907742023468018
-14.6265830993652344 -3.37722444534301758 -5.18007326126098633
-0.0576939433813095093 9.40946102142333984 -21.9250450134277344
8.26007080078125 -8.63805580139160156 26.1779708862304688
19.0429706573486328 7.09726047515869141 -24.1159763336181641
-6.46103477478027344 21.5814304351806641 16.8995113372802734
14.4482889175415039 22.8984851837158203 -18.4685440063476562
-0.00304807722568511963 -1.04928684234619141 -22.3787250518798828
9.91763687133789062 23.2666912078857422 4.65874099731445312
-1.74966967105865479 25.1967830657958984 -6.05402946472167969
-10.7382440567016602 -6.85770559310913086 15.7528448104858398
-8.08653068542480469 -12.7798290252685547 -10.0432472229003906
15.1663522720336914 -10.6334161758422852 -3.25503110885620117
-13.8687238693237305 7.40110015869140625 10.86077880859375
-5.5678253173828125 17.8197364807128906 20.3045692443847656
-13.1613054275512695 4.23821735382080078 19.1896629333496094
20.5965003967285156 4.76082229614257812 -10.8743686676025391
-1.46501874923706055 -1.75668609142303467 25.9695167541503906
15.0085926055908203 16.4580974578857422 16.3670005798339844
-13.578857421875 15.9430093765258789 -9.98165798187255859
17.8056735992431641 12.9475183486938477 4.46775245666503906
17.2110118865966797 -7.74199390411376953 -5.56534433364868164
20.4802703857421875 1.89812004566192627 -16.4352931976318359
18.877593994140625 4.82139825820922852 -24.2036895751953125
-14.0679130554199219 4.96715831756591797 12.6775436401367188
-13.1166954040527344 6.96205520629882812 17.4951667785644531
14.8682136535644531 -9.16874885559082031 -17.7503471374511719
16.5333232879638672 13.0078620910644531 16.4853439331054688
19.2495136260986328 -3.0156562328338623 -12.5791282653808594
0.691207230091094971 -15.4954433441162109 -9.24866676330566406
-6.22584676742553711 -14.0354623794555664 -1.01400351524353027
-9.08028984069824219 -4.41520452499389648 25.5859794616699219
-3.9735114574432373 -0.805740773677825928 25.7574977874755859
19.4745330810546875 -3.21327972412109375 -7.65949583053588867
-13.6025762557983398 2.79075169563293457 17.10443115234375
-6.18920087814331055 -13.7044239044189453 4.52703428268432617
2.82038140296936035 -8.06756782531738281 -22.905670166015625
16.29803466796875 13.614964485168457 16.5084247589111328
4.65462303161621094 16.7941646575927734 -22.1512603759765625
-11.9297771453857422 9.76828193664550781 21.9137516021728516
3.45102787017822266 24.953704833984375 -5.43815517425537109
-6.449066162109375 -2.1710517406463623 -21.86358642578125
-14.5768022537231445 -5.41663217544555664 -19.3380355834960938
7.99891376495361328 -5.45139122009277344 -23.2359504699707031
-8.67128181457519531 25.1327285766601562 -15.6304683685302734
5.16345119476318359 17.8835067749023438 -22.1145973205566406
-16.2207431793212891 5.17184972763061523 -7.34987401962280273
5.84491634368896484 5.30986928939819336 23.5745620727539062
-5.52587461471557617 -11.0939855575561523 19.2724933624267578
-9.04083251953125 18.0961990356445312 12.157928466796875
-6.7010807991027832 1.01985275745391846 -21.734375
-10.5539417266845703 -11.2686271667480469 -12.0813074111938477
3.88968133926391602 5.70428609848022461 -22.3111362457275391
16.1941909790039062 -1.95607149600982666 23.6857337951660156
10.0213651657104492 7.10697793960571289 -23.1672172546386719
-13.8151187896728516 -2.54256463050842285 9.63518238067626953
-3.45168256759643555 -15.0320825576782227 5.093994140625
13.428706169128418 -0.895474016666412354 25.4697895050048828
-9.10576438903808594 -4.88443326950073242 24.8740329742431641
-4.32899761199951172 7.20067501068115234 -21.5133914947509766
17.6613597869873047 0.66569751501083374 20.8793811798095703
17.6949481964111328 -0.255684822797775269 -24.0744037628173828
-13.4662513732910156 -7.35971593856811523 -9.37763023376464844
-0.00496501149609684944 20.84375 -21.5667877197265625
19.4562301635742188 -3.00734925270080566 -0.499933719635009766
-1.23744142055511475 -15.9346218109130859 -2.21007657051086426
-12.1485204696655273 9.1360626220703125 -21.0153999328613281
-15.1842689514160156 4.29998493194580078 4.03714466094970703
-15.4047765731811523 2.94641923904418945 -2.38073515892028809
18.8224887847900391 -0.499085217714309692 13.7603235244750977
0.595324456691741943 -10.8844099044799805 25.9022674560546875
-14.260737419128418 -2.63747215270996094 2.96614360809326172
-7.65818452835083008 -5.16565513610839844 -21.8427104949951172
-4.22774791717529297 -9.66849517822265625 25.1172466278076172
5.41704320907592773 3.04515957832336426 24.3656902313232422
-1.11803412437438965 -15.1419553756713867 10.1726837158203125
6.8905634880065918 -6.39935731887817383 27.1512279510498047
-4.95919704437255859 -9.07287693023681641 25.1957950592041016
-10.4761123657226562 23.2026653289794922 -16.9379501342773438
7.93028831481933594 -13.6575222015380859 8.465545654296875
-17.3335132598876953 8.37595748901367188 -17.7835788726806641
3.06905841827392578 25.2901058197021484 -7.89910411834716797
-16.5867996215820312 10.6078948974609375 -15.8497247695922852
-8.52472209930419922 10.8399114608764648 -21.2814617156982422
5.18908166885375977 -6.19057607650756836 -23.0287494659423828
9.644927978515625 -5.27668476104736328 -23.4959182739257812
10.4130220413208008 4.04599571228027344 -23.3733539581298828
-5.38841104507446289 -14.3296756744384766 -15.1966972351074219
-5.97104263305664062 13.9140148162841797 21.6983280181884766
-17.9358673095703125 4.3760685920715332 -20.8014869689941406
13.6554412841796875 -10.5852880477905273 -17.2380123138427734
18.3896541595458984 -2.42140722274780273 -24.6758155822753906
-1.78316450119018555 -11.4281692504882812 23.9654502868652344
-14.9337320327758789 -0.198821008205413818 0.311182886362075806
-13.0897331237792969 18.8146286010742188 -14.7078781127929688
0.324990749359130859 5.10373353958129883 23.8631172180175781
2.69333314895629883 2.96958756446838379 -22.5574722290039062
-15.8209962844848633 0.647766649723052979 -20.9374313354492188
12.3887214660644531 21.2509288787841797 12.5455760955810547
0.849283158779144287 24.072723388671875 4.03488540649414062
7.15655374526977539 -8.76301479339599609 -23.5899105072021484
17.4575004577636719 17.189300537109375 -16.6900310516357422
-7.09558820724487305 25.3679428100585938 -11.3303813934326172
-11.5527458190917969 11.2439470291137695 22.0861778259277344
-13.8289928436279297 9.26244068145751953 -20.8942451477050781
19.0572586059570312 13.2047653198242188 -18.48980712890625
-7.52246284484863281 24.4919681549072266 -10.4539699554443359
-11.5183086395263672 6.50915718078613281 24.3036212921142578
3.51706385612487793 -9.3817138671875 -23.0817241668701172
-0.325044929981231689 -6.92025089263916016 -22.6540775299072266
-6.60728836059570312 -3.99195551872253418 -21.8901805877685547
11.8951625823974609 14.3336420059204102 21.103363037109375
14.2213945388793945 -11.4827156066894531 -4.00163745880126953
-13.3002700805664062 1.24125707149505615 17.4062786102294922
-13.9519376754760742 9.2331390380859375 5.50408411026000977
7.82257843017578125 -0.925270617008209229 25.4869918823242188
-15.7053985595703125 12.7303543090820312 -14.3330717086791992
7.14312934875488281 25.1238784790039062 -22.0318012237548828
-6.14359092712402344 -1.40651082992553711 -21.8042583465576172
-13.6326961517333984 17.8682346343994141 -14.7879724502563477
6.44297313690185547 -14.5796642303466797 -1.51262640953063965
-11.078953742980957 13.2350826263427734 19.4476280212402344
-11.6923980712890625 13.3913373947143555 -20.8598423004150391
-8.35921001434326172 3.4212944507598877 24.816009521484375
-13.7823314666748047 -5.69612360000610352 -21.3071556091308594
-17.0158462524414062 2.09799671173095703 -14.4475336074829102
0.0323537513613700867 24.1975727081298828 2.0726778507232666
15.4858646392822266 20.3235244750976562 -13.0618448257446289
13.1008234024047852 22.6146297454833984 -7.27881622314453125
16.0002574920654297 -4.86530828475952148 19.9120655059814453
18.7212200164794922 -3.1669003963470459 -18.0853595733642578
-15.0128889083862305 0.290966182947158813 3.54642176628112793
-1.60412561893463135 9.21381473541259766 22.7584953308105469
-13.3014593124389648 12.3041048049926758 1.47955143451690674
-8.19502925872802734 -12.8380670547485352 -3.66066217422485352
19.0075302124023438 -3.31505084037780762 -13.9238672256469727
-9.97435283660888672 5.80086517333984375 -21.3245048522949219
-4.29680919647216797 -14.7217845916748047 -15.0838193893432617
15.6242446899414062 18.5086326599121094 -3.40609073638916016
19.3296546936035156 10.4178314208984375 -8.13967990875244141
18.4475116729736328 -5.51696538925170898 -3.78445768356323242
