ply
format ascii 1.0
element vertex 793
comment vertices
property float x
property float y
property float z
end_header
14.6616125106811523 -372.62744140625 -1.02789187431335449
-10.603358268737793 43.6997871398925781 482.892852783203125
-5.71149492263793945 9.90165996551513672 293.5496826171875
-3.83379769325256348 131.57525634765625 143.408660888671875
-0.101157307624816895 296.30328369140625 -108.317596435546875
-5.13557338714599609 -154.979232788085938 1.23903155326843262
-5.22141313552856445 -107.035995483398438 4.53771018981933594
0.9076424241065979 273.253936767578125 -254.527664184570312
-6.1880650520324707 -204.402008056640625 -702.9310302734375
-5.76363229751586914 7.05932950973510742 -27.0588588714599609
-0.866834342479705811 314.3004150390625 -12.9535303115844727
-5.97986078262329102 31.1049022674560547 -34.3353080749511719
-10.1658744812011719 104.183677673339844 -300.476318359375
-5.6098175048828125 -98.9757614135742188 269.313232421875
-5.89155673980712891 -15.2966299057006836 -40.8000335693359375
-2.79996895790100098 166.279647827148438 340.39996337890625
-6.31054353713989258 -100.533897399902344 -315.286529541015625
-0.563352704048156738 272.51885986328125 144.241195678710938
-5.90129470825195312 9.16191387176513672 70.4285430908203125
3.91389012336730957 289.160308837890625 8.80868053436279297
-4.51917648315429688 -86.0334930419921875 9.50974655151367188
-4.13253307342529297 49.6007575988769531 257.0966796875
3.61039590835571289 -131.749832153320312 365.551483154296875
11.3268337249755859 -205.248336791992188 595.7650146484375
-12.6202878952026367 66.4043807983398438 -339.9979248046875
-0.0885002613067626953 304.708099365234375 53.0579605102539062
-4.35343360900878906 -24.5199565887451172 217.001708984375
-1.40475738048553467 218.632217407226562 257.749847412109375
0.467822611331939697 375.763946533203125 65.188201904296875
29.7548141479492188 -458.94622802734375 -2.68805384635925293
-6.27775382995605469 111.307868957519531 -51.9444961547851562
14.7782144546508789 -226.532867431640625 476.7139892578125
3.55094766616821289 329.159942626953125 164.5086669921875
-1.11046648025512695 -93.9322280883789062 356.972381591796875
-0.065844118595123291 -230.957778930664062 -509.438812255859375
-4.57576894760131836 -209.99383544921875 19.993133544921875
3.80357670783996582 -219.480621337890625 -631.57965087890625
-7.11000823974609375 -113.462242126464844 518.81207275390625
-4.29989814758300781 -83.612762451171875 324.641693115234375
-21.5931625366210938 -15.1949005126953125 -432.46942138671875
-6.24889230728149414 141.153335571289062 68.4637527465820312
-4.84297990798950195 -111.076530456542969 -320.958038330078125
2.73124194145202637 374.790924072265625 -79.1134414672851562
-3.92800641059875488 81.6888504028320312 135.071243286132812
-10.4633388519287109 94.2220840454101562 -293.348480224609375
7.52044820785522461 -215.916091918945312 -384.3736572265625
-4.77741670608520508 250.939071655273438 -131.6741943359375
34.2314682006835938 -488.430511474609375 9.07462978363037109
27.6385669708251953 -434.005035400390625 35.794464111328125
-2.48736095428466797 242.18896484375 -165.338897705078125
0.464284032583236694 -174.544174194335938 -280.793304443359375
-5.48393392562866211 81.9460296630859375 -231.0098876953125
1.26480138301849365 375.02691650390625 -61.2711753845214844
0.312559634447097778 173.79986572265625 49.6856422424316406
-8.43331241607666016 -122.399200439453125 -123.500198364257812
-13.0332298278808594 -53.3062019348144531 -308.146942138671875
-5.67637729644775391 9.21418380737304688 -108.521980285644531
-4.27042150497436523 64.5706024169921875 114.655120849609375
-10.3319711685180664 -136.29931640625 -415.137451171875
2.39773774147033691 -225.14190673828125 -555.63739013671875
-4.9908595085144043 -139.995620727539062 -358.535675048828125
-3.20807886123657227 -177.529708862304688 240.83746337890625
-15.0867109298706055 -95.7282638549804688 -566.5189208984375
4.76539230346679688 -187.851516723632812 -189.113479614257812
-2.94090914726257324 233.89044189453125 66.7642593383789062
-12.98260498046875 42.6465187072753906 -339.045074462890625
-10.1412878036499023 58.2281112670898438 478.43896484375
23.3422203063964844 319.69757080078125 17.5331897735595703
-0.229805782437324524 234.430801391601562 -177.550628662109375
-14.019439697265625 -75.3351058959960938 530.29901123046875
-12.7636613845825195 -26.0386524200439453 458.671142578125
-4.69435548782348633 47.6172142028808594 -166.686203002929688
-15.2830295562744141 -199.83319091796875 -657.16912841796875
-14.6310720443725586 -72.4679718017578125 556.584228515625
-6.19702339172363281 54.5560646057128906 -56.2778968811035156
-5.81792354583740234 159.47052001953125 -309.428863525390625
-5.99050569534301758 54.2347145080566406 -149.46826171875
7.33946847915649414 -188.015029907226562 392.399932861328125
-5.91322088241577148 46.4441795349121094 -55.5476760864257812
-19.7369117736816406 44.4800338745117188 -441.188446044921875
-6.56737470626831055 185.732574462890625 68.2192840576171875
-0.236050799489021301 305.879638671875 -206.332290649414062
-3.01001930236816406 -48.8503952026367188 146.587142944335938
6.95661449432373047 -193.854598999023438 -184.735992431640625
42.2655410766601562 -540.43115234375 -23.4781475067138672
-1.42181193828582764 103.276229858398438 216.571990966796875
-5.75229692459106445 -151.5174560546875 258.03021240234375
-6.04890918731689453 135.227447509765625 -408.714141845703125
5.67236232757568359 417.309173583984375 88.081298828125
-6.72345829010009766 -139.097412109375 216.859603881835938
1.13948667049407959 293.9124755859375 173.796676635742188
-4.04444599151611328 -16.4248809814453125 -115.018287658691406
-8.49970722198486328 -186.791946411132812 719.9964599609375
0.100311718881130219 244.901824951171875 175.297927856445312
-4.39765453338623047 -141.50921630859375 -570.30328369140625
-6.74299526214599609 140.577377319335938 -37.7744941711425781
-3.70490598678588867 -103.098442077636719 473.3206787109375
-6.87740659713745117 -61.16571044921875 24.5964546203613281
-6.84568500518798828 108.347702026367188 -1.97789716720581055
-6.61873579025268555 151.50445556640625 -390.85296630859375
3.78097939491271973 -184.068344116210938 -321.889495849609375
-1.68682920932769775 342.399993896484375 -97.8691177368164062
-7.13117218017578125 -67.5391769409179688 648.21600341796875
5.92098236083984375 381.17364501953125 162.488067626953125
-8.87755203247070312 -97.5882797241210938 491.062896728515625
13.8408622741699219 -269.88006591796875 -6.94624805450439453
11.7540111541748047 -433.74920654296875 85.6299819946289062
-17.7383441925048828 34.0754432678222656 -484.168670654296875
-4.7240753173828125 -113.649559020996094 -26.667388916015625
-5.26936531066894531 -6.55323123931884766 243.769317626953125
-11.2107830047607422 93.0345611572265625 -316.308807373046875
4.04059076309204102 333.86468505859375 168.436050415039062
0.932277560234069824 -133.187850952148438 170.936676025390625
4.42299842834472656 374.814239501953125 -140.023529052734375
-21.7334384918212891 -24.50396728515625 -457.751617431640625
-2.46926641464233398 250.373855590820312 131.847946166992188
-1.8394627571105957 151.100372314453125 319.1566162109375
-3.10750293731689453 -184.394882202148438 -545.53369140625
-1.91369235515594482 -217.2880859375 -520.52423095703125
-1.98499453067779541 82.7078094482421875 273.91094970703125
-10.4039649963378906 -51.0928001403808594 -170.795944213867188
-8.08004665374755859 -105.965217590332031 -110.765876770019531
-18.45367431640625 -64.57568359375 -543.1160888671875
-7.28162050247192383 -112.011260986328125 531.09686279296875
10.9462699890136719 -215.816390991210938 583.1781005859375
-3.91006255149841309 -120.096969604492188 -328.434112548828125
-4.94616460800170898 13.054011344909668 566.58416748046875
-5.31596946716308594 0.042081441730260849 251.11907958984375
7.02214574813842773 456.15606689453125 24.2487850189208984
-16.2793922424316406 -177.898468017578125 -680.04156494140625
-0.535619556903839111 168.163894653320312 244.606292724609375
6.00051736831665039 405.124755859375 108.191184997558594
-6.27019929885864258 1.42151224613189697 -172.551788330078125
0.54225921630859375 -150.683914184570312 -312.04376220703125
0.888828158378601074 -145.314407348632812 305.536224365234375
3.77141332626342773 338.166046142578125 148.838119506835938
-7.45202541351318359 -220.586624145507812 -695.36944580078125
-7.5103912353515625 108.301498413085938 -343.9989013671875
-4.03709077835083008 -63.73236083984375 308.298065185546875
6.52753162384033203 -187.114181518554688 569.824951171875
-4.00201559066772461 -62.1487388610839844 305.936737060546875
-2.9809722900390625 -167.447830200195312 72.7164306640625
-7.12494707107543945 -19.1878948211669922 -162.386917114257812
-9.81580543518066406 7.73885107040405273 398.501678466796875
-6.13547563552856445 159.472076416015625 -42.2755851745605469
-0.564583718776702881 -130.131256103515625 433.829376220703125
-6.24203872680664062 142.693618774414062 -359.21649169921875
-2.96465659141540527 143.9759521484375 369.7611083984375
-4.95770502090454102 232.3935546875 8.19420528411865234
-2.71086573600769043 -184.265975952148438 228.968032836914062
-5.14194059371948242 -59.5559463500976562 5.89781045913696289
-6.40821266174316406 18.4657802581787109 -2.47921919822692871
13.2472543716430664 -201.517776489257812 354.48345947265625
-4.00868463516235352 50.3141632080078125 122.407829284667969
-6.46945667266845703 1.55766463279724121 43.6536483764648438
-5.39801120758056641 1.01504111289978027 252.93878173828125
-4.81207418441772461 -73.8172607421875 -91.4936904907226562
-5.52314138412475586 91.012359619140625 81.1686859130859375
-4.85134124755859375 -77.0406646728515625 -89.677215576171875
6.05965185165405273 -194.548843383789062 -389.37872314453125
7.08275842666625977 -193.564178466796875 -186.11163330078125
4.53114175796508789 410.807769775390625 -13.2617692947387695
-2.9048764705657959 -212.891754150390625 -73.6184844970703125
2.13694334030151367 282.7730712890625 -63.366790771484375
-6.22137975692749023 84.8558883666992188 -89.31488037109375
7.560821533203125 -167.739837646484375 336.203369140625
-0.351404666900634766 232.779953002929688 232.790557861328125
1.80930495262145996 290.30169677734375 25.9143867492675781
7.40894603729248047 493.16412353515625 85.084808349609375
3.6877601146697998 330.187530517578125 222.5330810546875
-11.5109281539916992 -107.638290405273438 -195.551712036132812
-12.1172733306884766 -61.7306861877441406 608.7276611328125
-10.9896583557128906 -113.150344848632812 679.91119384765625
-4.24286890029907227 -63.8805618286132812 234.126876831054688
-12.86962890625 56.7355918884277344 -290.106292724609375
-3.91944336891174316 -82.17547607421875 305.350860595703125
50.0548515319824219 -682.075439453125 4.23669338226318359
12.7898874282836914 -222.808395385742188 385.701324462890625
-5.60191440582275391 53.7348976135253906 297.353912353515625
-17.0926170349121094 -47.72100830078125 -547.2503662109375
-8.01055908203125 10.2382287979125977 427.090606689453125
23.5581035614013672 -539.16314697265625 40.026336669921875
-4.47507286071777344 152.875579833984375 -267.7359619140625
-4.94392251968383789 143.618621826171875 392.967193603515625
2.91298985481262207 -216.2490234375 -594.97833251953125
4.31681728363037109 415.558197021484375 -10.3788967132568359
-8.80257225036621094 -113.212936401367188 -557.5731201171875
-4.76882076263427734 113.194900512695312 -253.253189086914062
0.333556890487670898 -152.220794677734375 -230.858169555664062
-8.55738067626953125 -150.81427001953125 -116.317146301269531
-3.8366234302520752 -57.2191848754882812 389.30230712890625
-1.05607867240905762 212.112716674804688 -293.084991455078125
-3.54452705383300781 -149.209365844726562 75.1540145874023438
-5.43105030059814453 -55.5745391845703125 234.954132080078125
-1.16935265064239502 206.562210083007812 226.235641479492188
-3.72244429588317871 260.87957763671875 -27.7619247436523438
-6.188446044921875 -144.586639404296875 -578.9315185546875
-3.14973187446594238 182.866424560546875 -173.419357299804688
46.8782806396484375 -558.24249267578125 -39.2278976440429688
-10.2275304794311523 -84.8478164672851562 -272.75665283203125
-5.40020275115966797 37.9802017211914062 281.419342041015625
-4.99542617797851562 -22.9439105987548828 -141.074371337890625
-7.58915519714355469 -186.684783935546875 -58.6432647705078125
35.0627593994140625 -615.93450927734375 33.8297386169433594
-2.8253018856048584 142.354736328125 366.078033447265625
-8.98682117462158203 -55.6261825561523438 601.90716552734375
-3.65508437156677246 225.898300170898438 -211.584304809570312
-4.48635578155517578 94.8905258178710938 113.741081237792969
-6.62329244613647461 -129.10455322265625 -517.97857666015625
10.8404197692871094 230.695999145507812 54.8276443481445312
11.0421972274780273 203.007553100585938 3.16751670837402344
-2.83209466934204102 -108.114006042480469 475.88580322265625
0.615271806716918945 272.259857177734375 238.911788940429688
-5.41846942901611328 54.4762458801269531 409.26812744140625
0.0901958197355270386 323.175537109375 125.618141174316406
-3.27005195617675781 -230.530914306640625 -347.805084228515625
-4.29164791107177734 86.958709716796875 392.452239990234375
1.60653245449066162 280.99420166015625 297.4012451171875
-4.98304510116577148 51.3840255737304688 94.325103759765625
-5.44374990463256836 169.938385009765625 -350.8240966796875
-9.73629093170166016 47.4202461242675781 516.5111083984375
-5.28236913681030273 -77.7375717163085938 -21.5118789672851562
-3.89230942726135254 -77.6138534545898438 302.37860107421875
7.12761497497558594 404.498748779296875 185.030593872070312
7.12948894500732422 -188.211151123046875 393.355621337890625
6.34872722625732422 356.59588623046875 231.404739379882812
5.94147014617919922 444.322998046875 -13.2977094650268555
-20.8036766052246094 15.8820457458496094 -426.768035888671875
0.983831584453582764 319.1915283203125 149.941909790039062
-5.50960540771484375 -49.7687149047851562 16.5023975372314453
-5.7832188606262207 4.97182416915893555 -54.5210151672363281
-2.50403380393981934 -74.878631591796875 378.740814208984375
-3.73210620880126953 207.495513916015625 -318.09130859375
28.6044578552246094 -452.562286376953125 5.44386482238769531
-5.56574344635009766 228.66796875 -21.3348846435546875
-0.994208931922912598 -106.490158081054688 419.11981201171875
6.60050392150878906 -197.307281494140625 -387.563629150390625
-6.57442474365234375 -184.636566162109375 -24.7404117584228516
15.700953483581543 -342.50140380859375 -34.9449539184570312
-21.3626194000244141 8.60871028900146484 -446.67608642578125
26.1678886413574219 -534.5906982421875 52.1621475219726562
8.29502105712890625 309.863861083984375 9.805328369140625
-3.84341716766357422 91.6155242919921875 142.998565673828125
-5.29358959197998047 -105.111061096191406 30.4737701416015625
-11.1564617156982422 -166.707870483398438 682.49249267578125
5.29500436782836914 -197.960922241210938 -300.894317626953125
-7.01250123977661133 10.8369159698486328 -181.969039916992188
-2.56299686431884766 -230.723190307617188 62.4647636413574219
20.3382053375244141 137.5577392578125 7.22730350494384766
-7.30088710784912109 -178.371612548828125 -86.3886871337890625
19.4968547821044922 -363.38323974609375 11.8423137664794922
-16.1376991271972656 -171.607223510742188 -657.85675048828125
1.13421225547790527 -157.312896728515625 443.399871826171875
-4.10308218002319336 24.3063240051269531 -168.254409790039062
1.08570361137390137 308.3382568359375 86.8854522705078125
-14.1251287460327148 8.26592540740966797 -304.07305908203125
11.8066396713256836 -208.537063598632812 -202.744216918945312
-0.149959847331047058 -229.631759643554688 -649.787841796875
-3.86654853820800781 109.672515869140625 392.003326416015625
-1.84878242015838623 263.76922607421875 139.623245239257812
-13.3953123092651367 -224.895736694335938 -686.3421630859375
-1.18856370449066162 -105.46185302734375 458.51434326171875
-1.46330738067626953 -175.4862060546875 -426.55133056640625
-7.16917610168457031 -19.5178203582763672 20.5392265319824219
-3.79607629776000977 -120.961334228515625 214.534378051757812
-5.14008808135986328 208.1756591796875 -98.24407958984375
-0.0261923633515834808 169.532440185546875 305.290740966796875
-5.31257534027099609 -9.92792892456054688 315.76324462890625
-24.2079238891601562 -8.90936374664306641 -479.50360107421875
-5.89329433441162109 -14.8870716094970703 265.92486572265625
-6.0616912841796875 8.15091228485107422 566.06842041015625
3.67931008338928223 -288.48626708984375 59.9647064208984375
-5.08739089965820312 162.773574829101562 -193.284881591796875
-2.77697896957397461 181.690155029296875 -189.755157470703125
2.54921841621398926 244.235580444335938 301.300750732421875
-6.2170262336730957 63.0617637634277344 48.8130378723144531
-3.3529047966003418 241.274673461914062 -144.2718505859375
-8.80641555786132812 84.3864974975585938 473.10845947265625
-17.9988384246826172 -23.6767692565917969 -402.6531982421875
-5.21637439727783203 167.214309692382812 -94.165679931640625
0.852669417858123779 320.412261962890625 -39.4637832641601562
-9.71613216400146484 -29.6297721862792969 409.24468994140625
-1.40751862525939941 -173.9774169921875 81.374542236328125
3.06905317306518555 155.876739501953125 25.7767333984375
-6.07049417495727539 78.352813720703125 323.509857177734375
-2.42069005966186523 -95.3501815795898438 163.862823486328125
9.13454818725585938 -379.98626708984375 62.9148597717285156
25.2379531860351562 -506.486480712890625 -36.1460227966308594
-5.11115837097167969 -223.53631591796875 -12.1257848739624023
7.18796062469482422 410.199371337890625 137.899673461914062
-5.64401626586914062 -24.8482074737548828 4.68116283416748047
8.31375503540039062 -210.437026977539062 466.730316162109375
-2.04099655151367188 81.3044815063476562 201.927642822265625
23.4500961303710938 233.4688720703125 33.0880508422851562
-5.76118183135986328 9.10960769653320312 -101.230422973632812
0.673968017101287842 244.783493041992188 -269.994842529296875
2.99272537231445312 286.30828857421875 -9.18774700164794922
-0.846906840801239014 -146.534942626953125 -266.300811767578125
31.0912837982177734 -565.3516845703125 -46.7743911743164062
-5.72110605239868164 101.40692138671875 80.8654861450195312
-9.13398838043212891 -65.617462158203125 -277.23455810546875
-0.113369569182395935 -173.195236206054688 661.65899658203125
-4.37417984008789062 -70.1865310668945312 213.472122192382812
-4.16833353042602539 223.329193115234375 -265.008056640625
9.49019718170166016 284.87518310546875 33.1222496032714844
-5.59804153442382812 -73.2148818969726562 63.2543563842773438
-3.53505349159240723 -77.5323715209960938 390.537811279296875
-3.85830116271972656 35.0232048034667969 -166.00152587890625
-1.36125922203063965 -228.495086669921875 -459.1578369140625
-3.50618505477905273 189.554916381835938 -281.956451416015625
-3.28948783874511719 -152.55908203125 527.794921875
3.48245525360107422 313.59942626953125 251.335464477539062
-21.1002464294433594 -18.3518409729003906 -474.985748291015625
5.22098731994628906 423.418212890625 37.4337425231933594
-5.22999191284179688 212.94952392578125 187.301284790039062
0.818140089511871338 -283.892913818359375 36.1417770385742188
-4.4145054817199707 -197.812301635742188 694.43359375
-6.07895755767822266 74.4895706176757812 60.7964668273925781
-4.90711879730224609 -73.3342056274414062 44.7101478576660156
12.7895421981811523 -209.822402954101562 -188.105010986328125
-5.75635194778442383 -55.4334030151367188 37.0646553039550781
-10.6376209259033203 -85.575408935546875 488.743255615234375
11.6934175491333008 -224.105667114257812 500.9857177734375
-2.06461811065673828 84.897674560546875 199.368453979492188
2.62177705764770508 270.962646484375 316.8233642578125
68.4764785766601562 -686.741455078125 -37.9481430053710938
7.63199520111083984 -254.52923583984375 25.3080425262451172
3.13894367218017578 297.440704345703125 74.312591552734375
8.73318195343017578 -243.847824096679688 -43.0212440490722656
5.51870059967041016 405.7720947265625 67.239044189453125
-6.76411724090576172 12.1929855346679688 348.437896728515625
-10.9192333221435547 -123.509689331054688 -166.73114013671875
-11.0711555480957031 -27.4977378845214844 -214.6549072265625
4.18580245971679688 -188.1378173828125 -291.834564208984375
-2.0265967845916748 90.743743896484375 226.065292358398438
-1.91633129119873047 -194.461883544921875 -453.694122314453125
-4.06907224655151367 -145.708877563476562 501.99591064453125
-12.1404399871826172 -87.24420166015625 -214.858612060546875
3.20188593864440918 318.524688720703125 185.745254516601562
-0.166539713740348816 315.792877197265625 -42.4294548034667969
-1.12711632251739502 297.718292236328125 -37.9707984924316406
-12.8763856887817383 59.8718185424804688 -330.44390869140625
-4.91525840759277344 132.955886840820312 -197.92962646484375
0.979026079177856445 -234.16357421875 -293.761993408203125
7.91403818130493164 -195.93414306640625 287.805908203125
3.31385636329650879 -172.171127319335938 621.2843017578125
0.264870733022689819 270.62896728515625 -98.549346923828125
-6.98055791854858398 199.948822021484375 66.5898284912109375
-13.551152229309082 -16.1309089660644531 -340.7259521484375
-11.30743408203125 -11.8720111846923828 -329.711761474609375
-10.9558868408203125 -104.390800476074219 -428.325439453125
0.680602073669433594 282.38885498046875 -229.853515625
-11.6553125381469727 -96.06671142578125 -185.683624267578125
-5.57384634017944336 -132.636016845703125 -551.27679443359375
0.0319019928574562073 175.895706176757812 315.08013916015625
-2.50528359413146973 -145.960296630859375 93.9536361694335938
1.09065043926239014 276.394195556640625 -135.439605712890625
-3.71859145164489746 -56.6094093322753906 332.791015625
-4.52446460723876953 -203.908584594726562 -495.554901123046875
-12.3299894332885742 -33.7116203308105469 -238.531326293945312
-7.25234842300415039 13.6510238647460938 356.72442626953125
-13.4285116195678711 123.480178833007812 -393.25457763671875
4.29034709930419922 374.372314453125 -119.206199645996094
-11.0686817169189453 -39.2420310974121094 -206.094223022460938
-4.72408390045166016 81.89544677734375 -155.589736938476562
-4.04721307754516602 29.5900974273681641 551.621337890625
1.04545998573303223 -115.778282165527344 391.09197998046875
-6.37381505966186523 -26.6276760101318359 279.847747802734375
0.573737680912017822 321.1549072265625 -34.1653251647949219
-5.59968328475952148 230.124374389648438 -16.6878147125244141
4.41325807571411133 -185.1788330078125 -302.840667724609375
31.3937454223632812 -544.7086181640625 4.04758977890014648
-0.446025490760803223 264.406951904296875 210.060150146484375
-9.88523960113525391 60.2910995483398438 -404.568389892578125
0.207500427961349487 -217.40802001953125 -531.82568359375
0.849094152450561523 330.57440185546875 113.887420654296875
-7.65283679962158203 -104.513206481933594 -102.693557739257812
-3.8430018424987793 205.979034423828125 -40.6439323425292969
10.4238090515136719 -194.272232055664062 -201.431716918945312
4.64874696731567383 -215.800872802734375 658.0595703125
0.557941317558288574 -276.402313232421875 50.1299514770507812
0.0230710078030824661 284.040008544921875 -246.544662475585938
26.4105472564697266 233.330551147460938 26.4322166442871094
-5.00936555862426758 161.608932495117188 109.586029052734375
-7.60695171356201172 114.890457153320312 -334.711029052734375
-1.85262024402618408 75.7368240356445312 221.248641967773438
-2.83209776878356934 -161.834518432617188 -203.018341064453125
-8.50085258483886719 -242.2503662109375 -282.51611328125
-5.34454107284545898 -64.1087799072265625 1.89669334888458252
-13.7554445266723633 -145.748367309570312 -628.169677734375
-2.80773544311523438 -151.996139526367188 498.095611572265625
-11.6681785583496094 -124.737007141113281 -413.12335205078125
-5.83239316940307617 195.823089599609375 122.579559326171875
-4.73812007904052734 -51.7107810974121094 -67.904998779296875
17.9562015533447266 -286.665679931640625 -14.8345737457275391
3.0826258659362793 -184.238616943359375 -401.0833740234375
9.60683536529541016 -198.070953369140625 428.03564453125
-0.364464014768600464 232.635787963867188 -213.326507568359375
-13.656184196472168 -71.316314697265625 561.7000732421875
-2.88954925537109375 223.077468872070312 169.93756103515625
1.17056417465209961 183.390350341796875 410.377227783203125
4.07365846633911133 -251.454177856445312 49.3489646911621094
-6.88417148590087891 -38.7676353454589844 602.20751953125
-1.28086340427398682 352.632904052734375 -67.9970703125
-11.4693689346313477 -149.915908813476562 716.47064208984375
-6.32127189636230469 -61.1044960021972656 -118.6478271484375
7.16557645797729492 453.208526611328125 33.3441238403320312
-9.70707035064697266 65.6764907836914062 -370.320098876953125
-7.5237884521484375 -18.6185512542724609 355.08856201171875
-9.34550285339355469 -169.347366333007812 -472.42156982421875
14.6160202026367188 -228.5765380859375 421.14459228515625
-10.7208166122436523 142.063323974609375 -384.481597900390625
-5.5091705322265625 213.5079345703125 177.509292602539062
8.00778007507324219 474.85986328125 -50.7604103088378906
-5.07962512969970703 -119.401893615722656 36.6815071105957031
43.2070503234863281 -668.69305419921875 61.3365364074707031
12.4324941635131836 -408.2344970703125 -24.6587467193603516
-0.251185178756713867 -193.038528442382812 678.58349609375
-5.69398593902587891 144.633346557617188 80.6996917724609375
6.39364528656005859 431.5322265625 -89.8196640014648438
-11.5545778274536133 -87.027923583984375 -506.1273193359375
2.15502715110778809 394.244842529296875 25.6529083251953125
9.9173126220703125 -216.839920043945312 452.642425537109375
1.61906230449676514 -293.115936279296875 38.8359375
-2.1023104190826416 -158.149368286132812 -576.161865234375
-10.550227165222168 -51.5490226745605469 -259.816497802734375
-5.45394325256347656 153.349365234375 17.8502349853515625
-6.54820585250854492 -195.03326416015625 726.28839111328125
44.3741264343261719 -637.7833251953125 47.8235664367675781
-5.95862436294555664 117.457359313964844 73.0537567138671875
-6.59147405624389648 202.997879028320312 127.716087341308594
-5.13220500946044922 -30.5507488250732422 53.5633392333984375
8.92450904846191406 -184.8056640625 -266.521240234375
-2.89738154411315918 -53.7650489807128906 136.818649291992188
32.1516342163085938 -474.56964111328125 -17.2809314727783203
8.46661567687988281 -360.627685546875 62.6563034057617188
-14.0943050384521484 117.946357727050781 -397.238067626953125
9.90091705322265625 -259.561126708984375 36.1509933471679688
0.344401687383651733 -283.738128662109375 49.3212928771972656
-9.067962646484375 -2.57106685638427734 450.17303466796875
30.9799995422363281 -521.36151123046875 77.4745559692382812
-3.82378792762756348 81.2350997924804688 502.0135498046875
5.60857725143432617 -314.91485595703125 34.3914909362792969
-3.03736734390258789 215.875473022460938 -47.937164306640625
10.0811777114868164 -195.817123413085938 615.328857421875
5.47151470184326172 407.225616455078125 62.0661125183105469
1.35533261299133301 299.8221435546875 117.900444030761719
-11.953338623046875 -71.3967514038085938 -516.42193603515625
-3.97124671936035156 -58.6344795227050781 88.8730239868164062
-5.58534812927246094 126.728797912597656 88.1211166381835938
0.331386953592300415 324.75836181640625 31.0657749176025391
-18.9506492614746094 15.6041765213012695 -407.417572021484375
-6.53650569915771484 -48.184417724609375 -131.660797119140625
2.79004836082458496 317.900543212890625 264.703094482421875
6.1327667236328125 413.221771240234375 105.784217834472656
10.8942794799804688 528.9427490234375 3.84209632873535156
5.33864164352416992 -228.25531005859375 -366.83404541015625
-2.55914568901062012 -136.939682006835938 463.78460693359375
-8.88597202301025391 -201.116668701171875 708.6953125
-2.28195905685424805 -170.36553955078125 259.15924072265625
-4.82990550994873047 253.045944213867188 -106.095680236816406
0.559837639331817627 -290.199493408203125 38.63580322265625
-5.99939441680908203 12.3799552917480469 41.8366203308105469
3.25982141494750977 -101.84613037109375 345.655487060546875
-1.9922492504119873 -226.879287719726562 -216.262908935546875
3.28415298461914062 276.74359130859375 285.00897216796875
-7.60429954528808594 -155.735458374023438 -487.784576416015625
9.21542549133300781 502.3514404296875 -6.8260493278503418
-9.70368003845214844 -18.5082302093505859 491.67694091796875
3.92689085006713867 -105.7894287109375 347.937255859375
2.7890160083770752 396.4547119140625 43.1021461486816406
5.40355300903320312 373.497467041015625 195.029312133789062
1.15946412086486816 -130.009674072265625 171.461334228515625
-2.89827632904052734 -62.6048851013183594 124.614128112792969
0.583076238632202148 -150.777603149414062 -316.837066650390625
-12.1521873474121094 -47.1526374816894531 -343.36431884765625
35.349609375 -477.802032470703125 -14.8484926223754883
3.96139717102050781 334.849456787109375 174.233047485351562
-1.65074479579925537 -93.50225830078125 92.3018035888671875
-13.4307165145874023 -72.4771652221679688 -496.07391357421875
2.93345165252685547 -212.282669067382812 -601.3970947265625
-5.42351531982421875 -98.5766143798828125 6.68048286437988281
-6.40429878234863281 116.248916625976562 -112.759109497070312
-6.55025768280029297 -124.049415588378906 607.63397216796875
-5.96284770965576172 -14.0862178802490234 299.30126953125
-5.66276741027832031 212.973403930664062 117.534172058105469
-3.19366621971130371 182.739013671875 -218.086349487304688
5.22857952117919922 425.2469482421875 -55.9575004577636719
6.80691671371459961 435.265594482421875 -69.4860610961914062
-4.48393583297729492 77.2853012084960938 -135.2711181640625
6.75184869766235352 432.4444580078125 -110.253311157226562
10.9342708587646484 -186.258392333984375 384.46185302734375
-7.46783542633056641 -210.212387084960938 148.064788818359375
-1.14733445644378662 -223.471099853515625 -458.669097900390625
-13.9477777481079102 24.6162910461425781 -289.36236572265625
0.290514230728149414 198.29742431640625 255.505706787109375
7.8626251220703125 465.066986083984375 88.0080490112304688
-3.70434451103210449 168.050552368164062 156.4193115234375
-2.70867180824279785 151.125762939453125 190.576278686523438
11.0046072006225586 -207.817779541015625 297.1890869140625
5.13777732849121094 418.779754638671875 40.7815437316894531
19.7389793395996094 331.33990478515625 12.445805549621582
-4.18938779830932617 194.130081176757812 147.550247192382812
-8.81961441040039062 -104.00592041015625 -329.556854248046875
-0.210999041795730591 -239.1148681640625 -598.70794677734375
-4.76253271102905273 99.3416976928710938 -152.4832763671875
-5.68056678771972656 -19.1988506317138672 4.68917512893676758
-1.82274329662322998 133.39422607421875 198.065338134765625
-9.50711441040039062 1.42170941829681396 391.287139892578125
-1.4942018985748291 264.70074462890625 -159.274261474609375
14.2584905624389648 -263.067962646484375 18.3435726165771484
1.0707324743270874 188.462570190429688 301.833648681640625
-11.0661773681640625 -92.6690444946289062 -434.66357421875
-4.29333114624023438 164.673385620117188 -219.38885498046875
6.21120452880859375 -183.8477783203125 573.98699951171875
46.0048065185546875 -667.481689453125 4.52218484878540039
-5.82262229919433594 -157.378616333007812 -390.45086669921875
-5.47217512130737305 -53.6585922241210938 242.488525390625
6.42415571212768555 411.90924072265625 109.4959716796875
6.24380922317504883 -180.8980712890625 611.58807373046875
-5.20642757415771484 -45.682830810546875 306.248809814453125
-5.59289693832397461 -0.263039618730545044 -80.6738433837890625
-1.42680954933166504 222.435684204101562 -137.739044189453125
-1.54399514198303223 303.459228515625 -34.4931144714355469
0.769014120101928711 -220.229141235351562 57.9230728149414062
-0.48985704779624939 229.611465454101562 194.7589111328125
-2.98537659645080566 -208.393264770507812 691.0445556640625
1.74149966239929199 257.060516357421875 314.803802490234375
0.306323111057281494 310.578643798828125 47.6816482543945312
-3.6596531867980957 198.010757446289062 -347.6951904296875
-11.3774652481079102 -119.85357666015625 -187.163894653320312
10.1237516403198242 -302.494140625 -6.23792934417724609
5.71390390396118164 -163.782272338867188 -247.709396362304688
0.503399252891540527 -248.137680053710938 -414.7186279296875
-9.79093742370605469 60.5818519592285156 -405.9881591796875
-6.97434902191162109 88.5293121337890625 21.0939407348632812
-5.53731298446655273 178.45648193359375 77.3446731567382812
-16.2104053497314453 -105.020782470703125 -600.0311279296875
-1.51412487030029297 255.74517822265625 172.94390869140625
42.4104995727539062 -661.87298583984375 31.9285640716552734
2.23256778717041016 -177.241973876953125 547.28131103515625
12.6535139083862305 -397.505218505859375 -18.7806358337402344
-1.72905468940734863 -70.2131881713867188 282.084014892578125
-5.41574335098266602 -15.420166015625 -80.6321640014648438
3.91789555549621582 -251.440780639648438 20.7977676391601562
-5.82716655731201172 61.1323928833007812 426.13568115234375
-4.69356632232666016 -86.2287673950195312 -39.4761581420898438
-1.03886950016021729 268.1966552734375 168.354202270507812
-10.7624378204345703 -92.2353134155273438 -478.82196044921875
-2.43764400482177734 196.141036987304688 180.763092041015625
-1.21672928333282471 -239.93896484375 -5.9105987548828125
27.4378032684326172 -545.15362548828125 52.8560295104980469
11.1242923736572266 -224.099456787109375 513.86248779296875
3.26891469955444336 286.5186767578125 27.9456996917724609
-11.7620029449462891 -65.727996826171875 511.26397705078125
-15.7988176345825195 -83.1703948974609375 -577.85040283203125
-2.57076287269592285 -195.271865844726562 -459.131744384765625
-11.8765926361083984 67.883880615234375 -418.915283203125
-4.34173488616943359 -49.8730392456054688 302.319549560546875
-13.3711090087890625 -135.3800048828125 661.01171875
-0.416738331317901611 -123.449966430664062 432.30157470703125
-4.77949190139770508 -70.687530517578125 15.3389358520507812
-4.45582914352416992 -98.3117904663085938 -37.3163337707519531
-10.0206937789916992 59.5317192077636719 -254.237869262695312
-1.48947250843048096 363.98193359375 -3.54277920722961426
-20.8631515502929688 56.0129737854003906 -440.1549072265625
-12.9000034332275391 13.6753387451171875 -343.58319091796875
-3.94508504867553711 -127.732742309570312 51.1731452941894531
3.28687572479248047 -159.749954223632812 -343.297332763671875
-21.0675945281982422 -30.1215229034423828 -466.55499267578125
27.7786865234375 185.661209106445312 6.18882369995117188
-7.99969100952148438 -102.677970886230469 -273.190185546875
38.3855628967285156 -530.1876220703125 -9.55831050872802734
2.23219966888427734 -221.361770629882812 -238.92669677734375
-4.75697994232177734 157.988052368164062 -109.093132019042969
-6.56912899017333984 -111.723312377929688 -275.1741943359375
-7.08000755310058594 121.951820373535156 -283.5078125
-4.47298145294189453 16.9267253875732422 222.520294189453125
-4.78139305114746094 -163.415481567382812 -2.21199178695678711
-1.58906853199005127 103.580795288085938 243.713485717773438
-6.42706298828125 33.6853446960449219 -13.8348731994628906
-12.390101432800293 -114.451911926269531 658.535400390625
-8.45561885833740234 36.7596702575683594 -221.132827758789062
-8.0940704345703125 -15.2844667434692383 564.93524169921875
8.84556293487548828 479.0843505859375 18.0621013641357422
8.84625148773193359 494.008758544921875 -15.4942445755004883
7.56346368789672852 -223.6236572265625 -109.568405151367188
3.58304286003112793 282.426666259765625 274.563873291015625
-7.76363945007324219 -4.21747255325317383 346.80877685546875
-2.00047969818115234 -75.9767303466796875 374.960662841796875
14.5583953857421875 -340.411773681640625 -15.8354215621948242
-18.4756221771240234 6.66033124923706055 -389.18560791015625
4.38346099853515625 368.477752685546875 -152.246612548828125
-10.9049673080444336 -91.2076339721679688 -508.16119384765625
-2.38129997253417969 229.724319458007812 257.479827880859375
0.64989858865737915 273.2650146484375 222.84893798828125
8.47362804412841797 -325.77294921875 89.206390380859375
-0.730057060718536377 183.101715087890625 341.624725341796875
-9.41040611267089844 -202.61578369140625 713.96942138671875
3.00162720680236816 -193.35357666015625 258.40435791015625
-22.8158931732177734 -16.4760532379150391 -511.627716064453125
-14.070836067199707 117.217544555664062 -396.8720703125
-2.55159902572631836 -95.8013839721679688 406.4422607421875
29.1097984313964844 -431.183624267578125 0.722749769687652588
-1.58703482151031494 -161.987274169921875 -180.37432861328125
-0.466199040412902832 -174.458282470703125 -405.181060791015625
-6.43519878387451172 176.0059814453125 -81.9467315673828125
-4.21497154235839844 -130.721588134765625 519.16650390625
10.5044345855712891 -352.3455810546875 -7.97735738754272461
-0.780224859714508057 290.8873291015625 54.5474128723144531
-11.4852476119995117 -56.1479835510253906 -381.008056640625
-7.61945343017578125 28.7755622863769531 439.196563720703125
-3.46347379684448242 -128.497482299804688 58.2492942810058594
1.24142229557037354 -165.50775146484375 504.803955078125
-6.00097513198852539 -113.876564025878906 -282.852447509765625
-3.15004658699035645 -149.7386474609375 509.01025390625
-5.68050909042358398 204.526962280273438 4.46776819229125977
-10.5894498825073242 77.4939498901367188 470.90765380859375
-20.4355754852294922 18.3965873718261719 -426.999908447265625
-7.89556646347045898 141.139984130859375 -399.914581298828125
-6.55891847610473633 98.4406051635742188 -92.2582778930664062
-13.695582389831543 18.3435287475585938 -282.093719482421875
-2.99333739280700684 59.4856300354003906 248.324661254882812
-5.72372770309448242 214.530807495117188 150.273391723632812
-0.709069371223449707 281.796417236328125 6.32230281829833984
-11.4674034118652344 -225.405410766601562 -675.816650390625
5.8357391357421875 416.026611328125 90.386932373046875
3.11829853057861328 399.10369873046875 -22.6752738952636719
-3.92706298828125 -53.7763481140136719 392.555755615234375
11.8004636764526367 -196.739852905273438 -229.9072265625
1.85113823413848877 -177.355804443359375 654.906494140625
-13.3273067474365234 -64.354705810546875 -435.571746826171875
0.107459217309951782 270.975128173828125 207.448471069335938
-6.59705591201782227 191.85595703125 -139.760818481445312
4.85496282577514648 -170.519424438476562 -332.39471435546875
40.9772148132324219 -619.69757080078125 -38.4431228637695312
-6.81282615661621094 65.0366439819335938 -22.6871795654296875
-6.88281631469726562 103.427131652832031 13.0043678283691406
19.2995414733886719 243.11419677734375 42.7945671081542969
2.36768054962158203 -205.901321411132812 -412.53411865234375
-3.20874857902526855 -76.5664291381835938 308.0819091796875
1.50001323223114014 187.772918701171875 407.575103759765625
-0.378219485282897949 361.772064208984375 -38.5834846496582031
18.3904857635498047 -493.995086669921875 62.458526611328125
-2.61556816101074219 -136.431930541992188 573.16729736328125
-4.43383264541625977 255.087615966796875 -45.2713127136230469
-5.484588623046875 -39.6301689147949219 14.5329723358154297
3.74352622032165527 347.21527099609375 196.627105712890625
-3.8812711238861084 114.926605224609375 390.226654052734375
0.708749353885650635 -181.013580322265625 -418.887542724609375
18.7931652069091797 -319.294891357421875 -19.1464138031005859
-5.32984781265258789 -107.528236389160156 2.57513046264648438
47.7900466918945312 -561.850341796875 -39.93353271484375
-4.98786735534667969 62.3411636352539062 406.990966796875
-2.52428817749023438 240.288055419921875 96.8877410888671875
5.24378013610839844 180.36767578125 4.03564310073852539
5.34899806976318359 -203.053390502929688 -157.078079223632812
-10.67608642578125 -94.7711563110351562 -487.529754638671875
-15.353912353515625 -54.3538665771484375 -455.423187255859375
22.9808330535888672 -423.386260986328125 40.0772666931152344
9.38501167297363281 -203.548995971679688 413.17926025390625
-8.02806282043457031 -196.101348876953125 157.789337158203125
-0.089232027530670166 -135.374404907226562 133.184219360351562
-1.75847077369689941 -117.660720825195312 130.5032958984375
-4.12724065780639648 -25.5430183410644531 -103.773704528808594
9.14587974548339844 -197.884292602539062 487.31146240234375
-7.46681976318359375 -146.596023559570312 197.27398681640625
-5.86801004409790039 87.605377197265625 -116.020744323730469
0.453363090753555298 322.9530029296875 13.1540670394897461
1.20890533924102783 354.27398681640625 -113.774490356445312
5.33286762237548828 422.072113037109375 -74.235565185546875
9.69870376586914062 -330.239013671875 2.94999527931213379
13.3290929794311523 -238.428192138671875 437.47418212890625
-6.75882291793823242 -191.05975341796875 -93.0600051879882812
-11.1052055358886719 -61.605743408203125 473.826202392578125
-13.6710748672485352 -5.5671992301940918 -280.6885986328125
-10.4957170486450195 86.5505142211914062 -450.03271484375
0.838407218456268311 212.753570556640625 261.700164794921875
-5.56574201583862305 111.90362548828125 85.8891677856445312
2.19230747222900391 -224.772171020507812 -69.5280227661132812
-6.92151403427124023 207.411331176757812 113.3602294921875
3.79031610488891602 -159.568618774414062 -262.792510986328125
-13.2022228240966797 -95.497467041015625 534.74871826171875
-6.04670429229736328 204.009765625 147.501708984375
-5.09330844879150391 -103.406890869140625 -13.9038181304931641
-5.38763570785522461 75.1015167236328125 -115.573524475097656
-6.21898746490478516 -16.8075904846191406 293.188232421875
0.0904383808374404907 -224.423126220703125 -228.55078125
-2.37194442749023438 -158.295257568359375 655.01123046875
26.5932178497314453 281.768646240234375 23.9409122467041016
-5.67638397216796875 -3.56943559646606445 262.882598876953125
-13.043487548828125 -48.8243370056152344 -311.144439697265625
-12.0656576156616211 -110.288032531738281 -392.02923583984375
41.8159675598144531 -554.7615966796875 -15.5381565093994141
-3.25904655456542969 -71.4232559204101562 422.326080322265625
-15.1252765655517578 -93.3055267333984375 552.73321533203125
-6.77414369583129883 36.6791114807128906 10.594813346862793
-5.67145395278930664 6.55646944046020508 -97.202972412109375
-0.0720916986465454102 194.810699462890625 262.36566162109375
-3.52013325691223145 166.849700927734375 390.228118896484375
-4.84421396255493164 220.913681030273438 -249.9351806640625
4.96708869934082031 299.050567626953125 293.187347412109375
-11.5567846298217773 81.680694580078125 -298.319091796875
0.415863960981369019 -152.04888916015625 585.40380859375
-3.74947381019592285 -29.9847202301025391 183.929443359375
-7.78092670440673828 -154.881698608398438 -72.3387680053710938
2.28623151779174805 -236.148681640625 -563.8184814453125
-3.31534409523010254 -116.885360717773438 102.723037719726562
-6.85045814514160156 82.423858642578125 30.6266136169433594
-11.1610546112060547 17.1425304412841797 -243.640792846679688
14.7273406982421875 -225.958297729492188 475.87164306640625
-8.09684181213378906 -211.492080688476562 119.551605224609375
-5.17057657241821289 154.282958984375 -97.3943557739257812
26.2390155792236328 143.399993896484375 28.0269794464111328
-5.00053024291992188 96.0396270751953125 374.153564453125
-2.84699821472167969 -132.404556274414062 -315.217681884765625
-4.3662261962890625 -64.0823516845703125 -83.7111358642578125
-0.0222148168832063675 269.55352783203125 -112.574600219726562
11.7640285491943359 -189.846099853515625 -225.17041015625
8.5689544677734375 444.988739013671875 97.4791183471679688
-0.244560942053794861 350.348724365234375 -99.9442291259765625
-16.5286293029785156 -113.262825012207031 -617.481689453125
9.60527610778808594 -225.976577758789062 374.635345458984375
35.1000213623046875 -616.0059814453125 33.8771591186523438
-2.6891634464263916 -193.308944702148438 -443.94635009765625
-0.176684394478797913 317.649566650390625 7.58242464065551758
7.39143466949462891 -234.268463134765625 -81.8399734497070312
-7.30954933166503906 158.043228149414062 -362.7052001953125
-12.2929048538208008 -103.39617919921875 558.0684814453125
-0.776027500629425049 -237.069168090820312 47.4473037719726562
-1.65007758140563965 272.5989990234375 81.1232528686523438
-6.6361546516418457 -130.173492431640625 -517.5009765625
1.21154975891113281 -144.999252319335938 -252.745773315429688
5.7777400016784668 448.10858154296875 -6.54688024520874023
11.7730445861816406 -322.377593994140625 29.4489898681640625
-12.5512428283691406 -94.6485214233398438 -368.99615478515625
9.99648571014404297 499.9757080078125 6.95471906661987305
-1.13469672203063965 -184.447372436523438 -430.692230224609375
7.27990341186523438 -202.104141235351562 -166.90887451171875
5.64782571792602539 397.094390869140625 97.1178665161132812
-7.31563520431518555 -25.2020111083984375 555.58154296875
-7.22056865692138672 102.596092224121094 -80.2563400268554688
11.5067596435546875 -192.262710571289062 339.518768310546875
-0.195242360234260559 162.765060424804688 298.075439453125
-9.1479339599609375 98.5390090942382812 -393.35955810546875
-1.54358971118927002 -217.93255615234375 -487.83270263671875
-4.79853153228759766 196.110946655273438 -343.05072021484375
1.38178324699401855 281.069183349609375 -185.899154663085938
-6.5331878662109375 -113.419319152832031 289.579193115234375
-1.72397375106811523 98.9388656616210938 203.96929931640625
-16.0988216400146484 -111.700263977050781 -621.768798828125
-5.40542411804199219 -131.608734130859375 204.593658447265625
-9.24575424194335938 -106.543533325195312 548.0052490234375
-0.41536635160446167 207.84991455078125 -258.25836181640625
-4.49017333984375 -177.13043212890625 679.1436767578125
-5.13112068176269531 178.96795654296875 -340.955718994140625
-4.22397899627685547 -121.395858764648438 50.0081520080566406
4.72572517395019531 -251.583984375 43.1984291076660156
-5.51008081436157227 211.102554321289062 -212.332412719726562
-4.90813827514648438 14.9892444610595703 92.787078857421875
-3.40306687355041504 223.629531860351562 -62.7801704406738281
-5.03699350357055664 -35.2696342468261719 -74.9373397827148438
-8.12937259674072266 -29.3791790008544922 577.6044921875
-3.47555756568908691 177.848236083984375 -160.294677734375
-1.22075319290161133 268.074371337890625 139.180404663085938
-7.13345766067504883 3.20558643341064453 331.435821533203125
-5.02064085006713867 150.804229736328125 -141.709213256835938
41.3182945251464844 -646.8958740234375 4.63416385650634766
-1.99553680419921875 -209.297225952148438 -88.8830718994140625
22.0496540069580078 281.751373291015625 34.8673629760742188
14.316767692565918 -393.076629638671875 76.8331985473632812
-8.19738197326660156 -100.72119140625 -112.167007446289062
4.64534902572631836 381.58111572265625 129.74658203125
-0.620624303817749023 190.690277099609375 233.375518798828125
6.6717686653137207 -180.61688232421875 599.07989501953125
-5.10673904418945312 57.7012863159179688 407.370819091796875
-5.83178043365478516 65.93212890625 -88.6984405517578125
-5.59278392791748047 -125.204185485839844 -64.8115310668945312
-14.5928535461425781 -52.5859527587890625 -568.38580322265625
2.78005051612854004 223.641983032226562 355.573150634765625
-2.38330912590026855 -5.5142216682434082 130.938858032226562
-21.5773048400878906 33.2453193664550781 -475.890594482421875
-8.25513935089111328 -177.834976196289062 -107.905097961425781
-7.34674215316772461 -6.89275503158569336 342.3983154296875
13.7375345230102539 -401.118499755859375 -27.0570564270019531
40.2848739624023438 -608.9219970703125 46.0771369934082031
-0.379125714302062988 325.630950927734375 -165.301040649414062
25.3765220642089844 -437.415802001953125 -9.88799095153808594
-1.43239092826843262 -123.063209533691406 485.227691650390625
-13.1595602035522461 -42.4584617614746094 496.577606201171875
3.83278727531433105 329.40802001953125 170.830718994140625
3.06078076362609863 346.822601318359375 168.918548583984375
-0.650012373924255371 350.94195556640625 -86.7729034423828125
