ply
format ascii 1.0
element vertex 778
comment vertices
property float x
property float y
property float z
end_header
5.71042442321777344 0.532721877098083496 38.0767326354980469
4.39352655410766602 2.60877490043640137 79.4478759765625
-6.27654266357421875 -0.132313311100006104 44.9635810852050781
4.5754237174987793 -0.0425277054309844971 58.1774711608886719
3.4044649600982666 7.56621980667114258 -74.9367141723632812
0.903691709041595459 2.18257403373718262 44.7737312316894531
-1.29085218906402588 -0.662320375442504883 10.9704151153564453
-4.31291103363037109 2.06321597099304199 9.7760467529296875
1.47146666049957275 -0.161343380808830261 31.1935939788818359
-0.380601763725280762 0.383055269718170166 51.5448570251464844
2.40962862968444824 -4.34290266036987305 -30.9265270233154297
-1.85689473152160645 0.433713704347610474 51.3028373718261719
-8.12930488586425781 -1.90865242481231689 -50.2388992309570312
-5.45533180236816406 1.74527108669281006 21.7320957183837891
-0.522444963455200195 0.72739410400390625 61.7356719970703125
-3.74713230133056641 -1.17486107349395752 -54.0870628356933594
-10.3570737838745117 -0.967587053775787354 -55.8429641723632812
-2.61249017715454102 2.39212870597839355 6.52016830444335938
-7.67635393142700195 0.383985251188278198 54.403961181640625
-0.829647362232208252 -5.69995307922363281 -42.5847625732421875
-4.26768922805786133 6.16767358779907227 -77.850677490234375
-4.38464593887329102 -0.997416019439697266 -22.2600822448730469
3.15235137939453125 -1.30638980865478516 -3.99861741065979004
3.7192528247833252 -5.74359655380249023 -42.5802536010742188
-4.30018520355224609 -0.25839608907699585 -12.9051475524902344
-2.37634778022766113 -0.494878202676773071 16.3765716552734375
4.72233295440673828 1.87153542041778564 78.9496917724609375
-5.65461015701293945 -1.35324776172637939 -53.0849685668945312
-3.47513651847839355 2.48634552955627441 57.5721244812011719
-4.12625551223754883 -1.90869355201721191 -10.9611921310424805
-4.7780604362487793 1.1161954402923584 11.3359489440917969
8.40311813354492188 -3.28270649909973145 -36.16082763671875
-6.05990457534790039 2.33071541786193848 57.7737922668457031
-3.27261996269226074 0.682551026344299316 60.1855850219726562
5.155853271484375 7.02030086517333984 -79.2984237670898438
1.94522440433502197 3.78043270111083984 77.7052154541015625
-1.14847648143768311 -4.57784509658813477 -34.8540687561035156
-7.50323820114135742 1.49673187732696533 39.8796424865722656
10.379425048828125 -1.5992048978805542 -61.2813682556152344
-9.03600215911865234 1.10331547260284424 -59.6064834594726562
-3.85592269897460938 -0.454802215099334717 13.9299182891845703
1.20335876941680908 2.96893525123596191 66.9638290405273438
-3.90024542808532715 -1.63255727291107178 -6.12285375595092773
7.32439756393432617 -3.59335851669311523 -41.8208084106445312
-2.54412269592285156 -5.34571313858032227 -47.7799491882324219
-2.68239808082580566 -0.634157955646514893 -31.0848197937011719
3.31437253952026367 0.815042257308959961 75.3006210327148438
-1.02416825294494629 2.21696305274963379 -11.886357307434082
8.40285873413085938 0.3899555504322052 -60.9544944763183594
3.7645423412322998 -0.170553907752037048 42.8163490295410156
0.502121627330780029 0.933002114295959473 76.5475845336914062
10.4885444641113281 2.1575169563293457 -67.091156005859375
-1.92819058895111084 2.29170894622802734 33.6113700866699219
-1.65952897071838379 -0.632280111312866211 7.65822124481201172
0.450880706310272217 2.33343172073364258 5.11600446701049805
-6.67681121826171875 1.89405727386474609 32.5042457580566406
5.01781320571899414 1.82035982608795166 49.7688255310058594
-2.07987451553344727 1.39416003227233887 83.4097137451171875
-5.7690129280090332 2.16311216354370117 -69.250823974609375
-0.793481767177581787 9.46020603179931641 -77.822540283203125
-0.140077114105224609 0.75447380542755127 62.9381942749023438
-2.83115577697753906 2.5836329460144043 61.0655975341796875
-2.93341732025146484 2.34627103805541992 2.91266083717346191
-2.00031232833862305 2.38644576072692871 -2.97003555297851562
-4.15228557586669922 2.37158060073852539 18.4119853973388672
-2.73458361625671387 1.64211773872375488 -19.8160552978515625
4.33616447448730469 0.877169966697692871 70.2603302001953125
1.57199406623840332 2.25850605964660645 20.7220439910888672
-0.4466991126537323 -2.71321797370910645 -47.4762306213378906
8.66721343994140625 2.43274569511413574 -65.8221969604492188
6.23121166229248047 -5.64751720428466797 -41.253387451171875
-4.86984825134277344 -0.0712013468146324158 21.2703399658203125
-2.65971064567565918 -2.59140658378601074 -39.2436904907226562
-6.90281009674072266 0.508666515350341797 43.95086669921875
4.415985107421875 -0.240770101547241211 -0.144806131720542908
-5.50295829772949219 -0.0453697144985198975 39.3036117553710938
8.81096744537353516 -3.38289833068847656 -56.1372909545898438
-2.23207473754882812 -0.442183554172515869 19.1154537200927734
-0.00777246570214629173 0.386469870805740356 52.9481964111328125
-5.56705331802368164 2.43271493911743164 -69.8768692016601562
-2.25967001914978027 -4.86397790908813477 -33.3748931884765625
2.71946573257446289 2.05854201316833496 45.5680160522460938
-6.58533668518066406 0.788183331489562988 34.6603240966796875
-5.66176080703735352 -2.87053155899047852 -57.6642112731933594
2.74252057075500488 -1.1463090181350708 -0.567370951175689697
-3.99946737289428711 -0.426912844181060791 13.7407541275024414
-0.764377832412719727 2.42448019981384277 20.6154041290283203
4.07091045379638672 -0.754443824291229248 -6.3858637809753418
3.32482242584228516 -0.560260236263275146 23.2422885894775391
6.9198002815246582 -1.79763889312744141 -54.4850730895996094
-0.194047540426254272 6.95937252044677734 -78.8548965454101562
7.12482690811157227 3.64254021644592285 -68.3121185302734375
-9.10314750671386719 -0.573551952838897705 -55.2368049621582031
3.18512845039367676 -3.01744484901428223 -47.1444625854492188
1.10802698135375977 -2.30042600631713867 -13.5271387100219727
-0.799451112747192383 -1.52396929264068604 -3.0629727840423584
0.712300717830657959 -1.2054286003112793 11.1718950271606445
3.66284561157226562 1.56414639949798584 -62.5452308654785156
-0.414019346237182617 -5.01218652725219727 -49.7412033081054688
-4.73691701889038086 3.1995995044708252 75.5415878295898438
5.35831403732299805 1.64020156860351562 57.6300697326660156
3.92571544647216797 -3.35033726692199707 -41.5346565246582031
-1.66959023475646973 1.59523403644561768 -20.4402332305908203
-5.83865594863891602 -0.0116213494911789894 35.8471717834472656
9.99184322357177734 1.38099014759063721 -63.5849266052246094
1.19017839431762695 2.21334981918334961 53.7226104736328125
-2.16665196418762207 3.20627355575561523 73.5488357543945312
1.89703106880187988 0.749019026756286621 66.4176712036132812
6.69971323013305664 -5.38097286224365234 -29.3355712890625
-0.513553440570831299 -4.43956327438354492 -34.3248367309570312
8.54967403411865234 -5.26781558990478516 -31.9819393157958984
-0.264588207006454468 0.734102606773376465 62.6368598937988281
2.91420912742614746 -2.82998871803283691 -20.3746662139892578
-5.01782035827636719 0.119558371603488922 47.647918701171875
5.27920198440551758 -5.36125373840332031 -38.5000877380371094
3.15109515190124512 3.85788583755493164 78.017303466796875
-1.91509878635406494 3.88600444793701172 80.7111663818359375
-2.7867588996887207 2.44987010955810547 0.89895319938659668
5.51044750213623047 -5.51547622680664062 -31.4338951110839844
-6.13583707809448242 2.00839614868164062 46.2370185852050781
-1.64095818996429443 -3.66061711311340332 -28.0029735565185547
-1.71367847919464111 -1.24702250957489014 -34.7575836181640625
-9.30625057220458984 3.09859228134155273 -64.3704147338867188
-3.61836576461791992 0.516998112201690674 56.2164077758789062
2.96114850044250488 -2.97063636779785156 -47.3573226928710938
-5.83774852752685547 2.39062190055847168 58.6674156188964844
-5.30287933349609375 -0.0213528871536254883 40.3159675598144531
-4.58321380615234375 1.97476792335510254 10.911189079284668
1.35640335083007812 2.59913039207458496 61.0833969116210938
9.67448329925537109 3.60055112838745117 -73.569427490234375
5.51922893524169922 -0.346100717782974243 59.1421279907226562
4.01315402984619141 -0.246222928166389465 42.7908706665039062
4.82299137115478516 2.13816642761230469 64.2930908203125
-3.96112227439880371 0.648285388946533203 61.4265365600585938
-7.42590141296386719 0.434261918067932129 69.2335739135742188
3.29039263725280762 1.9573967456817627 -16.0151748657226562
-6.51387643814086914 1.46669554710388184 33.2602462768554688
-4.89708328247070312 -4.37265634536743164 -33.8977928161621094
1.7753453254699707 3.67723965644836426 68.2967758178710938
-0.537859737873077393 2.23330926895141602 -12.3961677551269531
5.40940713882446289 1.66485905647277832 52.3642234802246094
-9.76669597625732422 1.81477653980255127 -61.0366020202636719
2.39865922927856445 2.02408814430236816 12.5050497055053711
3.76172971725463867 -3.01977086067199707 -40.1068229675292969
-3.65510368347167969 -2.59595847129821777 -9.67439460754394531
-4.32123851776123047 -0.716906547546386719 -7.53968048095703125
-2.38633036613464355 -3.01520442962646484 -6.7925572395324707
-5.18969011306762695 -5.41065311431884766 -40.7568016052246094
-8.03935909271240234 2.11504268646240234 57.3974838256835938
10.4756126403808594 -1.69828402996063232 -55.8513908386230469
-2.49689006805419922 1.11334061622619629 -23.2893466949462891
4.3247981071472168 -1.87057757377624512 -26.7214832305908203
5.36818218231201172 0.175244435667991638 73.208343505859375
-2.17275214195251465 2.298370361328125 -12.0006608963012695
-6.20708036422729492 8.77600765228271484 -76.5769424438476562
3.13282275199890137 1.94081377983093262 -0.205314457416534424
-1.80629944801330566 -0.920292556285858154 -55.3769989013671875
5.4492034912109375 1.01583623886108398 44.5404586791992188
-0.851811647415161133 0.825884222984313965 64.0546646118164062
1.76055169105529785 2.12446022033691406 -3.99948835372924805
-10.3563728332519531 -0.739903450012207031 -56.4374313354492188
5.04167699813842773 -0.511160373687744141 45.7804069519042969
2.44004535675048828 -1.5919647216796875 -6.36966180801391602
-1.441597580909729 1.11985921859741211 83.655609130859375
2.25437092781066895 0.348137795925140381 58.9749870300292969
3.80021858215332031 0.856192648410797119 -21.1888771057128906
3.37456750869750977 -3.21990466117858887 -40.8427619934082031
0.794625759124755859 3.34153580665588379 81.3985137939453125
-0.196469083428382874 2.2264707088470459 -7.99157047271728516
-0.365179359912872314 0.145949587225914001 28.9854354858398438
2.91649127006530762 -5.05689907073974609 -32.2359848022460938
1.84206557273864746 0.543314516544342041 61.8074760437011719
0.658289015293121338 0.641049444675445557 61.0225334167480469
-6.5200657844543457 2.42519307136535645 73.302490234375
-4.12544393539428711 -5.62104034423828125 -45.0541229248046875
-2.59454846382141113 0.568644225597381592 57.5038795471191406
8.34730625152587891 -5.42746305465698242 -46.9253196716308594
4.23528385162353516 -0.522028863430023193 -18.1060733795166016
2.38590812683105469 1.94222915172576904 80.6973876953125
-1.38335335254669189 2.28456687927246094 15.3812217712402344
2.45692300796508789 1.53358662128448486 -21.1893901824951172
5.50721549987792969 0.505341887474060059 52.6077156066894531
-6.02205753326416016 2.54835796356201172 -70.1103897094726562
4.00520563125610352 -0.622330129146575928 3.12088584899902344
-7.65660524368286133 -5.37865400314331055 -47.4324913024902344
3.34195876121520996 -0.832547545433044434 2.91704416275024414
-1.7211298942565918 2.2451472282409668 46.0327110290527344
-1.07097363471984863 2.46456098556518555 13.8402137756347656
4.43955087661743164 0.158798396587371826 -4.48131561279296875
-7.42474985122680664 -2.78352570533752441 -57.6079368591308594
-1.54554641246795654 2.31052398681640625 30.7466983795166016
3.40550637245178223 1.71316254138946533 26.5489597320556641
3.2816927433013916 0.555675268173217773 -24.9060096740722656
-7.092926025390625 0.0539475083351135254 54.2627143859863281
4.84267663955688477 -5.62134885787963867 -40.7598457336425781
-0.982137739658355713 2.40878057479858398 57.6339912414550781
10.7372312545776367 -3.13987970352172852 -56.9724235534667969
-0.744093239307403564 0.907494306564331055 83.8248367309570312
-9.79049396514892578 0.0838827788829803467 -56.8991966247558594
2.39992022514343262 1.9972764253616333 37.62542724609375
-2.33248090744018555 -2.96564579010009766 -13.3603286743164062
2.9107670783996582 -2.89821791648864746 -48.0005302429199219
-7.91166019439697266 1.92994070053100586 41.4720649719238281
-0.528448045253753662 3.71539068222045898 76.3360137939453125
-3.51975655555725098 -1.55345892906188965 -4.53015708923339844
6.73207664489746094 -0.437675416469573975 -58.5489540100097656
-3.38066482543945312 3.88999342918395996 68.5597763061523438
5.60036087036132812 -5.45665884017944336 -39.1120376586914062
-5.89287519454956055 2.05058550834655762 40.08349609375
3.74750900268554688 -0.1992005854845047 43.8571052551269531
3.19432592391967773 -1.22645378112792969 -55.7881355285644531
-1.16442978382110596 -0.789741754531860352 2.88421082496643066
0.9637642502784729 -4.45874786376953125 -33.0724563598632812
4.78419876098632812 -4.37865591049194336 -53.5254364013671875
4.3356165885925293 1.35295820236206055 20.6616020202636719
2.48306894302368164 3.60754990577697754 76.466064453125
10.5225715637207031 -5.60213041305541992 -46.3056907653808594
3.39230823516845703 1.7360527515411377 -3.86254668235778809
-3.72658014297485352 1.38957595825195312 -16.2658481597900391
-7.48340034484863281 -2.38392448425292969 -58.7811660766601562
-2.36357975006103516 -0.859351098537445068 12.1440496444702148
-0.520438671112060547 0.167552411556243896 27.853240966796875
2.44079923629760742 2.51268124580383301 58.2724800109863281
-4.53093576431274414 1.59402668476104736 6.00007915496826172
0.970161616802215576 -1.78454244136810303 -7.24726438522338867
7.28721189498901367 -2.67169451713562012 -32.6259422302246094
-0.460695564746856689 -4.4510350227355957 -33.8433837890625
-2.57196617126464844 0.21867448091506958 37.3735427856445312
-7.63479948043823242 1.43136799335479736 47.8571357727050781
-1.41322386264801025 2.34439444541931152 -4.32867097854614258
4.53797483444213867 1.06949841976165771 -11.5997285842895508
0.483011513948440552 0.0968217551708221436 37.0765953063964844
-0.567212760448455811 2.29733514785766602 -2.18353891372680664
-0.888314425945281982 2.31943035125732422 -63.5405082702636719
-5.3677520751953125 0.175669968128204346 50.1406402587890625
-4.74446868896484375 0.894175231456756592 -1.46509003639221191
0.690922021865844727 -2.53389167785644531 -38.0851516723632812
7.90282487869262695 -1.72081315517425537 -60.958953857421875
-0.407983154058456421 0.185846239328384399 25.9594516754150391
-1.49088943004608154 2.46698999404907227 0.297282040119171143
-7.68893527984619141 4.16595554351806641 -66.7639312744140625
-4.19431543350219727 -5.39454317092895508 -47.0497550964355469
-1.82300782203674316 1.2379683256149292 77.1189651489257812
-6.40183782577514648 1.49583172798156738 -60.9719924926757812
-3.6738135814666748 2.28115344047546387 13.9604835510253906
3.05288338661193848 1.6492084264755249 -7.65765190124511719
10.4663867950439453 2.68203878402709961 -71.5176620483398438
2.91702556610107422 0.100005842745304108 -59.0452537536621094
5.77125024795532227 0.721236705780029297 59.1732025146484375
-10.5324392318725586 -2.11641073226928711 -52.9038314819335938
-4.18821334838867188 -0.374081522226333618 -16.2920761108398438
-2.46887707710266113 -1.68896794319152832 -36.5098533630371094
4.22785139083862305 4.39434528350830078 -73.9757156372070312
4.26290988922119141 8.28544425964355469 -76.4293212890625
1.2693169116973877 -1.54873251914978027 -3.76362442970275879
-8.92749786376953125 -5.34466218948364258 -44.090118408203125
10.0454225540161133 0.937278926372528076 -62.5322608947753906
-6.08233261108398438 1.65676462650299072 35.5310630798339844
1.19245767593383789 -4.93364429473876953 -36.6370658874511719
2.92109394073486328 -1.25594186782836914 8.01801490783691406
-6.97640419006347656 0.766337811946868896 40.8436050415039062
-3.82600712776184082 0.501723110675811768 -18.2510032653808594
-4.87101888656616211 3.10498499870300293 74.5219573974609375
0.570548832416534424 2.29710221290588379 56.1258010864257812
-3.41736030578613281 0.284039497375488281 44.8027725219726562
1.69400417804718018 -0.538100183010101318 13.5573654174804688
4.71484994888305664 -0.351487994194030762 29.8523025512695312
1.67542934417724609 3.52847385406494141 73.6408004760742188
7.97502231597900391 -3.12096929550170898 -56.9888725280761719
9.88663959503173828 6.33046722412109375 -75.7414779663085938
-6.2772669792175293 0.374754577875137329 35.7181739807128906
-4.01569366455078125 -0.199580833315849304 22.9390716552734375
4.44916820526123047 12.3684282302856445 -84.0673980712890625
-4.43873834609985352 2.47695827484130859 59.0987129211425781
2.38927006721496582 2.23521637916564941 5.35029411315917969
3.20158720016479492 2.02368640899658203 0.243113309144973755
5.5297245979309082 -3.82384657859802246 -54.6346092224121094
0.288528084754943848 3.69114065170288086 80.9848251342773438
7.65055036544799805 -4.33845949172973633 -53.0570907592773438
5.56683540344238281 1.62634158134460449 54.0645027160644531
0.397237122058868408 -3.07780551910400391 -40.8822746276855469
-0.394930392503738403 0.736124873161315918 62.577728271484375
0.926516532897949219 -3.77837252616882324 -25.3924140930175781
-3.07854366302490234 0.553276121616363525 56.978790283203125
-8.05070590972900391 0.11405017226934433 -57.3537635803222656
2.22368288040161133 -1.47218942642211914 -0.568379580974578857
4.82362461090087891 2.01366901397705078 67.09765625
-4.86332321166992188 2.36417388916015625 51.4744491577148438
2.84054708480834961 -5.20792579650878906 -49.6739730834960938
-0.633078038692474365 0.380840659141540527 50.4373321533203125
2.89229416847229004 -0.650898158550262451 13.3341941833496094
-3.2924957275390625 2.34432315826416016 -1.83880674839019775
-6.23319578170776367 3.15615344047546387 28.18035888671875
-7.85427474975585938 1.9154583215713501 67.0486068725585938
-4.0464024543762207 2.43026471138000488 50.3827323913574219
-4.43282413482666016 -4.48674869537353516 -34.8460311889648438
-4.53165388107299805 2.33726978302001953 15.2804460525512695
3.07617712020874023 -0.609319150447845459 15.360102653503418
5.49338865280151367 -1.34373092651367188 -28.29193115234375
1.22376871109008789 0.812209606170654297 76.3169784545898438
4.37059879302978516 -2.69267654418945312 -27.339813232421875
5.96697711944580078 -2.58345270156860352 -37.4469337463378906
3.87727069854736328 -0.664626061916351318 12.5238847732543945
-6.82645559310913086 -0.0839722901582717896 49.8554763793945312
3.57789969444274902 3.01493263244628906 74.6351089477539062
-7.109100341796875 2.08304691314697266 37.4510231018066406
3.39036059379577637 -0.397009074687957764 25.1960067749023438
8.15398311614990234 -0.0644607916474342346 -59.7847442626953125
3.19990873336791992 1.13298320770263672 78.220855712890625
5.97587013244628906 -5.40890121459960938 -47.8265953063964844
3.65130853652954102 -2.4239501953125 -19.8194370269775391
4.84311056137084961 1.05640292167663574 30.2856636047363281
-0.0250781569629907608 0.35452723503112793 51.6481742858886719
8.23707103729248047 -3.65585160255432129 -44.7996482849121094
-0.761312007904052734 -0.89376366138458252 2.61136794090270996
7.35099124908447266 -2.49377107620239258 -37.07745361328125
10.1021280288696289 0.252330571413040161 -60.9057731628417969
1.44890010356903076 -1.64448273181915283 -5.73946285247802734
-0.524768054485321045 -5.72335100173950195 -43.89801025390625
3.53250670433044434 -5.12536716461181641 -37.2105331420898438
-4.59068441390991211 0.354708701372146606 52.0124435424804688
-1.80580353736877441 -3.0069432258605957 -13.0517663955688477
4.95405340194702148 -3.83417248725891113 -54.6454391479492188
-8.02388954162597656 1.63936305046081543 52.1322555541992188
-8.10969638824462891 -2.63328766822814941 -44.4114265441894531
-6.44936752319335938 2.36540079116821289 74.23126220703125
-0.710805952548980713 0.886982917785644531 65.2371826171875
0.707885026931762695 2.28006124496459961 -16.5594520568847656
4.91151666641235352 5.67503547668457031 -76.631866455078125
-5.71030712127685547 -0.10401076078414917 40.9496192932128906
-4.1235041618347168 6.66033411026000977 -78.9038772583007812
9.26983737945556641 -0.0208214409649372101 -60.0983314514160156
1.4677044153213501 2.14883208274841309 12.1444854736328125
1.60040450096130371 1.01630556583404541 69.3562393188476562
-4.66514778137207031 1.83841419219970703 10.7010183334350586
4.45979547500610352 10.3576288223266602 -80.451934814453125
-7.5629730224609375 -5.32225942611694336 -40.0582733154296875
7.86538791656494141 -4.00555086135864258 -30.7973651885986328
2.31838369369506836 -0.576591253280639648 -29.7704429626464844
-9.11224937438964844 1.88249087333679199 -61.452056884765625
-7.95379018783569336 0.974610745906829834 64.624755859375
-4.15081977844238281 -1.86433625221252441 -11.2775297164916992
-7.90278863906860352 -3.73502159118652344 -54.5753173828125
-7.72759819030761719 -2.6320195198059082 -44.2148895263671875
-1.26750409603118896 -1.51661300659179688 -4.0177459716796875
-5.7761993408203125 -0.839241623878479004 -32.3362464904785156
-1.5106123685836792 0.716969430446624756 60.4856147766113281
1.4802776575088501 2.01691961288452148 31.2796573638916016
2.06806731224060059 2.66901779174804688 60.8128623962402344
6.68466615676879883 0.791565358638763428 -61.6192169189453125
9.24011325836181641 -3.67682051658630371 -45.032012939453125
0.481158673763275146 0.131762832403182983 26.3403682708740234
-3.47410845756530762 0.244405806064605713 -27.4443378448486328
-3.29947710037231445 4.18496990203857422 79.48199462890625
-3.02896928787231445 -2.94766759872436523 -42.5625839233398438
3.1270139217376709 -1.04491007328033447 6.17365694046020508
-8.22323036193847656 1.42753970623016357 53.3775863647460938
-1.23083972930908203 -2.17848896980285645 -15.5690879821777344
0.586983084678649902 0.129151880741119385 26.5372524261474609
-0.105561390519142151 -0.67635047435760498 -62.8652763366699219
-6.08003520965576172 2.21879339218139648 53.1913070678710938
1.21160149574279785 3.66977095603942871 68.5437393188476562
-5.45624589920043945 0.643785953521728516 21.8251991271972656
-3.7870628833770752 8.51817131042480469 -82.7995529174804688
-3.1182401180267334 -1.30506527423858643 -53.745758056640625
3.49090027809143066 -0.842925012111663818 4.5786137580871582
-6.18321466445922852 -0.156928300857543945 43.0155143737792969
-3.34213566780090332 2.47734284400939941 55.998382568359375
-3.53391599655151367 2.90511155128479004 70.8553695678710938
-5.54968929290771484 1.30252981185913086 22.0117912292480469
-6.72355890274047852 0.075616002082824707 53.7555885314941406
0.608959496021270752 2.14013838768005371 -11.3273820877075195
4.48547840118408203 -2.94114828109741211 -25.2240390777587891
-2.58933115005493164 -0.716360270977020264 3.43385887145996094
-3.18790674209594727 -0.851075053215026855 -33.3258628845214844
4.12775564193725586 1.40423417091369629 6.68131828308105469
-4.81880569458007812 -5.44620180130004883 -46.4655876159667969
-6.50592613220214844 -0.13880455493927002 47.3756752014160156
-4.6177215576171875 0.524147748947143555 58.7765045166015625
5.64799928665161133 -4.53777980804443359 -52.8847846984863281
10.3080759048461914 -1.24664008617401123 -57.0598602294921875
1.79090654850006104 1.45415091514587402 -20.9848842620849609
-3.74430108070373535 2.24496603012084961 48.2090263366699219
-3.62658166885375977 2.41675496101379395 22.0899944305419922
-4.31598806381225586 2.55197691917419434 61.6259498596191406
-4.10760831832885742 0.643628120422363281 63.3712234497070312
3.1353001594543457 2.11351132392883301 36.8773994445800781
-3.99477815628051758 -0.120112352073192596 40.6537704467773438
-7.86194324493408203 1.86688971519470215 62.8274269104003906
-1.61932682991027832 2.36893701553344727 -0.898551762104034424
3.95932531356811523 1.77827060222625732 0.00943559128791093826
-8.05614566802978516 0.765827298164367676 54.59716796875
0.630601942539215088 -3.8129274845123291 -30.3355236053466797
-6.52419710159301758 2.74807381629943848 32.5149459838867188
1.6849973201751709 2.16288065910339355 23.6388587951660156
-0.107552215456962585 0.847219645977020264 73.0381622314453125
7.71850728988647461 -1.66304004192352295 -55.0806198120117188
2.82061290740966797 0.44493064284324646 62.6348190307617188
-4.98896551132202148 2.71666288375854492 66.3329696655273438
3.54656338691711426 0.855413258075714111 -18.0631427764892578
-7.25176095962524414 -5.41221380233764648 -40.8232917785644531
-1.22476458549499512 -3.85224485397338867 -6.89298629760742188
4.21906566619873047 -3.29584121704101562 -25.1648712158203125
0.838586688041687012 2.26372671127319336 -4.46911096572875977
1.73654234409332275 0.275920450687408447 55.1870880126953125
4.87406253814697266 1.02516114711761475 30.1853981018066406
-1.68315732479095459 -0.764196395874023438 2.70105457305908203
-1.48388540744781494 2.6617279052734375 34.8947525024414062
-6.29732513427734375 2.10609650611877441 50.8699264526367188
-3.20671463012695312 -4.4129791259765625 -30.6231613159179688
4.53672313690185547 1.66365218162536621 -6.85052251815795898
-7.90724468231201172 -0.937684774398803711 -62.188629150390625
-2.2522883415222168 2.39117217063903809 5.6708831787109375
-0.114368654787540436 0.690637886524200439 -65.8038177490234375
-5.09362268447875977 0.150582388043403625 48.3194160461425781
7.85312986373901367 -3.37229061126708984 -30.0179481506347656
-3.6586003303527832 0.806706428527832031 73.6083984375
-4.7165064811706543 0.707150578498840332 70.9761810302734375
-9.39335441589355469 2.0090329647064209 -61.8114204406738281
3.12178850173950195 0.765315592288970947 68.7993927001953125
-7.47716712951660156 1.88531231880187988 41.5187873840332031
-4.15597963333129883 2.46385860443115234 -69.9575653076171875
-2.14304590225219727 1.42153918743133545 -21.4109420776367188
-4.65500307083129883 2.24596309661865234 32.3518104553222656
-2.84384846687316895 0.510321557521820068 55.8284263610839844
1.65144777297973633 2.14300298690795898 37.1473007202148438
-1.77632570266723633 2.33368921279907227 -7.27734470367431641
-3.08227705955505371 2.42288637161254883 8.65174007415771484
0.378533303737640381 1.48229300975799561 -67.471649169921875
-0.322421282529830933 -5.11863231658935547 -49.2526206970214844
-4.79956722259521484 0.211303934454917908 14.4503116607666016
1.96158361434936523 -1.31036674976348877 10.0434017181396484
2.54634666442871094 1.73100030422210693 81.0013961791992188
-1.86838662624359131 2.33240652084350586 -7.32647085189819336
2.31452488899230957 -3.41200757026672363 -22.7709312438964844
9.29397010803222656 4.70044183731079102 -70.95751953125
-2.45753240585327148 2.31126642227172852 25.2185573577880859
1.65242993831634521 -1.60809159278869629 -4.9154052734375
-4.76863956451416016 1.93411612510681152 13.5902214050292969
-5.14412879943847656 1.35926997661590576 15.8172388076782227
-5.48324251174926758 2.1294701099395752 37.064544677734375
-4.48553371429443359 1.4493253231048584 76.9829635620117188
1.00031602382659912 2.28699207305908203 29.4826450347900391
2.07549166679382324 1.91675138473510742 31.4332351684570312
5.0480036735534668 -5.0450892448425293 -35.7729988098144531
2.51352930068969727 1.9940565824508667 11.7532224655151367
0.52796018123626709 -3.93112921714782715 -26.2709159851074219
-2.29547262191772461 -3.76323342323303223 -26.2477817535400391
0.731365323066711426 2.38546061515808105 16.9201183319091797
-1.75631189346313477 2.40587711334228516 54.9353446960449219
3.19219732284545898 -0.607549786567687988 -29.9493179321289062
0.197105884552001953 4.90067911148071289 -74.7150192260742188
-0.617381095886230469 0.383521556854248047 49.4520378112792969
-0.14722093939781189 0.134173288941383362 36.8336830139160156
3.92353963851928711 -2.19677853584289551 -25.9082736968994141
-1.66862654685974121 2.24968934059143066 45.3732528686523438
-1.14130890369415283 2.44710707664489746 38.4652900695800781
-0.337583988904953003 -5.0310215950012207 -37.6716499328613281
0.678724527359008789 -0.404190123081207275 -28.9396076202392578
-3.24555277824401855 1.92533636093139648 -15.6188020706176758
-4.54589939117431641 1.55535268783569336 6.08319377899169922
-6.03927803039550781 3.54022550582885742 68.3416213989257812
0.0167057216167449951 5.46849298477172852 -75.8295059204101562
-4.42140340805053711 0.464540243148803711 2.68541169166564941
-1.35297250747680664 1.79236316680908203 -19.9307270050048828
10.2943029403686523 -4.89084672927856445 -50.8230247497558594
2.36522126197814941 0.819994747638702393 73.0209884643554688
-6.35284042358398438 0.908719837665557861 29.0995235443115234
4.38226747512817383 2.51993441581726074 64.1754913330078125
3.57770776748657227 -0.803607285022735596 -62.7741317749023438
-8.08875370025634766 -1.99827909469604492 -49.9304542541503906
3.17195463180541992 -0.160760790109634399 42.1427192687988281
-1.13187062740325928 2.30841517448425293 31.8750381469726562
4.69345521926879883 1.61674284934997559 32.4955863952636719
-4.55423879623413086 2.97132515907287598 72.2310943603515625
4.36765336990356445 -1.55845844745635986 -17.5274276733398438
-4.25563478469848633 2.29900503158569336 36.4371147155761719
4.49998712539672852 1.88621962070465088 -6.86650419235229492
-6.10298871994018555 3.60727334022521973 -72.352142333984375
4.58265256881713867 0.669040977954864502 11.7978639602661133
6.87257862091064453 -3.32078051567077637 -40.245635986328125
-0.0401694066822528839 -0.95445859432220459 13.4046840667724609
-5.49720191955566406 1.98974204063415527 -62.2895011901855469
-3.62448477745056152 -3.52463865280151367 -24.7911491394042969
2.82151937484741211 0.888306617736816406 69.8517379760742188
-2.25630688667297363 2.52634596824645996 17.1550922393798828
1.11361145973205566 0.659349620342254639 62.80010986328125
-0.0408204309642314911 2.35515308380126953 22.9101181030273438
2.43899035453796387 2.29356765747070312 3.93648171424865723
10.099360466003418 2.86306929588317871 -67.011810302734375
-5.73426055908203125 2.14932155609130859 26.3919715881347656
-5.1472010612487793 0.504901587963104248 64.1155242919921875
11.818817138671875 -5.27661848068237305 -50.8395843505859375
-0.974051058292388916 4.06176471710205078 83.7910003662109375
2.62156987190246582 -0.573739707469940186 -29.0049858093261719
-5.67118930816650391 10.7672338485717773 -80.7143936157226562
-7.04547023773193359 1.71728360652923584 32.57763671875
-3.61296701431274414 2.6574866771697998 64.5627059936523438
0.0436305105686187744 2.18432497978210449 -11.1204051971435547
-7.56267023086547852 1.63060688972473145 43.8128623962402344
-0.298049479722976685 2.55589199066162109 50.7719573974609375
-1.42240226268768311 -4.67185497283935547 -31.8294639587402344
-6.81925201416015625 0.0559980012476444244 54.8558578491210938
-8.2292022705078125 1.53736376762390137 59.7300987243652344
-3.10747909545898438 -3.27659416198730469 -20.9363746643066406
5.81361150741577148 0.839465558528900146 55.4294471740722656
-10.1451377868652344 -0.0962922871112823486 -58.9905357360839844
-4.59769296646118164 -0.0919478237628936768 69.5751571655273438
7.31747055053710938 -5.59165573120117188 -39.6583442687988281
0.989842414855957031 2.06227397918701172 25.9015598297119141
-5.40655851364135742 1.90882325172424316 23.6084938049316406
-7.60092878341674805 1.85410594940185547 52.5531234741210938
-2.67247414588928223 2.32236766815185547 26.8447780609130859
-1.35689127445220947 0.536879420280456543 -25.8908977508544922
-4.49865198135375977 2.35302114486694336 53.2561531066894531
-2.23164772987365723 3.04449629783630371 72.375
1.35713815689086914 -2.7843780517578125 -18.3250274658203125
-7.21680116653442383 1.72536349296569824 34.8499565124511719
6.42030143737792969 -5.37581777572631836 -38.2027320861816406
-9.36769485473632812 3.24518918991088867 -65.9111328125
-5.37968778610229492 -1.43925619125366211 -60.9804000854492188
0.867194652557373047 2.24980878829956055 -17.3528347015380859
-2.21718049049377441 -3.05475926399230957 -6.69813680648803711
-4.50347471237182617 -0.00054271606495603919 -0.627706825733184814
0.614428460597991943 2.38186383247375488 3.65904784202575684
10.6136302947998047 -0.10130774974822998 -60.8418769836425781
-2.52924418449401855 2.26865053176879883 46.5220146179199219
-5.07127523422241211 9.23019886016845703 -77.7074661254882812
1.32014369964599609 2.11823534965515137 -9.08779525756835938
-8.79824352264404297 -2.5524756908416748 -40.2590713500976562
-0.60440361499786377 -3.09702444076538086 -42.0018730163574219
-7.17201328277587891 1.23535692691802979 37.6359291076660156
4.37726259231567383 1.68977057933807373 40.6065216064453125
5.49174118041992188 1.09360182285308838 48.765716552734375
2.17906785011291504 2.0497133731842041 33.3320121765136719
-3.92296314239501953 1.49192273616790771 81.5112228393554688
1.16486096382141113 -1.41515135765075684 -54.7216033935546875
-6.09900617599487305 5.58439111709594727 -76.6057891845703125
-9.85189437866210938 1.55853784084320068 -61.9807090759277344
7.15156459808349609 -1.98349404335021973 -30.0137042999267578
-1.38085639476776123 2.35096263885498047 -5.09272003173828125
-5.75319242477416992 -5.40290260314941406 -38.6988258361816406
-4.21105480194091797 0.198877304792404175 43.2172317504882812
-7.14422988891601562 0.276457428932189941 47.6396675109863281
10.1073074340820312 -2.24864459037780762 -59.4874076843261719
3.57535648345947266 3.03337764739990234 71.3194198608398438
4.66809177398681641 -1.73745298385620117 -35.3566818237304688
-2.47868633270263672 0.0719651207327842712 34.2995376586914062
-3.34949445724487305 -4.00853443145751953 -53.6355705261230469
-2.64403820037841797 1.76967549324035645 78.7089385986328125
10.1270027160644531 -4.03148317337036133 -53.7081031799316406
0.311529397964477539 2.33324551582336426 57.6416244506835938
3.79629158973693848 1.66087532043457031 7.58588361740112305
5.84606218338012695 -0.848113596439361572 -29.63043212890625
-6.97778415679931641 -0.0284640230238437653 49.5731887817382812
-1.08698141574859619 -3.04115891456604004 -43.2049560546875
-1.12417244911193848 -0.523064315319061279 -29.7265567779541016
-1.82171988487243652 0.200563609600067139 32.4996833801269531
9.33891963958740234 -2.32934784889221191 -53.1757125854492188
4.87493419647216797 9.66016006469726562 -84.2957916259765625
-2.45296001434326172 -2.64779901504516602 -5.23888063430786133
4.36590003967285156 1.60962975025177002 35.201263427734375
2.61078977584838867 0.160865142941474915 81.9157028198242188
0.96597057580947876 2.25201702117919922 -4.19381427764892578
-0.67584681510925293 2.45935511589050293 36.6140403747558594
-2.58980083465576172 -0.667181789875030518 5.04070615768432617
-5.59562110900878906 3.52621889114379883 26.8729362487792969
-3.53102469444274902 2.29238605499267578 25.1004390716552734
-4.32364606857299805 2.20433449745178223 43.5080833435058594
5.57538604736328125 0.186212748289108276 55.3743438720703125
1.35099184513092041 0.271759450435638428 51.7574310302734375
3.40719413757324219 -1.72895097732543945 -60.5282745361328125
-1.25147604942321777 -1.8797767162322998 -51.9950103759765625
-4.05961704254150391 -2.06100702285766602 -10.4678812026977539
-10.5951700210571289 -0.89241945743560791 -54.1947555541992188
5.21414852142333984 4.96495676040649414 -75.1725540161132812
1.3484569787979126 1.07876276969909668 82.0394668579101562
5.53160524368286133 0.992556929588317871 52.5115699768066406
7.22592592239379883 0.196374356746673584 -60.26568603515625
4.00363731384277344 1.64187932014465332 1.88675069808959961
0.736748218536376953 -2.69241571426391602 -18.5113449096679688
-3.81479287147521973 0.302513629198074341 48.3539276123046875
-3.95199489593505859 0.666477560997009277 62.8477630615234375
0.437239259481430054 -0.470642626285552979 17.4636344909667969
-6.10332107543945312 3.21078157424926758 30.6624298095703125
-6.50143909454345703 -2.5822145938873291 -39.4649620056152344
4.07181406021118164 2.13215494155883789 53.9591865539550781
-6.88530254364013672 3.96034860610961914 -66.4366836547851562
-4.0265655517578125 4.82179927825927734 -75.0035400390625
3.67974734306335449 -0.765236735343933105 -0.0486982390284538269
3.05449175834655762 -0.69173818826675415 18.6679134368896484
3.5603792667388916 -5.3568272590637207 -32.1061210632324219
-6.43454837799072266 -2.7351531982421875 -41.0347061157226562
-3.60767960548400879 0.09701509028673172 36.1633567810058594
-4.84734296798706055 2.17275071144104004 48.7064132690429688
-8.15620899200439453 -5.31920003890991211 -47.8769989013671875
3.78183841705322266 -0.137775078415870667 45.245941162109375
1.24895179271697998 0.123129956424236298 43.8112564086914062
1.54555130004882812 0.591120064258575439 61.48846435546875
-3.66379570960998535 -0.554555773735046387 4.99660062789916992
-2.79202628135681152 -0.741044282913208008 3.33470582962036133
-4.05281925201416016 5.05567121505737305 -75.5602951049804688
-6.90412139892578125 1.25050640106201172 33.4333992004394531
-1.11795496940612793 2.4944148063659668 1.68265736103057861
-3.11127400398254395 0.805547952651977539 72.7430496215820312
0.691087484359741211 -0.056413307785987854 -27.622283935546875
6.16256523132324219 -2.23354101181030273 -52.6674690246582031
7.10007905960083008 -4.94967365264892578 -26.6671543121337891
-1.9706953763961792 0.455620706081390381 52.1782379150390625
7.98075056076049805 -5.0016474723815918 -49.44427490234375
-2.95689582824707031 -2.91105818748474121 -41.3989372253417969
11.2464561462402344 -4.21495532989501953 -53.0528526306152344
2.83641672134399414 -1.87864255905151367 -13.9515657424926758
2.88528347015380859 2.88161826133728027 63.9333343505859375
-5.46725940704345703 3.80173993110656738 26.353118896484375
-2.48116612434387207 0.389471441507339478 -58.7969284057617188
5.57749319076538086 0.287926524877548218 54.3516845703125
-2.4466550350189209 2.37650775909423828 34.6833648681640625
-3.63270831108093262 -0.994176387786865234 -56.7900543212890625
0.864707469940185547 -2.69747376441955566 -18.156494140625
-4.52797174453735352 -1.37035095691680908 -22.4091358184814453
3.66657686233520508 -0.462907105684280396 -22.5198898315429688
-0.406442046165466309 -1.22099816799163818 0.633898317813873291
-7.62951231002807617 1.34267699718475342 -60.5309906005859375
-0.460101872682571411 9.52006340026855469 -77.9740982055664062
-2.54115462303161621 2.32236766815185547 -8.62325763702392578
-7.38075017929077148 -3.45616388320922852 -55.5295677185058594
-4.09119796752929688 2.320648193359375 27.5757102966308594
3.64751744270324707 1.76105844974517822 22.7100048065185547
2.71869039535522461 0.181559950113296509 55.26019287109375
3.60088229179382324 -2.11928486824035645 -59.5482940673828125
4.25831794738769531 1.48263144493103027 23.8220157623291016
-1.48633062839508057 2.49931764602661133 37.8980789184570312
-3.45944976806640625 0.426344245672225952 51.966064453125
-7.17807149887084961 2.23330926895141602 53.7369384765625
-5.95593166351318359 -0.992353618144989014 -34.796875
3.82088780403137207 0.682667672634124756 68.7424087524414062
3.66696548461914062 -5.62125158309936523 -40.6618232727050781
-1.9742426872253418 2.41871261596679688 20.5859146118164062
-4.18568611145019531 -1.76345646381378174 -51.7784690856933594
0.736737310886383057 -3.13988542556762695 -43.7550392150878906
6.3359227180480957 -1.28829813003540039 -30.0506629943847656
1.47370707988739014 -1.12590956687927246 3.47194099426269531
-0.6177825927734375 7.52326679229736328 -74.1228103637695312
2.99392867088317871 -0.602169454097747803 20.3036785125732422
-4.43964242935180664 0.184617519378662109 43.3264656066894531
-3.10384058952331543 -4.15675592422485352 -30.2801685333251953
-2.54023909568786621 -0.864305496215820312 15.4851093292236328
-3.23367834091186523 4.0326991081237793 77.8009796142578125
-7.88184356689453125 -3.21262621879577637 -56.3225822448730469
-8.12949371337890625 -2.34570074081420898 -38.6755142211914062
-0.813052237033843994 -1.75913906097412109 -10.2755117416381836
-1.00719368457794189 -1.14740324020385742 0.0371982119977474213
-8.27529621124267578 7.23379659652709961 -74.173187255859375
-4.33166599273681641 -0.713255405426025391 -24.2864246368408203
6.42139577865600586 -2.98354959487915039 -39.1673126220703125
1.88831138610839844 -1.04048526287078857 6.58654117584228516
-0.933730006217956543 0.143034309148788452 -27.3955917358398438
1.44336462020874023 -4.45167112350463867 -33.9517021179199219
-2.67410659790039062 -3.80005073547363281 -26.4421424865722656
-0.325629562139511108 -4.90516996383666992 -50.092010498046875
-1.67504775524139404 0.9364510178565979 70.8118820190429688
-1.5285797119140625 0.516245126724243164 56.8810081481933594
0.28684002161026001 3.52197599411010742 83.587890625
10.0196218490600586 -1.69644010066986084 -61.0075187683105469
-0.599505364894866943 2.34916782379150391 54.2294197082519531
4.41737794876098633 -0.192951768636703491 25.6327991485595703
-5.13976526260375977 -3.14209222793579102 -56.7490577697753906
5.18948030471801758 1.77085316181182861 57.0800094604492188
-2.16379404067993164 2.30137825012207031 -9.95761871337890625
1.89678370952606201 -2.71628642082214355 -48.5484542846679688
9.00698566436767578 -5.45289468765258789 -47.0736846923828125
-10.2947006225585938 -2.8079979419708252 -43.1201705932617188
-2.08974099159240723 0.215424537658691406 37.6173591613769531
-7.10031747817993164 0.108826406300067902 56.4880485534667969
1.32500219345092773 -0.132453620433807373 24.5831508636474609
4.2382354736328125 -3.35656881332397461 -44.8483772277832031
-4.81335067749023438 0.48701813817024231 66.922210693359375
-1.63029110431671143 -0.54411780834197998 -29.9840583801269531
-1.99016666412353516 2.28534221649169922 -15.3504161834716797
-0.573413431644439697 -0.967320024967193604 2.44426727294921875
-4.66582393646240234 0.00579679524526000023 35.7639236450195312
1.12456440925598145 -0.853818714618682861 6.65609264373779297
1.30923736095428467 0.292183786630630493 53.4758033752441406
-5.56784963607788086 1.90370917320251465 30.6280460357666016
1.01204991340637207 2.34654068946838379 14.5032033920288086
-3.46750903129577637 3.03731870651245117 72.774017333984375
9.84931564331054688 -1.96073508262634277 -54.6445274353027344
6.15059661865234375 -1.88305211067199707 -33.4001502990722656
9.76622867584228516 -5.22967386245727539 -48.8075599670410156
-6.96613550186157227 -2.29138398170471191 -33.196929931640625
-2.41725516319274902 2.42157530784606934 7.1744842529296875
4.33793306350708008 -0.386099636554718018 -1.81938552856445312
4.18949556350708008 4.0878911018371582 76.5003280639648438
9.86164665222167969 -4.41216564178466797 -52.4641609191894531
4.87556886672973633 1.95887959003448486 55.5091171264648438
3.68449616432189941 -0.729232311248779297 -31.1319046020507812
3.20510435104370117 0.246242403984069824 58.8857345581054688
0.950159072875976562 -0.244331076741218567 -28.1857318878173828
-1.49528717994689941 1.37189197540283203 80.8761672973632812
-5.21759796142578125 2.16822314262390137 38.0958061218261719
-8.23846149444580078 -5.40982389450073242 -44.0141830444335938
-5.3029932975769043 -5.52073144912719727 -46.0608024597167969
-0.222947195172309875 -2.80137515068054199 -20.9915847778320312
-7.59420013427734375 1.66821038722991943 51.5639724731445312
-4.21564006805419922 2.15949511528015137 10.3141965866088867
3.15984916687011719 -5.63400411605834961 -45.851287841796875
-0.89663618803024292 -0.950919270515441895 11.0264444351196289
-8.18293857574462891 -3.3604133129119873 -35.5445556640625
-6.10335779190063477 -2.48141932487487793 -46.9773521423339844
-2.46891665458679199 2.42173862457275391 -0.422583132982254028
-4.83247041702270508 -0.0222323965281248093 36.8759994506835938
-5.85772800445556641 0.0178433265537023544 48.8403053283691406
3.39452815055847168 1.22535085678100586 78.536590576171875
-0.61394035816192627 2.31271266937255859 49.4524345397949219
4.11851739883422852 -5.41961097717285156 -48.2029800415039062
-8.62761878967285156 -1.88061535358428955 -50.4043617248535156
-3.40886664390563965 0.454724609851837158 53.9004707336425781
-9.84139347076416016 -4.59018421173095703 -55.2047691345214844
-3.80245232582092285 0.65308767557144165 -18.1459274291992188
0.490715444087982178 3.52858352661132812 83.454010009765625
7.81524324417114258 8.75360965728759766 -79.4068069458007812
4.07813072204589844 1.87805056571960449 32.3874435424804688
4.48150205612182617 -5.72758245468139648 -42.9995231628417969
3.45356440544128418 -0.350043386220932007 36.08135986328125
-3.72266459465026855 1.89295601844787598 -10.9513368606567383
-0.0724326819181442261 -2.23166346549987793 -50.4049263000488281
4.4973454475402832 2.15810918807983398 71.403106689453125
-9.15502071380615234 0.628405988216400146 -58.5093536376953125
4.38900995254516602 1.37569034099578857 22.7305374145507812
-5.71591377258300781 -3.64365887641906738 -34.0297126770019531
11.6306867599487305 -2.27532267570495605 -59.472991943359375
-6.05085563659667969 -2.72757840156555176 -58.017547607421875
5.70516109466552734 0.37223970890045166 60.2909431457519531
0.0565353967249393463 2.25757670402526855 -2.39969754219055176
1.02502715587615967 2.26192307472229004 33.993988037109375
-1.77630817890167236 2.32200169563293457 31.3099308013916016
3.42701172828674316 2.08532357215881348 34.3419532775878906
4.05282068252563477 -5.60392141342163086 -40.4403114318847656
0.515673935413360596 2.50172185897827148 62.2037582397460938
8.58976364135742188 -1.77148711681365967 -60.8111190795898438
3.48537850379943848 -0.781197249889373779 -31.4490337371826172
5.61875247955322266 -0.0218511950224637985 59.8846435546875
-4.42147254943847656 0.606437027454376221 61.8827056884765625
-1.80516898632049561 0.449492901563644409 52.0330963134765625
1.47115826606750488 2.39851927757263184 58.5391159057617188
4.56425905227661133 0.513154804706573486 -26.2452316284179688
7.66468715667724609 -2.02806806564331055 -53.8856201171875
9.17274856567382812 -4.57025575637817383 -51.9125633239746094
-7.14845657348632812 0.0361016727983951569 60.2050132751464844
10.6024379730224609 -3.03943109512329102 -53.1829109191894531
-2.32948684692382812 -2.97014975547790527 -42.4164924621582031
1.09766197204589844 -0.821829795837402344 6.97951936721801758
4.33377552032470703 0.0797237083315849304 20.3237094879150391
3.14550256729125977 1.97876548767089844 39.0596389770507812
3.26768064498901367 -1.97523176670074463 -22.9268283843994141
5.52176809310913086 -4.22949409484863281 -54.0675926208496094
-1.65999734401702881 -2.57963848114013672 -11.1083793640136719
-0.783456742763519287 -0.816245496273040771 5.53520727157592773
-4.42488288879394531 -4.39376974105834961 -51.8186721801757812
-3.5726170539855957 3.53507637977600098 67.3105926513671875
-5.39737319946289062 -1.4844508171081543 -30.2859630584716797
10.1937427520751953 -0.366661131381988525 -59.3871841430664062
-2.98375940322875977 0.306046992540359497 44.9652252197265625
-2.83340144157409668 2.46509838104248047 36.8215255737304688
-2.73033237457275391 2.26569652557373047 -13.1579904556274414
-3.48814988136291504 -1.1120227575302124 -55.9119720458984375
-4.4074406623840332 -0.37388002872467041 -5.28738164901733398
-5.07868051528930664 2.12041783332824707 41.75531005859375
-0.661878883838653564 -5.72052621841430664 -43.0122604370117188
-3.45683598518371582 0.728287160396575928 64.5374679565429688
10.4136743545532227 -5.72486734390258789 -42.3525581359863281
4.36299753189086914 -0.907535135746002197 -31.8282432556152344
-5.76111888885498047 1.75247800350189209 77.2739486694335938
-1.87422394752502441 2.61248564720153809 35.569793701171875
-4.52512454986572266 -0.67501455545425415 -62.9113044738769531
9.45351028442382812 -3.7829129695892334 -40.5852088928222656
2.13860774040222168 -1.96669888496398926 -11.7013072967529297
