ply
format ascii 1.0
element vertex 788
comment vertices
property float x
property float y
property float z
end_header
-3.75487256050109863 5.38644838333129883 53.8431434631347656
-18.728424072265625 80.3491744995117188 -16.0594158172607422
-18.6651535034179688 -5.72356700897216797 -62.3070602416992188
6.29558372497558594 -156.155593872070312 -23.9865093231201172
-10.1660394668579102 -9.39536666870117188 8.83914089202880859
14.5294733047485352 69.8385848999023438 31.6428699493408203
-18.46759033203125 -4.77440404891967773 -68.8303146362304688
0.186438828706741333 75.1502914428710938 1.79129219055175781
7.71885442733764648 -132.635513305664062 -21.8160171508789062
22.7109642028808594 71.7915115356445312 -13.1695137023925781
26.1295890808105469 15.5773715972900391 -89.3365249633789062
16.8861045837402344 -5.1711878776550293 0.275895088911056519
44.1462745666503906 27.585968017578125 -9.10493564605712891
-15.8180456161499023 82.7501144409179688 -10.3658018112182617
28.0940418243408203 31.9428253173828125 85.5103988647460938
-17.4311618804931641 -4.99282455444335938 4.32116174697875977
35.155853271484375 26.1150531768798828 27.0994319915771484
2.99062132835388184 57.1227455139160156 -97.3585052490234375
38.2189559936523438 10.3653841018676758 -33.9347000122070312
-20.1087608337402344 5.30321264266967773 30.7664356231689453
40.9937324523925781 33.8049468994140625 -52.2855491638183594
-7.85116052627563477 35.1819343566894531 138.937789916992188
-19.269134521484375 47.1448822021484375 114.565155029296875
15.4311685562133789 -10.2886924743652344 -7.26348686218261719
11.8714323043823242 -16.633453369140625 -1.80864012241363525
6.03693056106567383 17.9523906707763672 126.053970336914062
-29.2453556060791016 11.4762020111083984 24.9348106384277344
14.5540657043457031 -130.6201171875 -4.34438276290893555
17.1865406036376953 -73.2292098999023438 -17.8951511383056641
-20.9283981323242188 36.8686714172363281 105.562164306640625
-1.74089336395263672 -69.5228195190429688 -31.3283710479736328
-47.3826713562011719 38.145599365234375 -27.2149639129638672
13.8906364440917969 -138.278045654296875 -6.19184541702270508
-15.7842950820922852 80.7034149169921875 -26.2528018951416016
-36.3376274108886719 63.5942153930664062 -25.9572849273681641
-20.8061122894287109 65.02264404296875 30.0252761840820312
42.4293479919433594 43.4112815856933594 -37.1257591247558594
27.5529823303222656 35.8782157897949219 103.0184326171875
24.2057628631591797 25.8394222259521484 94.9307479858398438
-34.0969963073730469 8.46537017822265625 4.94368886947631836
-41.3794174194335938 12.1107730865478516 -9.53451442718505859
16.5529003143310547 -71.2330474853515625 -11.1563100814819336
24.6384696960449219 28.5591716766357422 106.391845703125
-35.1395072937011719 50.9428329467773438 19.1607170104980469
-17.2433280944824219 -6.27383279800415039 -61.2213134765625
-14.721888542175293 -79.723358154296875 -22.3701457977294922
12.4203996658325195 -142.376998901367188 -5.65375852584838867
-16.7682456970214844 13.6060705184936523 -97.6119537353515625
34.680816650390625 43.9208412170410156 -69.648956298828125
-22.8266124725341797 20.1793212890625 -100.357505798339844
-46.7749252319335938 40.9093399047851562 -11.9222545623779297
31.7516727447509766 57.7349815368652344 17.1527805328369141
-12.3666448593139648 -37.1075782775878906 -0.123000450432300568
-9.34849071502685547 73.8385467529296875 14.3112726211547852
38.4502944946289062 31.1669120788574219 -63.7488822937011719
-11.9270715713500977 8.06723213195800781 54.7757606506347656
42.3070259094238281 34.4923210144042969 10.0983572006225586
31.8892898559570312 38.3223075866699219 61.0511665344238281
-36.4021949768066406 27.017486572265625 24.5992832183837891
42.8826484680175781 39.1573371887207031 -0.872398614883422852
-17.5825328826904297 -57.9437026977539062 -18.4339828491210938
10.9505615234375 -131.759048461914062 0.360222488641738892
4.53585147857666016 -177.477371215820312 -21.9440174102783203
15.9948396682739258 -12.914210319519043 -17.0696277618408203
10.0954370498657227 7.2361907958984375 -99.8689727783203125
4.52638483047485352 -198.08795166015625 -9.06224250793457031
-28.1395969390869141 14.1141910552978516 34.1517982482910156
-31.2229862213134766 -2.2490684986114502 -16.2064704895019531
-12.5523099899291992 -114.351387023925781 -15.8371782302856445
10.708256721496582 -85.8737411499023438 4.51496458053588867
-17.6960372924804688 74.8673324584960938 -2.9232175350189209
12.0922651290893555 -25.7000598907470703 -3.08578062057495117
8.76079940795898438 -172.506256103515625 -42.6626777648925781
9.50886726379394531 44.1256484985351562 -102.664634704589844
5.35810041427612305 -82.0873794555664062 8.23316764831542969
-20.8262157440185547 8.47835922241210938 39.0314254760742188
-46.4482231140136719 37.2614593505859375 -38.5547599792480469
4.03384637832641602 83.3488616943359375 -30.5385112762451172
-21.3174266815185547 49.7568130493164062 89.5974349975585938
-44.7861480712890625 44.4046745300292969 -41.3167915344238281
-18.1418037414550781 68.2080154418945312 -67.6340866088867188
2.0216972827911377 -192.605789184570312 -8.814178466796875
19.0973186492919922 -0.792958855628967285 -71.9067230224609375
12.740962028503418 -108.165641784667969 -17.5903511047363281
-45.3335380554199219 19.5372982025146484 -32.0670661926269531
-15.5654125213623047 -49.6959190368652344 -6.53854656219482422
22.4574737548828125 56.9442329406738281 131.28607177734375
22.8718242645263672 60.5172958374023438 58.1139717102050781
11.5140285491943359 -127.935737609863281 0.880707740783691406
-21.8215904235839844 77.5553970336914062 -12.472264289855957
7.38934183120727539 -51.22607421875 -30.8727684020996094
0.266496181488037109 -43.2689285278320312 8.46929073333740234
-14.9313879013061523 6.62360382080078125 44.6801986694335938
25.2699127197265625 62.5189743041992188 30.7597484588623047
-41.6054191589355469 12.5628671646118164 -9.56529521942138672
3.33090496063232422 -45.857086181640625 6.93150234222412109
-16.4262657165527344 -92.141082763671875 -3.69985771179199219
-23.9530181884765625 30.9941577911376953 81.7897262573242188
-13.6761760711669922 -121.090583801269531 -0.847317278385162354
-13.8527965545654297 68.7323455810546875 32.6049652099609375
-25.8687953948974609 47.6579399108886719 66.611053466796875
16.4846553802490234 22.8754844665527344 140.87152099609375
27.4773082733154297 12.5756664276123047 29.6179561614990234
10.1576004028320312 65.8643264770507812 91.7605972290039062
-12.1881685256958008 -21.0886955261230469 -24.0993614196777344
21.4441547393798828 55.1016883850097656 -85.250885009765625
-0.989624559879302979 -203.227981567382812 -22.9780158996582031
2.79446291923522949 -184.729721069335938 -32.9286346435546875
27.0130996704101562 31.6987037658691406 94.8451766967773438
43.4762420654296875 38.039306640625 -37.1999740600585938
-18.262481689453125 72.067230224609375 -54.9851112365722656
17.3498039245605469 -94.9763031005859375 -6.83497905731201172
-38.436126708984375 57.1360206604003906 -5.60796737670898438
-25.2110099792480469 70.3365478515625 -46.429595947265625
-9.41274166107177734 80.2521743774414062 -38.0741386413574219
11.7076473236083984 -28.5412578582763672 -24.5064105987548828
23.7296504974365234 -0.994920313358306885 -0.744017899036407471
-42.6192169189453125 12.2627315521240234 -27.9754199981689453
-7.88805818557739258 3.00251603126525879 40.7231941223144531
39.09747314453125 30.8887157440185547 11.2491369247436523
6.05387163162231445 -2.50223445892333984 -83.8797683715820312
-17.6482715606689453 -68.32659912109375 -14.290557861328125
-14.8542966842651367 61.01995849609375 77.3904037475585938
1.3003157377243042 -47.7013130187988281 -31.3454475402832031
-26.8773269653320312 19.0257720947265625 48.4447364807128906
-35.0237464904785156 39.7918167114257812 31.8712425231933594
26.1611080169677734 20.8886604309082031 62.165863037109375
28.7347755432128906 -2.21213793754577637 -25.6126613616943359
-11.3145103454589844 21.5775070190429688 112.491279602050781
36.8405609130859375 54.7368927001953125 -45.0643386840820312
5.11725950241088867 -155.028915405273438 -3.88274717330932617
37.8164710998535156 31.2821521759033203 -65.8022537231445312
-35.382659912109375 9.93207454681396484 -69.9214553833007812
-16.8271293640136719 -57.0746955871582031 -21.8132801055908203
25.0891513824462891 55.628631591796875 74.825439453125
38.2852096557617188 39.3386421203613281 16.7195186614990234
39.3548660278320312 48.0836715698242188 0.266100049018859863
4.43999195098876953 -51.36212158203125 6.64650869369506836
-8.02801799774169922 -168.915023803710938 -15.6695051193237305
2.3381044864654541 15.6975336074829102 108.41253662109375
14.7098627090454102 58.2203292846679688 139.7757568359375
-1.51744544506072998 79.074554443359375 -44.6803359985351562
14.3073329925537109 20.8515148162841797 132.755706787109375
-27.4278774261474609 6.4761347770690918 17.7398643493652344
-17.597137451171875 -73.279632568359375 -13.0060272216796875
27.1392593383789062 62.1805305480957031 20.9555034637451172
3.3988800048828125 -158.98773193359375 -31.0277767181396484
26.160186767578125 56.77301025390625 -73.398162841796875
-7.88610315322875977 -44.5128135681152344 -29.5704555511474609
-42.4624176025390625 33.3866119384765625 -65.690277099609375
-17.4501533508300781 33.0151519775390625 125.778305053710938
-16.1820907592773438 -54.746978759765625 -23.1358394622802734
-6.95491170883178711 -119.862403869628906 6.7237248420715332
3.35725498199462891 -12.2079381942749023 -46.3572235107421875
-16.5158710479736328 16.2624759674072266 74.299102783203125
28.9925708770751953 29.4441509246826172 71.4589385986328125
23.0701274871826172 68.0687332153320312 -52.8628578186035156
16.3470268249511719 -80.9718704223632812 -6.39122390747070312
3.17995738983154297 -114.001457214355469 8.1183013916015625
-17.076751708984375 -87.921112060546875 -7.00354766845703125
-22.1073169708251953 60.9085197448730469 43.0897331237792969
-14.3312110900878906 -5.64076471328735352 -71.4167938232421875
-15.939910888671875 68.820159912109375 26.9984760284423828
24.2218990325927734 21.4646167755126953 74.9325332641601562
-41.8711700439453125 48.3533897399902344 -2.79640984535217285
-38.1065139770507812 21.3073844909667969 -78.2952728271484375
-1.52076184749603271 65.6355972290039062 103.585517883300781
-50.6271514892578125 32.8858757019042969 -10.7481698989868164
-15.4192638397216797 -30.8952865600585938 -6.50948572158813477
-21.5875434875488281 30.3223648071289062 92.5430908203125
-8.5383148193359375 64.3723297119140625 83.7847671508789062
-13.2043247222900391 72.5283432006835938 -59.8262901306152344
31.5563259124755859 16.3258724212646484 -76.1980514526367188
10.2113971710205078 71.780059814453125 27.9464015960693359
-5.90765237808227539 66.8291702270507812 69.4656448364257812
18.773345947265625 60.4578361511230469 117.134361267089844
-37.8644180297851562 37.3964309692382812 21.1121807098388672
28.7437210083007812 24.1087837219238281 58.30889892578125
42.4706840515136719 18.4625587463378906 -16.6090717315673828
5.49977731704711914 5.84515237808227539 -100.034957885742188
-2.01846790313720703 77.3025054931640625 -49.5108184814453125
-40.056488037109375 50.5764045715332031 -56.2152976989746094
-14.9991359710693359 -36.9092254638671875 -22.0687427520751953
-8.50221824645996094 -11.3732395172119141 -42.0650177001953125
16.954132080078125 42.9201278686523438 -103.40936279296875
8.60239410400390625 18.5121116638183594 130.568252563476562
-35.5253524780273438 38.2725143432617188 30.3252391815185547
14.835484504699707 -28.3344955444335938 -17.5270042419433594
-16.2568874359130859 38.65191650390625 139.005584716796875
8.87159442901611328 -169.903549194335938 -10.5268211364746094
0.884567141532897949 -10.1378068923950195 -56.8419303894042969
8.05674648284912109 -124.8394775390625 4.37562751770019531
38.0847702026367188 55.582183837890625 -36.0051116943359375
2.50380659103393555 -24.2441596984863281 4.7814640998840332
14.4775905609130859 -132.923782348632812 -5.20370721817016602
41.9874191284179688 44.7702827453613281 -38.2582435607910156
14.3556280136108398 -25.7397174835205078 -11.7701854705810547
11.1063508987426758 -191.755111694335938 -16.9626636505126953
8.68123054504394531 76.413177490234375 14.9095602035522461
28.569793701171875 3.44463372230529785 0.192592233419418335
9.34845066070556641 76.8344345092773438 0.602456033229827881
-5.21918582916259766 71.0605087280273438 -69.3362045288085938
-2.06451010704040527 -6.81819581985473633 -73.2972335815429688
-17.2171039581298828 -45.1913223266601562 -15.0088014602661133
22.5662021636962891 -5.7842564582824707 -37.8306961059570312
-17.4013729095458984 -70.337371826171875 -12.001194953918457
29.2612113952636719 57.9797744750976562 -63.5088920593261719
-15.901850700378418 -8.96283626556396484 0.149594604969024658
-29.2612743377685547 59.3518409729003906 -70.9021377563476562
-43.8854751586914062 25.2859268188476562 -56.1582489013671875
13.1106748580932617 65.883056640625 74.521697998046875
-33.3754997253417969 62.2281303405761719 -0.19398052990436554
-37.910552978515625 61.4494552612304688 -26.4802112579345703
-35.9828414916992188 24.8051185607910156 -87.126953125
35.486480712890625 10.6837453842163086 -50.8432273864746094
-9.91227912902832031 -0.957917153835296631 24.3111667633056641
37.8768157958984375 14.4039459228515625 -4.62342309951782227
10.7633199691772461 6.42255258560180664 -97.552734375
-17.4517440795898438 -83.1859207153320312 -10.4002294540405273
23.3506278991699219 27.9792060852050781 121.536102294921875
-1.31308579444885254 -182.309677124023438 -8.04634761810302734
-0.547395169734954834 -25.88641357421875 6.37887907028198242
23.4020977020263672 58.9995765686035156 65.4233779907226562
21.6467704772949219 7.31148338317871094 -86.6957550048828125
41.1199607849121094 39.4946632385253906 -49.5141639709472656
-29.3186931610107422 -3.8855135440826416 -16.332611083984375
0.375173985958099365 -210.572769165039062 -21.8800849914550781
-44.0637016296386719 18.3056259155273438 -42.8964118957519531
20.0344314575195312 75.3784408569335938 -4.49709653854370117
26.8681144714355469 16.0812301635742188 42.8180389404296875
-30.3224620819091797 14.529047966003418 28.1764450073242188
-3.25256776809692383 -84.791473388671875 -27.1844902038574219
-0.207938119769096375 86.7435531616210938 -11.7576208114624023
-39.5217781066894531 17.9156723022460938 -68.68743896484375
-17.3906974792480469 -50.7175407409667969 -17.7780914306640625
-1.75264465808868408 -3.78870749473571777 -83.2430572509765625
13.5538969039916992 -19.2696285247802734 -20.6418418884277344
-5.61894321441650391 11.1355676651000977 76.5295333862304688
-15.3237133026123047 -48.7193832397460938 -5.88565158843994141
13.4732160568237305 -2.39386081695556641 -76.2216720581054688
1.11856794357299805 65.990631103515625 122.628646850585938
-7.61190700531005859 -18.9364757537841797 5.78855752944946289
-13.7368307113647461 74.5147323608398438 1.34983360767364502
33.32769775390625 53.0620155334472656 -61.5055809020996094
22.2837142944335938 27.5475139617919922 135.331344604492188
42.8084983825683594 26.908203125 -8.74907779693603516
-37.518707275390625 60.9951324462890625 -12.0528125762939453
-42.288726806640625 11.4931631088256836 -21.2705841064453125
6.64722394943237305 -183.439041137695312 -36.5873870849609375
-28.4435768127441406 2.44313788414001465 -71.3605575561523438
-11.8071632385253906 -96.1324462890625 5.1224517822265625
25.5485916137695312 30.9815330505371094 110.947311401367188
-28.7169227600097656 -0.968971908092498779 -56.723968505859375
11.5814599990844727 -0.996602952480316162 -82.8964691162109375
0.29159998893737793 67.4700393676757812 77.4162139892578125
13.2393646240234375 64.6744461059570312 130.453872680664062
-21.9698562622070312 56.4445648193359375 61.8760032653808594
-43.4892158508300781 39.7358055114746094 5.39174175262451172
40.5744857788085938 50.2001991271972656 -36.0542793273925781
-13.2431802749633789 12.647150993347168 69.7341384887695312
0.255106419324874878 6.31029129028320312 -101.490341186523438
3.76806759834289551 -185.005035400390625 -42.6943817138671875
-16.9320144653320312 -54.3091354370117188 -11.433751106262207
-34.2376823425292969 66.45989990234375 -20.3992290496826172
1.57044827938079834 -222.721893310546875 -21.8178844451904297
-0.813196659088134766 70.7191314697265625 43.3246498107910156
-17.8017787933349609 33.4695816040039062 -98.2027053833007812
40.7753028869628906 15.2962198257446289 -32.3215408325195312
-44.5484161376953125 45.9143295288085938 -39.5271987915039062
-21.3138542175292969 4.324432373046875 25.4541301727294922
-34.0327415466308594 11.7414913177490234 -78.4225387573242188
14.9244480133056641 -29.5653171539306641 -14.8266077041625977
28.0660057067871094 36.9815139770507812 97.98846435546875
6.02083826065063477 -186.636428833007812 -31.8177490234375
-36.2800407409667969 47.0768203735351562 20.355010986328125
-9.52454566955566406 7.51075553894042969 -101.502067565917969
22.8132896423339844 59.7114715576171875 64.8491592407226562
-31.7271404266357422 65.2125701904296875 -3.96366691589355469
-21.6286888122558594 46.5155029296875 -101.96490478515625
6.01617145538330078 -76.6119537353515625 -29.1636543273925781
10.5242061614990234 -83.9433746337890625 -25.1156387329101562
2.69500541687011719 -44.2424659729003906 5.61553764343261719
29.3788948059082031 33.3867645263671875 77.2223129272460938
4.36429452896118164 80.1823883056640625 -6.0860753059387207
18.19769287109375 23.5688285827636719 136.059432983398438
19.5692424774169922 23.5231971740722656 120.69879150390625
-34.1947212219238281 49.2287101745605469 -78.8337783813476562
-21.3689899444580078 58.0800361633300781 58.2306404113769531
32.4540901184082031 2.20132541656494141 -14.3604469299316406
45.4560623168945312 26.5792465209960938 -23.0091800689697266
14.0697546005249023 0.498005956411361694 -83.6944656372070312
-21.8392677307128906 45.5540275573730469 95.3635635375976562
38.0447807312011719 12.637237548828125 -44.3193359375
12.1175146102905273 40.9886817932128906 -101.607368469238281
30.2389049530029297 2.07158303260803223 -46.8980178833007812
6.59164142608642578 18.4447345733642578 -97.5645675659179688
14.5276126861572266 65.7254486083984375 -73.660552978515625
41.6039237976074219 24.1247825622558594 -6.04315662384033203
-31.2724018096923828 24.0139579772949219 -96.2826614379882812
-15.1795835494995117 -48.0412979125976562 -5.47329616546630859
-9.24049854278564453 -28.2401103973388672 3.28377819061279297
10.4598608016967773 -76.0336685180664062 3.04993200302124023
27.1349201202392578 64.0935440063476562 10.3340139389038086
-25.0704174041748047 64.0587234497070312 19.2812309265136719
30.9788761138916016 34.662933349609375 65.845245361328125
42.9426422119140625 43.3511314392089844 -33.6634941101074219
4.25803709030151367 15.9656248092651367 109.505035400390625
11.006709098815918 -79.0527572631835938 -26.4085407257080078
16.5900287628173828 -99.5929183959960938 -14.066279411315918
20.0304107666015625 -4.82224559783935547 -54.3060455322265625
13.7268733978271484 -9.84353065490722656 -43.9068069458007812
-32.40386962890625 57.346282958984375 16.2642765045166016
12.1729936599731445 65.0895767211914062 130.276397705078125
5.57501554489135742 -12.3921012878417969 -38.1177291870117188
-3.56502747535705566 42.1190338134765625 -99.1313934326171875
26.6103458404541016 24.4087924957275391 72.3756103515625
-40.9975013732910156 56.7446632385253906 -25.8376331329345703
37.5609588623046875 46.9947242736816406 12.1920614242553711
-12.5534744262695312 58.3563423156738281 130.069992065429688
31.4895038604736328 3.71700310707092285 -47.9668312072753906
21.4082965850830078 -5.88819551467895508 -11.1470327377319336
9.82109737396240234 -165.170944213867188 -15.6301288604736328
-14.8615493774414062 11.5765342712402344 62.2758674621582031
-34.4010429382324219 5.11629486083984375 -59.0092964172363281
23.2877483367919922 35.9037628173828125 -98.6387786865234375
-8.30872249603271484 0.1650429368019104 29.6381015777587891
17.0474605560302734 9.77096176147460938 52.6700897216796875
22.4435691833496094 -5.90268421173095703 -37.5529632568359375
-40.0995674133300781 58.1923942565917969 -26.6786003112792969
17.3039417266845703 -90.6017074584960938 -7.38283681869506836
-33.8149757385253906 54.55535888671875 17.1833019256591797
-6.53118181228637695 -107.954246520996094 -20.2395954132080078
5.11113262176513672 12.0023593902587891 -99.0290908813476562
-33.0196456909179688 7.0104680061340332 4.73882770538330078
-21.9885692596435547 45.9005393981933594 93.6954574584960938
-13.3857631683349609 -8.76503753662109375 -55.6671295166015625
-22.8927154541015625 49.6626243591308594 79.110687255859375
45.8813438415527344 31.1482830047607422 -2.11992454528808594
-5.95176076889038086 -86.0338134765625 9.56261253356933594
-26.1795063018798828 1.20444989204406738 -73.4897918701171875
33.6780014038085938 3.52052450180053711 -32.6358261108398438
-6.51395988464355469 -149.091598510742188 -4.86893177032470703
19.3709926605224609 75.12921142578125 -1.90145492553710938
44.3118438720703125 40.2118186950683594 -10.1417207717895508
7.41357135772705078 -3.04230046272277832 19.2266578674316406
40.2576789855957031 47.4661941528320312 -3.68878769874572754
14.5366544723510742 -43.506988525390625 -8.04646015167236328
2.17568755149841309 -139.331985473632812 2.45910525321960449
-20.9986515045166016 55.1955184936523438 72.1985931396484375
3.67107725143432617 -189.187088012695312 -8.55366230010986328
30.0200939178466797 3.92871260643005371 -55.220428466796875
-35.1581802368164062 39.6236534118652344 31.3988513946533203
12.8977165222167969 -24.8986434936523438 -22.2005138397216797
-41.1542320251464844 43.7156982421875 -63.15386962890625
-16.7421741485595703 -43.5441551208496094 -19.2372932434082031
-43.734344482421875 26.8359413146972656 -58.1382255554199219
-30.5015697479248047 12.9275321960449219 24.3984584808349609
16.1096611022949219 63.1469764709472656 90.5143890380859375
35.1075782775878906 12.1826076507568359 -57.8704261779785156
42.3468360900878906 48.4443588256835938 -17.1396541595458984
-18.2253665924072266 53.8354034423828125 -95.790679931640625
-10.2082223892211914 -0.0204551350325345993 27.449066162109375
-15.2452611923217773 69.0470199584960938 -68.5545806884765625
16.3580398559570312 -11.6400308609008789 -22.3169803619384766
21.7778186798095703 73.764434814453125 -32.1027717590332031
-0.82709270715713501 -22.2591571807861328 7.17014789581298828
15.4040441513061523 -13.8170633316040039 -19.7242336273193359
23.3696727752685547 70.1590576171875 -6.99526071548461914
36.0117340087890625 13.9568424224853516 1.83603405952453613
16.5402755737304688 10.3142414093017578 -97.7248001098632812
15.8151483535766602 16.48699951171875 88.6248245239257812
-13.8941135406494141 -132.999740600585938 -8.97557258605957031
-3.83853411674499512 -34.2315711975097656 -29.08697509765625
-44.9243278503417969 24.5879325866699219 -7.42309331893920898
16.8293704986572266 65.7555694580078125 54.8729324340820312
11.9285411834716797 83.2255172729492188 -20.1630859375
-20.0123023986816406 -3.52312827110290527 -70.7138595581054688
0.765778005123138428 -212.376708984375 -15.168522834777832
18.9970951080322266 6.21764516830444336 33.7421875
-20.7806949615478516 33.2143363952636719 -97.769744873046875
15.4582271575927734 79.2771759033203125 -29.5435924530029297
-29.5370864868164062 64.7996139526367188 -54.9798240661621094
-29.0343894958496094 27.4459877014160156 54.1280746459960938
34.0321197509765625 18.2979679107666016 18.5261402130126953
18.3760719299316406 0.894248843193054199 16.4823017120361328
19.7896327972412109 21.1918926239013672 98.5823287963867188
30.7376556396484375 0.386514931917190552 -33.3759193420410156
14.8511085510253906 61.93695068359375 -81.859527587890625
14.7003679275512695 -69.1030349731445312 -5.63637924194335938
19.2674598693847656 41.5557823181152344 142.046951293945312
-27.407806396484375 43.85791015625 -97.6777725219726562
-40.7820587158203125 48.8727760314941406 0.776944816112518311
-7.81674575805664062 13.6603431701660156 -97.4267425537109375
-7.09888887405395508 63.5409355163574219 105.395050048828125
30.2179164886474609 40.5088424682617188 76.2854843139648438
29.4657688140869141 67.2436141967773438 -12.2253541946411133
4.94248056411743164 -12.0676679611206055 -40.9245758056640625
-18.4500980377197266 -4.23079633712768555 -70.9694290161132812
-36.6638221740722656 12.9518661499023438 6.17410850524902344
-15.0183010101318359 -124.159187316894531 -6.98045825958251953
25.4667892456054688 52.8349418640136719 93.620208740234375
16.8601093292236328 -62.273040771484375 -18.9423370361328125
12.9886932373046875 -43.6120071411132812 -4.33583211898803711
20.6678390502929688 -8.20289516448974609 -22.140594482421875
2.68650150299072266 -129.00787353515625 5.47719526290893555
-15.3605232238769531 27.5902252197265625 120.409248352050781
-29.1589126586914062 5.31323385238647461 -77.9469146728515625
-2.61747646331787109 75.069488525390625 10.8822402954101562
-19.7975883483886719 -2.02901983261108398 -76.1166000366210938
22.7529544830322266 56.9357490539550781 94.9226760864257812
18.5135231018066406 66.17010498046875 -67.0605545043945312
4.63111352920532227 -49.6111831665039062 4.61064004898071289
-19.1166648864746094 34.0452537536621094 -97.9433822631835938
-27.9834709167480469 70.2677993774414062 -10.2363290786743164
-21.7720012664794922 50.0370864868164062 -98.1844940185546875
6.10713434219360352 67.5200881958007812 76.8149871826171875
-21.7322196960449219 75.266143798828125 -7.40831708908081055
-51.00360107421875 34.8914909362792969 -16.8011398315429688
-10.9393558502197266 44.0139350891113281 139.211395263671875
-9.72011375427246094 -144.766860961914062 -8.78346061706542969
8.72023200988769531 -11.5472335815429688 -41.6421089172363281
-23.4950485229492188 13.1314058303833008 -99.3747787475585938
7.11716461181640625 -42.5913734436035156 -29.6670780181884766
-11.1211252212524414 36.610687255859375 138.1729736328125
12.9516725540161133 64.483062744140625 100.950454711914062
32.732879638671875 4.78354167938232422 -46.0133743286132812
13.5366764068603516 -9.88953495025634766 -45.761474609375
22.9777202606201172 -3.1987762451171875 -52.4819412231445312
0.450810819864273071 -181.811233520507812 -24.0506687164306641
-3.42652320861816406 8.25316715240478516 66.4603195190429688
14.9215917587280273 21.3587360382080078 134.97296142578125
3.66214275360107422 -48.967041015625 -31.3036308288574219
7.76860618591308594 -171.386138916015625 -19.2311630249023438
-44.2409515380859375 15.7092494964599609 -20.4899177551269531
-42.0237998962402344 16.0692291259765625 -52.4039306640625
-29.8222160339355469 -1.67765963077545166 -47.0704307556152344
28.2483901977539062 29.9759140014648438 78.6412124633789062
26.6241092681884766 -2.26840591430664062 -11.2683181762695312
-16.8544521331787109 33.8690757751464844 133.71502685546875
-8.93842220306396484 65.3922500610351562 71.917694091796875
5.0421595573425293 17.0384025573730469 117.506233215332031
-10.2935962677001953 54.7181129455566406 139.279159545898438
12.2790365219116211 -35.8256607055664062 -3.31558728218078613
15.5883398056030273 53.847259521484375 -94.025390625
3.97813940048217773 68.0760879516601562 71.7594985961914062
-17.7253265380859375 -8.15185165405273438 -50.4861183166503906
-17.9411430358886719 59.232879638671875 -89.18756103515625
10.0583667755126953 -35.9720611572265625 -0.536613523960113525
9.99290847778320312 67.6562118530273438 66.1616287231445312
-14.2587747573852539 -48.1997108459472656 -25.6066532135009766
48.79852294921875 35.8886642456054688 -31.4656219482421875
-8.38405895233154297 -157.890869140625 -10.9374809265136719
27.0515651702880859 35.4869003295898438 111.232711791992188
-12.6696252822875977 -13.3811244964599609 2.53505206108093262
21.3783206939697266 35.8712043762207031 141.90655517578125
-12.0555171966552734 7.82544708251953125 53.6206893920898438
-7.10153579711914062 -38.4528541564941406 -28.9219322204589844
40.0700607299804688 25.3934669494628906 -55.1152458190917969
16.6241302490234375 80.28033447265625 -22.2700710296630859
-20.6226882934570312 27.9159526824951172 92.45404052734375
20.2116203308105469 24.5043926239013672 125.706588745117188
1.72839093208312988 36.9547767639160156 140.710769653320312
24.1502094268798828 48.0735244750976562 -90.4340591430664062
9.12360477447509766 -152.691482543945312 -7.14867687225341797
6.77065706253051758 -124.331214904785156 -20.5480537414550781
-18.2283515930175781 53.4262275695800781 99.2315521240234375
-44.2626419067382812 22.4204692840576172 -50.4705886840820312
31.3487758636474609 50.6709251403808594 -71.0172958374023438
15.7112998962402344 6.54438018798828125 42.561370849609375
-12.4348220825195312 -0.425836235284805298 -88.3676223754882812
10.7620306015014648 15.4178247451782227 97.255706787109375
37.5089874267578125 48.732452392578125 -54.1768760681152344
8.86267566680908203 74.502471923828125 -53.6787300109863281
32.753936767578125 1.64335978031158447 -16.7580337524414062
10.8158397674560547 -118.4920654296875 3.60113620758056641
7.32131338119506836 -3.33463549613952637 -80.2456588745117188
37.2568855285644531 37.1977043151855469 22.9330883026123047
38.1663818359375 49.0869903564453125 -50.752044677734375
9.18795680999755859 -215.443191528320312 -20.0962657928466797
-23.504913330078125 34.0081024169921875 -98.8656158447265625
-7.09917736053466797 5.53885841369628906 51.4944229125976562
19.7359676361083984 11.4163694381713867 51.7491569519042969
36.8242721557617188 58.2895889282226562 -13.0362510681152344
-8.34975814819335938 -0.724049508571624756 26.7357158660888672
27.1029891967773438 65.874298095703125 0.612572610378265381
41.736419677734375 49.3655929565429688 -29.7490463256835938
25.2247562408447266 29.9114246368408203 108.222572326660156
33.0283279418945312 19.1831111907958984 24.6881313323974609
-5.74257373809814453 21.9232425689697266 137.712234497070312
-4.98020792007446289 40.8520622253417969 -99.0790481567382812
-20.7380046844482422 7.53500556945800781 36.6472511291503906
-8.73892307281494141 63.8103981018066406 -86.75830078125
4.54201316833496094 17.5282611846923828 122.469711303710938
-36.2703628540039062 23.5178756713867188 22.0392532348632812
-3.05180907249450684 6.56799411773681641 59.3656806945800781
-0.227153539657592773 -2.89421963691711426 23.8309307098388672
-40.862701416015625 13.3166131973266602 -52.409210205078125
-19.6394710540771484 -10.5958223342895508 -14.5372152328491211
-45.0573501586914062 45.9286003112792969 -34.2949256896972656
-22.8169784545898438 -5.56189918518066406 -6.29087686538696289
24.9597587585449219 -4.88742685317993164 -30.0025691986083984
-33.818511962890625 5.70582485198974609 -0.332200050354003906
-41.6033439636230469 21.3550205230712891 -64.0019149780273438
-19.3330364227294922 2.07014250755310059 22.2525978088378906
-16.0963344573974609 58.2641754150390625 87.338226318359375
22.6873607635498047 62.1505355834960938 47.3709983825683594
-11.2293624877929688 61.3178482055664062 99.0133209228515625
-36.5355033874511719 15.8112411499023438 -77.031646728515625
-11.4542980194091797 56.9277076721191406 -96.60052490234375
-3.22334718704223633 -46.1992454528808594 9.65730667114257812
-9.79079914093017578 61.1864242553710938 127.228309631347656
17.1518287658691406 64.1036758422851562 67.8539962768554688
1.05203485488891602 -127.078056335449219 -21.9147911071777344
-34.5895614624023438 42.7261085510253906 -86.0164566040039062
19.0330295562744141 0.842245697975158691 15.0234842300415039
23.9469985961914062 11.7702569961547852 39.3967704772949219
33.2510223388671875 12.6089000701904297 9.05079460144042969
-4.41213607788085938 5.74586009979248047 54.6456260681152344
-23.5081386566162109 63.0755615234375 -73.3564834594726562
-41.9917106628417969 43.0122451782226562 -60.3025245666503906
25.1323738098144531 53.0032005310058594 98.9988555908203125
25.353118896484375 20.3845729827880859 64.4893798828125
-19.3124141693115234 10.9253330230712891 49.8687515258789062
7.11864185333251953 -114.186004638671875 -19.9538516998291016
13.0776424407958984 66.74615478515625 64.316070556640625
-11.8299636840820312 57.9691963195800781 -95.022491455078125
-5.40977621078491211 64.0093460083007812 119.886054992675781
20.6117000579833984 66.0968475341796875 33.6352119445800781
15.9851713180541992 60.5164604187011719 -83.4047012329101562
30.5118408203125 45.2267303466796875 67.9063796997070312
-14.6552791595458984 -100.850021362304688 -15.1514196395874023
-2.81218862533569336 -94.5812911987304688 -23.9372291564941406
-14.828557014465332 3.92271828651428223 35.6429901123046875
23.1968307495117188 57.0940093994140625 85.0826263427734375
-31.5010719299316406 12.2971057891845703 -86.4998855590820312
-14.3308897018432617 56.7233695983886719 119.490669250488281
-3.34009027481079102 83.7055740356445312 -30.1978836059570312
-27.4052371978759766 57.1888542175292969 -79.7399368286132812
-36.7314033508300781 18.1596755981445312 -79.62066650390625
12.1993074417114258 17.6286945343017578 109.073699951171875
6.69442558288574219 69.3314895629882812 -71.7035903930664062
2.36342024803161621 22.1713542938232422 -98.2954864501953125
31.3574943542480469 35.5449066162109375 -84.1501998901367188
-27.6160373687744141 30.4018669128417969 63.6433486938476562
6.45865201950073242 4.25493097305297852 -96.02655029296875
-4.51209783554077148 -196.854812622070312 -13.6805667877197266
-17.15350341796875 -10.6134700775146484 -28.7775993347167969
28.2272396087646484 52.8566246032714844 59.8927116394042969
32.3442420959472656 19.7977275848388672 29.2037677764892578
-21.1585769653320312 -8.60613822937011719 -30.7002544403076172
-22.2521686553955078 70.5142593383789062 3.41059589385986328
16.0794200897216797 24.8453235626220703 143.056289672851562
-9.21431732177734375 11.7790689468383789 74.0698623657226562
-7.55182695388793945 -82.8126907348632812 8.14259910583496094
8.63350963592529297 -10.0807485580444336 -58.2084274291992188
19.8012981414794922 50.9824371337890625 -93.051910400390625
6.73466777801513672 -207.41015625 -10.1559343338012695
19.9627857208251953 66.3980026245117188 34.7139968872070312
8.61454200744628906 -170.924224853515625 -42.0430374145507812
-33.3942108154296875 -0.173954293131828308 -16.6629619598388672
26.6342048645019531 55.6097030639648438 -74.3642807006835938
27.7993354797363281 33.8515205383300781 -92.3341445922851562
-27.6485576629638672 24.2967433929443359 55.448028564453125
22.9631996154785156 28.5331192016601562 135.933334350585938
-11.3473882675170898 4.34614706039428711 -99.1744461059570312
-17.540191650390625 -54.5427742004394531 -15.6907243728637695
-3.5003814697265625 -16.5254383087158203 -30.3242645263671875
46.2088279724121094 37.6849632263183594 -3.88380265235900879
27.0492782592773438 25.6852931976318359 73.8351669311523438
0.0373251922428607941 66.581695556640625 -81.41656494140625
27.4522132873535156 38.9057044982910156 117.951065063476562
26.1960182189941406 62.1633758544921875 -61.8055801391601562
17.9040641784667969 62.3195343017578125 -77.0154037475585938
33.7454071044921875 32.4292716979980469 -78.5186004638671875
-3.05836892127990723 77.5228958129882812 -48.7359733581542969
0.350576549768447876 4.75882863998413086 52.7794265747070312
-40.9805946350097656 25.4912185668945312 7.37622308731079102
9.61002445220947266 65.812408447265625 130.370681762695312
17.6530723571777344 1.04995119571685791 18.4572181701660156
22.1025066375732422 56.0004234313964844 -82.6403274536132812
-9.56133937835693359 39.0704994201660156 -98.8812255859375
-38.4786338806152344 18.5682621002197266 -73.8642196655273438
-13.4629087448120117 24.1934432983398438 115.447410583496094
21.247161865234375 18.8922271728515625 78.6684951782226562
10.7720060348510742 65.5369415283203125 130.98291015625
23.3978042602539062 61.475921630859375 47.5875816345214844
33.5402679443359375 34.4264335632324219 46.7831001281738281
-2.43936705589294434 -117.1898193359375 -20.4679489135742188
-7.97690153121948242 -75.4806976318359375 -28.8333530426025391
-10.7377967834472656 -92.0975494384765625 -21.9660396575927734
-2.77881550788879395 11.4458141326904297 81.4720077514648438
4.68911981582641602 -27.0276947021484375 3.51142382621765137
45.6742706298828125 40.4968948364257812 -22.3304100036621094
-14.3744297027587891 2.75296878814697266 32.1767578125
-22.3441944122314453 33.192535400390625 92.9203948974609375
-7.92649126052856445 -150.17742919921875 -6.71564531326293945
32.4176597595214844 25.6793556213378906 41.2151260375976562
-5.8924407958984375 63.7721939086914062 120.76055908203125
-25.9360523223876953 51.3070564270019531 57.258270263671875
24.0520095825195312 62.7689743041992188 36.5142021179199219
-23.0033550262451172 65.4581069946289062 20.6101512908935547
34.1232948303222656 15.8356542587280273 -68.2056121826171875
8.84806156158447266 15.7369623184204102 103.662330627441406
-2.42977571487426758 -78.3043060302734375 11.228541374206543
29.3709774017333984 1.93577980995178223 -50.3051528930664062
0.595867455005645752 -33.1282196044921875 4.38386678695678711
23.8961086273193359 -6.30384111404418945 -19.1965084075927734
-8.51513767242431641 -62.1620407104492188 -30.5755538940429688
17.4411678314208984 20.5457973480224609 108.098983764648438
-45.2848854064941406 27.3387317657470703 -5.49118471145629883
-14.842656135559082 -20.7841053009033203 -5.23166227340698242
26.0843448638916016 17.3993244171142578 50.3783721923828125
-34.3529586791992188 45.1988677978515625 30.3691825866699219
-4.95105695724487305 50.8255538940429688 139.847915649414062
22.01763916015625 68.0534286499023438 11.9954156875610352
-4.77663469314575195 77.4000091552734375 -48.8166656494140625
1.29726529121398926 -193.912689208984375 -8.73773860931396484
33.5596199035644531 39.4282608032226562 -76.46527099609375
22.4305534362792969 51.8777694702148438 142.066650390625
-22.2444019317626953 27.8488426208496094 84.6827926635742188
7.96394586563110352 65.8931350708007812 113.178199768066406
-10.084320068359375 20.1188011169433594 109.121070861816406
-0.17369292676448822 81.8634796142578125 -6.6451420783996582
-4.03607940673828125 -134.879287719726562 -23.1969947814941406
-12.7152814865112305 83.2341995239257812 -20.1762294769287109
8.19219875335693359 65.8398590087890625 108.871559143066406
15.3535976409912109 -75.1611557006835938 -5.48085117340087891
8.46685409545898438 62.4104385375976562 -86.948944091796875
45.6322822570800781 28.5040740966796875 -7.47246837615966797
-27.8829917907714844 63.9515266418457031 -62.1513900756835938
6.36855697631835938 -158.972442626953125 -33.3534164428710938
40.1917800903320312 42.0804328918457031 4.14909934997558594
8.202667236328125 81.1949005126953125 -1.29229390621185303
-22.4113349914550781 49.4974594116210938 82.5622177124023438
-15.8758735656738281 12.5669221878051758 -98.349884033203125
22.978668212890625 1.62803411483764648 9.04396629333496094
30.2340621948242188 60.3939895629882812 12.6692304611206055
-3.41483283042907715 8.65506267547607422 68.0111541748046875
-43.1123390197753906 53.2117424011230469 -15.4791507720947266
-17.430999755859375 55.8961334228515625 92.3771591186523438
4.52275991439819336 -113.564765930175781 -20.5834102630615234
-36.500885009765625 18.2662544250488281 14.9939947128295898
1.89705157279968262 -213.359939575195312 -22.8150844573974609
0.794386506080627441 -191.674896240234375 -28.3633670806884766
26.9662361145019531 30.1955642700195312 90.0705337524414062
11.704075813293457 79.5780715942382812 -35.2497367858886719
44.422882080078125 40.3617057800292969 -12.1675529479980469
-15.7999935150146484 -32.7537841796875 -7.82658290863037109
13.2361774444580078 -5.5620722770690918 6.71659994125366211
-0.383520364761352539 8.07563209533691406 67.3462142944335938
-7.10514926910400391 -21.7243804931640625 -27.5213222503662109
-14.9419841766357422 -0.567345261573791504 20.1851329803466797
2.72292566299438477 82.2667388916015625 -34.9517097473144531
-0.520446598529815674 30.0760421752929688 140.680984497070312
-35.1793899536132812 54.8660011291503906 -65.283172607421875
34.5867042541503906 22.9394111633300781 24.8624782562255859
33.3835258483886719 52.9075584411621094 -61.6195716857910156
-32.4594535827636719 48.5140800476074219 -84.3624801635742188
14.651667594909668 -36.8982772827148438 -9.38665676116943359
9.23834323883056641 -208.299163818359375 -12.0864229202270508
2.17911911010742188 66.0107803344726562 -82.2699508666992188
29.0437850952148438 -2.10580801963806152 -17.1689052581787109
-35.3902854919433594 5.93446969985961914 -57.5076751708984375
38.9916038513183594 33.9056968688964844 -61.143829345703125
-22.6704006195068359 3.26714420318603516 19.5319023132324219
14.3975534439086914 -70.1678695678710938 -4.6522831916809082
2.57027459144592285 -167.78839111328125 -5.59894466400146484
-9.00221347808837891 -22.6030960083007812 4.03468465805053711
-21.9589176177978516 52.0819816589355469 77.8432083129882812
-16.5440940856933594 -106.01068115234375 -7.55574893951416016
-40.7650413513183594 9.06319236755371094 -31.1189002990722656
-38.8388099670410156 38.6617393493652344 17.378509521484375
30.1493244171142578 48.4191207885742188 60.6385879516601562
19.4685783386230469 64.0353469848632812 53.6242408752441406
28.8651084899902344 17.1020126342773438 37.5442428588867188
-21.5285968780517578 32.9105453491210938 -97.7891921997070312
-3.18592047691345215 75.9841995239257812 -53.3720970153808594
-15.1436538696289062 40.7401618957519531 -98.414825439453125
21.6366443634033203 73.4662857055664062 -34.4349861145019531
-43.0183830261230469 33.1395835876464844 -63.093841552734375
-35.8035049438476562 9.41248989105224609 -66.7595367431640625
15.7423248291015625 19.3547210693359375 107.928298950195312
-46.9176101684570312 36.3715705871582031 -33.7089309692382812
-35.1369247436523438 5.38314008712768555 -56.6101036071777344
-13.8538732528686523 50.318756103515625 138.731170654296875
24.1229286193847656 54.4203834533691406 103.506729125976562
27.1574478149414062 34.541259765625 104.645164489746094
-11.5090770721435547 -4.98941373825073242 -75.801422119140625
9.94252204895019531 -162.233383178710938 -15.6769371032714844
-14.7220888137817383 52.1822586059570312 -101.586753845214844
-2.20395827293395996 -155.4090576171875 -21.8160305023193359
32.4669990539550781 2.22593879699707031 -14.3307361602783203
-22.3071308135986328 46.1739082336425781 -101.73431396484375
3.03217744827270508 -199.394561767578125 -9.44376277923583984
11.5360507965087891 -59.6654167175292969 -28.9779529571533203
-42.0290641784667969 11.9798784255981445 -36.1014823913574219
10.8478298187255859 42.2869377136230469 -99.5428924560546875
-15.7388124465942383 56.9938888549804688 98.9186325073242188
27.5852127075195312 42.4708290100097656 115.737258911132812
8.98976230621337891 -143.327178955078125 -2.24260950088500977
-13.3670263290405273 13.4770698547363281 72.4668350219726562
11.6132345199584961 51.4198417663574219 -99.61370849609375
9.46320152282714844 4.61931610107421875 -94.9774246215820312
22.8533725738525391 58.9251518249511719 -75.9144668579101562
4.46396350860595703 -76.42584228515625 7.64504432678222656
33.5301895141601562 54.8495864868164062 17.3108692169189453
-23.5600624084472656 -2.96702122688293457 -0.496973693370819092
5.91968536376953125 -128.290374755859375 4.67962074279785156
-9.03786087036132812 4.23238992691040039 44.2818527221679688
28.1158504486083984 32.8997039794921875 87.7108535766601562
15.6454601287841797 -116.459091186523438 -13.6768302917480469
-49.8974800109863281 36.6946830749511719 -6.3472752571105957
4.16644525527954102 68.0420303344726562 -76.4498367309570312
-13.7413692474365234 41.49627685546875 -98.5228652954101562
-7.13310861587524414 14.1283512115478516 87.9543228149414062
6.07682657241821289 -154.791549682617188 -29.0744800567626953
-9.74363136291503906 75.9911117553710938 -50.4552650451660156
29.5164337158203125 64.8183517456054688 -1.36968445777893066
3.4806976318359375 -169.304290771484375 -33.1527290344238281
-10.9717512130737305 -36.4832344055175781 -26.6782360076904297
-1.90722537040710449 -186.526077270507812 -8.97084712982177734
-33.8289604187011719 0.164459362626075745 -23.5685043334960938
-15.2313976287841797 -29.6181144714355469 -19.8569698333740234
3.4181358814239502 -20.4733371734619141 5.40514755249023438
12.8817462921142578 -10.1617431640625 -44.09906005859375
9.74377632141113281 -30.6311988830566406 -26.5264930725097656
-18.7568225860595703 40.2581787109375 128.349456787109375
27.0129871368408203 46.5682144165039062 132.850555419921875
12.191462516784668 83.029449462890625 -20.5741310119628906
-28.5810699462890625 66.5851974487304688 -0.340719223022460938
-7.57658243179321289 61.9057846069335938 -90.90277099609375
6.47485208511352539 -147.117111206054688 -21.2060794830322266
-27.2909126281738281 52.5086097717285156 -88.352294921875
14.8555784225463867 -32.6938362121582031 -11.7887172698974609
39.0685539245605469 10.0431480407714844 -22.0307369232177734
-21.9046382904052734 56.446136474609375 -89.66796875
-12.694890022277832 16.0326519012451172 84.0158157348632812
21.2880859375 25.7624702453613281 127.272064208984375
-46.8913078308105469 35.0236320495605469 4.61205101013183594
31.0271625518798828 37.1234817504882812 67.727325439453125
-2.78677916526794434 65.0533065795898438 123.062347412109375
37.0613632202148438 7.42464303970336914 -16.0104866027832031
-7.06240749359130859 -176.87408447265625 -12.0815095901489258
9.75440883636474609 -41.1131744384765625 -28.2507095336914062
-15.5890188217163086 -86.40655517578125 -1.88431251049041748
-6.7350773811340332 66.3058395385742188 71.8752593994140625
8.84037494659423828 -3.12801837921142578 17.7110977172851562
-44.0506782531738281 23.8247432708740234 -4.85145998001098633
2.71604299545288086 66.2342758178710938 125.593521118164062
37.7844047546386719 12.764373779296875 -7.32908868789672852
7.41838836669921875 18.5774040222167969 133.455810546875
25.3776187896728516 -5.24518728256225586 -20.2107334136962891
7.75331830978393555 -10.0761690139770508 -56.4797859191894531
18.4535350799560547 39.9253807067871094 -103.950927734375
37.5946922302246094 25.1239185333251953 13.8903799057006836
7.45907974243164062 -170.011825561523438 -30.5861759185791016
23.1870594024658203 21.0128154754638672 78.5897598266601562
36.060028076171875 58.9120063781738281 -10.8797121047973633
7.45851802825927734 75.822845458984375 16.9246807098388672
-33.1479835510253906 -0.441034197807312012 -25.5914249420166016
9.02415084838867188 69.0813522338867188 53.19879150390625
-21.1389827728271484 40.3862953186035156 105.481803894042969
19.4033241271972656 23.9138050079345703 127.475341796875
-38.2457771301269531 19.8535118103027344 -76.1663894653320312
-26.2891483306884766 61.2007980346679688 -72.8229141235351562
28.0279045104980469 26.5970878601074219 70.2913131713867188
32.7198982238769531 64.8309249877929688 -17.5443611145019531
5.18531465530395508 16.4054908752441406 -97.3182525634765625
-29.7694454193115234 60.53228759765625 15.7183742523193359
29.6489067077636719 68.1573715209960938 -17.9738426208496094
9.70981216430664062 -182.443023681640625 -42.2793655395507812
2.63317131996154785 -105.831352233886719 9.14455795288085938
-32.0847358703613281 47.5182228088378906 37.215240478515625
-5.59237003326416016 -181.422134399414062 -20.5753707885742188
2.70892524719238281 -98.1810226440429688 9.93736362457275391
-8.0746002197265625 2.81450986862182617 -97.4555206298828125
-17.0373287200927734 -87.7954025268554688 -13.4770526885986328
-14.1107635498046875 -107.193534851074219 1.44853401184082031
34.8212051391601562 48.1509895324707031 -64.4369277954101562
-39.3835792541503906 8.55859375 -44.1471748352050781
16.5774822235107422 62.2569465637207031 137.640304565429688
16.277984619140625 71.8111648559570312 13.1255350112915039
-17.4249973297119141 -83.0159149169921875 -13.0983943939208984
3.85369539260864258 71.8315887451171875 34.8871421813964844
-37.4506187438964844 5.92111539840698242 -45.0925788879394531
-7.5625 -28.6582889556884766 4.18456554412841797
30.1637783050537109 6.44860363006591797 -62.3108329772949219
-18.5511131286621094 33.0802879333496094 117.237396240234375
