ply
format ascii 1.0
element vertex 785
comment vertices
property float x
property float y
property float z
end_header
-5.69129133224487305 -92.3394622802734375 -16.0414276123046875
2.06572890281677246 -127.322311401367188 9.24086952209472656
32.6492042541503906 19.9322280883789062 -50.93145751953125
-23.9211711883544922 6.59638118743896484 -15.2200794219970703
-8.46792030334472656 -19.6204967498779297 -14.2040061950683594
-31.8362903594970703 51.2394905090332031 10.3261890411376953
5.11009931564331055 69.6101303100585938 44.5048332214355469
1.30323517322540283 9.41446685791015625 55.2400665283203125
9.13781833648681641 33.9378662109375 51.8473625183105469
-18.0771350860595703 2.37583065032958984 45.9287300109863281
-15.4625768661499023 66.6263198852539062 -37.2161102294921875
-10.9942417144775391 -164.463211059570312 1.6220710277557373
-11.9140415191650391 -107.510124206542969 15.0249719619750977
-24.9794979095458984 59.7744064331054688 -45.3195266723632812
-12.8217649459838867 -71.0704345703125 -12.8312835693359375
36.9871635437011719 19.0681629180908203 18.1948051452636719
-16.1106624603271484 -81.6089096069335938 -10.124058723449707
-15.2860851287841797 -124.208671569824219 5.63599729537963867
-35.946319580078125 29.9242019653320312 20.1692256927490234
33.9235191345214844 31.2477436065673828 -54.4512748718261719
7.35963869094848633 -49.1908988952636719 14.4089250564575195
-4.31992149353027344 -124.877471923828125 12.6350412368774414
-18.0303707122802734 -119.120216369628906 -6.10003042221069336
15.3838624954223633 -41.2652053833007812 2.4211428165435791
-35.8857841491699219 38.6366081237792969 15.5564231872558594
8.21904850006103516 19.2069988250732422 -52.8064002990722656
30.0271701812744141 12.8741540908813477 -40.4334678649902344
4.76511812210083008 -2.73015666007995605 -27.8626174926757812
17.9264469146728516 66.8792037963867188 16.8929214477539062
10.1895866394042969 -1.54757046699523926 -33.0886878967285156
-5.99906730651855469 69.5722732543945312 22.6508979797363281
10.6944370269775391 -6.7501220703125 7.98697376251220703
12.1923847198486328 -0.955620884895324707 -31.3872146606445312
6.08364152908325195 69.8246612548828125 29.3074493408203125
28.2072010040283203 60.2066993713378906 30.4592380523681641
-9.33076286315917969 -1.39878809452056885 -21.4875144958496094
-32.0882453918457031 49.8150672912597656 -43.1685562133789062
-0.548159360885620117 13.6872920989990234 -52.6428642272949219
-16.7719078063964844 -74.0745925903320312 -8.91906929016113281
-19.8778324127197266 -79.4405136108398438 1.48143041133880615
33.7833786010742188 47.5321083068847656 -42.6634979248046875
-28.6919593811035156 21.7892627716064453 -57.298095703125
-11.8415966033935547 68.395355224609375 -9.7254791259765625
17.1449680328369141 66.9847564697265625 -10.8574924468994141
-9.05704498291015625 -3.61055970191955566 -9.62743282318115234
16.0381927490234375 59.3399009704589844 56.3999290466308594
2.50375604629516602 -3.26197004318237305 -16.6577968597412109
22.5800018310546875 63.5370864868164062 -16.4058265686035156
-1.49942255020141602 -3.05058622360229492 28.3609695434570312
-20.662078857421875 -113.875991821289062 -0.482242584228515625
13.6909160614013672 -3.86232542991638184 2.13374567031860352
-2.74454140663146973 -155.254379272460938 6.76642990112304688
16.1864604949951172 -22.5285186767578125 2.35414290428161621
-23.8411598205566406 61.2095527648925781 -5.97275018692016602
-15.0491504669189453 0.253801703453063965 5.78889656066894531
-19.3080558776855469 -60.4395675659179688 0.842985272407531738
-33.9959602355957031 22.4907150268554688 43.1881980895996094
-34.0556068420410156 26.9857387542724609 52.8498802185058594
33.9128799438476562 54.0782394409179688 48.0920333862304688
-29.7296638488769531 45.7688484191894531 56.7709732055664062
-13.1827392578125 -90.9756851196289062 12.8925695419311523
-17.6808280944824219 -83.0940704345703125 -7.93927717208862305
-28.1944541931152344 25.7969322204589844 -56.81353759765625
-0.209949061274528503 70.2634201049804688 21.3396205902099609
15.6931667327880859 12.6090755462646484 -55.1201744079589844
-7.69370937347412109 -80.3802871704101562 -15.4958953857421875
39.4039115905761719 42.2443771362304688 43.8128471374511719
-7.72221660614013672 -101.621475219726562 -15.7137622833251953
31.4403171539306641 8.88388919830322266 41.1003036499023438
-34.7547416687011719 28.9185829162597656 51.2407798767089844
-13.4972105026245117 -102.788703918457031 -13.0612421035766602
29.4969806671142578 44.0343399047851562 -57.3089218139648438
-14.4003705978393555 -111.505516052246094 13.4152002334594727
-35.7459869384765625 40.3158226013183594 10.4049444198608398
32.5969009399414062 51.3125381469726562 -33.0570297241210938
1.96804952621459961 -3.0115821361541748 -25.843048095703125
19.0463886260986328 56.7819862365722656 56.3594589233398438
14.3809394836425781 -51.0765953063964844 5.63040351867675781
-27.4439468383789062 56.4390525817871094 38.1983871459960938
-24.8914279937744141 41.1320571899414062 -55.153106689453125
-23.2526378631591797 6.14846467971801758 -18.8892650604248047
-20.7648029327392578 63.5163497924804688 -20.5048294067382812
32.8346328735351562 55.0343055725097656 28.0449371337890625
-31.4367923736572266 50.9959526062011719 28.9941730499267578
26.139801025390625 61.9339141845703125 27.5291500091552734
-16.8739738464355469 65.9954452514648438 -18.7344264984130859
18.6392765045166016 66.3686370849609375 42.0582504272460938
16.4947948455810547 66.4629669189453125 -38.5830039978027344
13.2466325759887695 -0.261684894561767578 -40.4073677062988281
-34.9495964050292969 43.7838134765625 9.67463397979736328
-27.1745147705078125 40.7783317565917969 -56.9370689392089844
33.6364898681640625 19.2841415405273438 -39.3065986633300781
-32.3005409240722656 48.5551261901855469 -48.4544830322265625
-6.69910955429077148 69.6560897827148438 -43.2618255615234375
-19.4756507873535156 -66.5166854858398438 1.40857577323913574
-5.86485958099365234 -171.004806518554688 1.55794107913970947
-8.02564811706542969 -158.126388549804688 -3.71333885192871094
6.50892162322998047 -115.41546630859375 -11.6825408935546875
-35.0688247680664062 25.7840957641601562 34.3108062744140625
29.9729232788085938 54.7727851867675781 -38.7825279235839844
9.54246807098388672 47.8570404052734375 -53.0996818542480469
10.5568876266479492 -56.6803321838378906 11.9714174270629883
-13.9561128616333008 8.11617279052734375 -55.7779769897460938
-5.22073554992675781 -161.4344482421875 -4.16117668151855469
2.36627674102783203 -64.652618408203125 18.6622200012207031
-7.36792755126953125 -1.91350817680358887 46.3170318603515625
35.8559074401855469 49.5171279907226562 10.3802757263183594
10.4639244079589844 3.38982844352722168 -56.1172332763671875
34.9608650207519531 51.7034988403320312 50.1969680786132812
-35.2431602478027344 41.9396514892578125 -15.8344287872314453
-15.3860244750976562 6.56619596481323242 56.8389472961425781
9.25960731506347656 -88.065216064453125 11.9834890365600586
-10.5934419631958008 -35.4443931579589844 -13.4914417266845703
28.2862110137939453 5.51324987411499023 47.60894775390625
-1.56036770343780518 4.76584100723266602 56.3062095642089844
-19.3266811370849609 17.7232570648193359 56.0323753356933594
-36.2865562438964844 34.0829200744628906 -7.97711181640625
0.924521446228027344 -43.4414138793945312 17.3861179351806641
-15.3096714019775391 0.627777695655822754 10.1515674591064453
-11.5649528503417969 -142.149368286132812 1.37334573268890381
14.9090404510498047 17.4519443511962891 -53.7098045349121094
-27.9761753082275391 57.0336837768554688 -2.8152472972869873
-32.3770179748535156 17.1823844909667969 16.5481414794921875
15.8258228302001953 -30.3383426666259766 3.49024319648742676
35.8542747497558594 48.5413284301757812 -4.05689191818237305
10.9093418121337891 -68.009979248046875 -9.52957630157470703
16.1563472747802734 -1.03411924839019775 19.3978290557861328
6.28705072402954102 69.63140869140625 37.9067764282226562
33.7708778381347656 46.1173896789550781 -49.0303153991699219
-14.6226568222045898 -24.6690940856933594 -9.38528919219970703
-18.3240432739257812 64.606964111328125 29.7745571136474609
-13.9390726089477539 -119.258865356445312 -11.1170005798339844
-3.90025115013122559 -138.525863647460938 -6.99584579467773438
-22.6768302917480469 31.2105789184570312 54.0339241027832031
6.59078359603881836 -59.4840316772460938 -13.7320728302001953
14.7736654281616211 -28.4810085296630859 -5.70383262634277344
-35.7520408630371094 30.8995532989501953 35.8693466186523438
3.2786555290222168 -2.8765721321105957 -28.2329750061035156
2.48903441429138184 -123.815605163574219 11.44671630859375
-16.8015632629394531 1.768790602684021 -29.9484424591064453
-26.6498584747314453 9.45350837707519531 40.6429901123046875
5.493194580078125 70.2018890380859375 -25.7486515045166016
-23.1191883087158203 5.61751222610473633 11.8580350875854492
13.6597003936767578 -44.6924858093261719 -6.40374088287353516
-13.2062702178955078 -56.9311790466308594 12.9974069595336914
0.980542123317718506 -3.20842862129211426 28.0764026641845703
-18.7556858062744141 64.086822509765625 39.0325851440429688
-2.49970412254333496 69.9466171264648438 27.0324192047119141
-33.3130416870117188 39.7149124145507812 -53.0326347351074219
-13.2612876892089844 2.99301266670227051 56.1177520751953125
-2.68412637710571289 -118.566413879394531 -14.8510160446166992
1.03284156322479248 -53.888519287109375 -15.852940559387207
9.57475852966308594 -96.1107254028320312 10.777099609375
-1.87214779853820801 -2.47565865516662598 -36.4269981384277344
-36.1824493408203125 38.5192909240722656 4.11967945098876953
15.6532678604125977 67.7475128173828125 23.6667213439941406
-17.0242576599121094 45.4659957885742188 -47.5923385620117188
21.9543266296386719 5.13173532485961914 -46.4423675537109375
16.5619831085205078 63.5221595764160156 55.84765625
6.05169486999511719 -46.8595314025878906 -14.2062034606933594
6.26550531387329102 13.5884160995483398 -53.2189483642578125
5.72912740707397461 -59.6854476928710938 -14.1935195922851562
33.6831893920898438 18.3917179107666016 -33.6662521362304688
6.98250484466552734 -61.0422744750976562 13.8742599487304688
-4.28376626968383789 22.8899421691894531 54.0278282165527344
-9.49327182769775391 67.8222808837890625 50.1800003051757812
-26.9136905670166016 9.64628696441650391 -19.1709270477294922
14.2205810546875 -72.4245681762695312 0.523144721984863281
23.2336063385009766 53.8478851318359375 -57.019378662109375
35.6569976806640625 19.5230674743652344 -13.0841817855834961
-3.61246204376220703 68.3418350219726562 52.7786216735839844
-25.7049961090087891 58.7297325134277344 28.2891597747802734
-20.7494430541992188 63.5849227905273438 -12.4341773986816406
-19.2005825042724609 64.441619873046875 -35.8035354614257812
-11.8066892623901367 -3.87144923210144043 -5.97467565536499023
1.44827604293823242 -137.689834594726562 4.93278837203979492
11.0081453323364258 -103.313438415527344 -7.3312220573425293
-1.78881382942199707 37.978912353515625 -54.8850975036621094
-13.2621650695800781 -73.9011688232421875 12.9410743713378906
-34.023895263671875 44.5691070556640625 -47.4956130981445312
7.77911853790283203 -80.6754226684570312 -12.3654203414916992
-4.37956142425537109 68.9421615600585938 50.1102485656738281
6.02862215042114258 69.9253082275390625 -43.0303192138671875
-4.22449779510498047 -114.543182373046875 -15.8841142654418945
-29.2390956878662109 53.8539199829101562 45.0007591247558594
-14.882537841796875 -44.2806472778320312 10.8901405334472656
-16.6538753509521484 -20.2384986877441406 -5.43977928161621094
12.4775218963623047 25.3194580078125 -53.3132171630859375
-15.1901826858520508 -124.02081298828125 -6.59808826446533203
-16.6247138977050781 65.284454345703125 41.662689208984375
-4.32332658767700195 70.1505050659179688 -30.4235363006591797
27.4048023223876953 23.6583709716796875 55.4753532409667969
-10.2263078689575195 -49.8800773620605469 -14.0237531661987305
22.4701175689697266 47.0473823547363281 -56.4270248413085938
20.4524803161621094 64.7365264892578125 -22.8401679992675781
18.2312755584716797 1.49899935722351074 -31.6317310333251953
-15.0784664154052734 -17.0955696105957031 -8.07575607299804688
10.9993267059326172 -88.3019866943359375 9.26869010925292969
-18.5117130279541016 -66.8182601928710938 5.61813735961914062
-16.3099231719970703 1.30508542060852051 37.8516616821289062
-18.0513858795166016 -49.1804885864257812 5.40943002700805664
16.8240795135498047 66.527496337890625 -31.7301025390625
29.5519943237304688 8.00402927398681641 7.71315860748291016
-4.82116079330444336 -96.4619216918945312 -16.2266826629638672
-29.7396354675292969 12.9841499328613281 19.8570404052734375
-35.1865234375 29.1520328521728516 -48.8148345947265625
-21.0852470397949219 63.2809257507324219 -20.0458469390869141
36.8563880920410156 42.8208770751953125 -20.1996078491210938
-20.6599998474121094 -106.110694885253906 2.24986553192138672
21.2328395843505859 65.2965774536132812 0.877646088600158691
25.9041366577148438 56.5729598999023438 -53.1779975891113281
0.00834618601948022842 -3.08362007141113281 20.5068645477294922
-36.1896247863769531 34.6170005798339844 -12.3963260650634766
-5.91413021087646484 -59.4925994873046875 20.7183666229248047
-4.77516889572143555 -52.9186058044433594 -15.929107666015625
6.77016925811767578 -93.4720611572265625 -12.7682332992553711
-17.9381389617919922 -23.1359615325927734 -0.507376253604888916
0.937164306640625 -80.1471633911132812 17.9859447479248047
20.7223682403564453 65.4758529663085938 45.8738517761230469
27.6108779907226562 14.5271501541137695 55.631011962890625
-4.68935871124267578 -36.6729545593261719 16.4303493499755859
-12.2253274917602539 -7.30412960052490234 -5.04439163208007812
-32.8554725646972656 48.0645217895507812 -44.6727142333984375
-18.9857711791992188 -63.5427780151367188 -3.03568696975708008
-2.30497050285339355 69.4404678344726562 46.9743385314941406
17.5524482727050781 -0.044473692774772644 -7.54498815536499023
4.64291095733642578 58.2143745422363281 -56.1223716735839844
-21.167510986328125 4.72146749496459961 -28.0813140869140625
-7.14840984344482422 69.6584548950195312 -23.7775802612304688
13.5045270919799805 -60.1884307861328125 -5.29731321334838867
-5.14252042770385742 68.0752944946289062 -53.1056175231933594
-7.34243440628051758 -151.711410522460938 -4.33112525939941406
-30.5687789916992188 52.9816627502441406 -28.6207695007324219
16.5119342803955078 -1.12705600261688232 37.1014022827148438
11.7320556640625 -0.339886844158172607 -46.1514778137207031
32.2747154235839844 55.76580810546875 29.4922676086425781
14.2980451583862305 4.80010271072387695 56.079254150390625
-35.6882781982421875 28.5173816680908203 27.338714599609375
-1.27045595645904541 -161.903732299804688 5.36486005783081055
-26.8020401000976562 9.74448394775390625 44.5025138854980469
-35.4885826110839844 31.574462890625 -48.363739013671875
-33.4185028076171875 19.70928955078125 20.6635494232177734
-6.87845039367675781 -151.077713012695312 -4.57468891143798828
32.263427734375 51.4916305541992188 54.8830986022949219
-0.490366965532302856 -139.47161865234375 -4.95827865600585938
-33.1170616149902344 19.0709056854248047 22.6247692108154297
-10.5421848297119141 68.6895065307617188 -28.3167972564697266
3.99749565124511719 -42.5728340148925781 16.6863765716552734
19.8790016174316406 65.8039932250976562 42.5622749328613281
-17.4050006866455078 41.2035713195800781 -52.2419662475585938
17.5436553955078125 0.885792195796966553 -28.9824790954589844
-10.6758384704589844 -56.0783729553222656 15.1299161911010742
6.19081020355224609 -3.04584264755249023 32.8341789245605469
24.5777015686035156 3.36539745330810547 19.9609622955322266
-9.49467182159423828 -113.894607543945312 -14.9860448837280273
-3.44546222686767578 -73.6748275756835938 19.6165103912353516
-25.3681888580322266 8.08050918579101562 -20.6494159698486328
11.4892606735229492 -55.0970420837402344 -9.39548587799072266
8.33985042572021484 61.8150634765625 56.5248985290527344
-30.6165008544921875 52.5276260375976562 -41.9112205505371094
-13.3671255111694336 -61.0656280517578125 -12.1252803802490234
16.1690578460693359 -23.7771396636962891 -0.573097109794616699
-18.7143745422363281 -68.343048095703125 -4.61057138442993164
13.6887273788452148 -35.9431419372558594 -6.97977781295776367
-35.6274871826171875 29.2984161376953125 -34.6505966186523438
-11.1358299255371094 10.0213994979858398 55.8318023681640625
37.3064613342285156 43.7021331787109375 -9.14582443237304688
-31.37030029296875 51.6381988525390625 -25.7909698486328125
16.5094432830810547 15.4432611465454102 53.958038330078125
-22.1865005493164062 52.0160789489746094 -55.9298820495605469
29.3674163818359375 59.014556884765625 24.3098049163818359
-31.7794570922851562 51.5064010620117188 -4.94854259490966797
5.82296991348266602 -21.4044303894042969 -14.5156545639038086
14.7858257293701172 -1.54130423069000244 -4.59446620941162109
13.4625387191772461 68.2031784057617188 -23.5034103393554688
-20.7679862976074219 -112.377037048339844 1.414512038230896
14.1192770004272461 -36.2228927612304688 -5.99971151351928711
13.4685087203979492 30.31182861328125 -53.5455093383789062
-16.1338958740234375 -99.0983428955078125 11.3523349761962891
-17.8075370788574219 -88.7818450927734375 8.69609832763671875
-15.7589359283447266 0.531154155731201172 3.18956637382507324
12.6194791793823242 -75.1780319213867188 -6.15255308151245117
5.30002260208129883 19.4954490661621094 54.0407218933105469
-33.5997543334960938 19.8768444061279297 -10.3421154022216797
-6.92650461196899414 -1.64584207534790039 -34.156036376953125
-27.5988941192626953 57.6116905212402344 -1.38155972957611084
-16.5783061981201172 -92.1371078491210938 -10.0222759246826172
-16.2213649749755859 1.1059805154800415 18.3133754730224609
38.7045440673828125 21.7978057861328125 41.4438018798828125
-32.6181526184082031 48.6088447570800781 30.1999778747558594
6.50139999389648438 -2.17231559753417969 -36.0897750854492188
-22.9232959747314453 60.0271644592285156 -51.5582656860351562
-31.7652530670166016 49.6848220825195312 43.4177169799804688
10.5632314682006836 -91.263641357421875 9.78384780883789062
31.7158260345458984 12.9153432846069336 -18.5596427917480469
-3.13180351257324219 -46.6728973388671875 -16.0820236206054688
23.7799110412597656 62.8238945007324219 -13.74346923828125
-24.8653297424316406 7.93616771697998047 -32.5825271606445312
-2.21113133430480957 -51.2705116271972656 -16.1514186859130859
37.4102630615234375 20.2647209167480469 16.6393852233886719
11.8342399597167969 5.62312507629394531 56.082611083984375
4.77995014190673828 -2.78667950630187988 49.8629341125488281
14.976008415222168 67.7453155517578125 -18.249969482421875
-34.3947257995605469 45.1064338684082031 -10.7656154632568359
-29.4724311828613281 13.6094799041748047 -45.8829002380371094
27.5758609771728516 27.4898414611816406 52.701995849609375
31.8299674987792969 54.4149284362792969 -12.841644287109375
4.28920221328735352 3.10528969764709473 56.2758064270019531
7.89430570602416992 -94.3901901245117188 -11.8470687866210938
-33.2065658569335938 19.65252685546875 -24.8804817199707031
23.2912349700927734 61.7029342651367188 -42.4608879089355469
22.2112388610839844 63.4832305908203125 -22.8432350158691406
20.3470821380615234 20.7310390472412109 52.5786895751953125
20.9020862579345703 11.2081584930419922 -57.8446426391601562
35.6087646484375 35.2302131652832031 -50.3910102844238281
13.5072469711303711 -0.359925925731658936 -34.0190010070800781
38.5434112548828125 21.6702938079833984 38.2265243530273438
-0.246978491544723511 -54.056243896484375 23.0374336242675781
10.4976081848144531 -29.0403232574462891 12.9900598526000977
7.02878665924072266 -34.8157272338867188 -13.8742942810058594
-13.1289701461791992 -80.169647216796875 -12.8320236206054688
32.2690467834472656 55.1792488098144531 5.89651679992675781
5.11372995376586914 -97.9947662353515625 12.8227357864379883
15.2597293853759766 -33.3534278869628906 5.05392837524414062
-28.7706718444824219 11.8409833908081055 -19.3358440399169922
4.57581090927124023 -116.13287353515625 13.7932891845703125
3.16271018981933594 70.0192718505859375 30.6176795959472656
4.59590911865234375 6.59942913055419922 -56.0537338256835938
-36.0045280456542969 36.4578094482421875 20.830718994140625
11.4865999221801758 -62.2246665954589844 10.1317596435546875
-1.2414473295211792 23.9410305023193359 53.8987045288085938
37.367462158203125 41.8535614013671875 -15.5549449920654297
16.5141925811767578 65.5311508178710938 53.8694801330566406
8.94604682922363281 -34.841278076171875 -12.6729278564453125
1.28655517101287842 70.4043960571289062 -41.6543617248535156
-10.467829704284668 68.442230224609375 21.6091785430908203
-6.47699308395385742 -2.25336480140686035 39.937042236328125
34.6779556274414062 23.2331295013427734 -44.9881210327148438
31.7340793609619141 46.3727951049804688 -53.9875984191894531
38.6556549072265625 43.5058135986328125 28.7247486114501953
-30.5493335723876953 45.2295646667480469 -55.6095848083496094
38.055755615234375 27.4523601531982422 54.0863876342773438
-22.8035507202148438 61.8314781188964844 -28.8937320709228516
-34.2410812377929688 45.6207847595214844 -13.2041101455688477
38.7404937744140625 26.5733623504638672 2.05824828147888184
4.16815280914306641 -87.727294921875 13.2765703201293945
39.2559700012207031 33.2518997192382812 -1.41936862468719482
2.96133017539978027 -129.21978759765625 -5.73405933380126953
-5.00021886825561523 69.0755691528320312 46.9520034790039062
-3.95554113388061523 -157.914749145507812 -4.11090850830078125
-29.0766487121582031 13.164219856262207 -44.2691001892089844
34.4330596923828125 41.2059745788574219 -51.7546730041503906
12.1731500625610352 -2.57705378532409668 -7.13277101516723633
8.59175395965576172 69.781890869140625 16.1461029052734375
38.3095741271972656 33.4424629211425781 -13.7364397048950195
12.9566555023193359 -2.10186934471130371 39.3443069458007812
-14.766810417175293 -80.5302352905273438 -11.4988842010498047
-17.6959590911865234 -104.293220520019531 -9.14654636383056641
-10.20166015625 -34.8291969299316406 14.6662015914916992
-30.5618743896484375 53.5331268310546875 -4.0472259521484375
-6.08604288101196289 -135.943740844726562 -7.39013147354125977
-28.4533596038818359 11.7998123168945312 -31.7344322204589844
-16.9498863220214844 -33.6278038024902344 7.0689692497253418
-15.1582889556884766 -38.3680419921875 -9.42932415008544922
32.9475860595703125 54.15008544921875 4.44134998321533203
20.9308280944824219 65.1510543823242188 -6.1165008544921875
6.78104019165039062 69.852569580078125 24.0105743408203125
-35.1468276977539062 41.1687049865722656 -32.8224258422851562
6.72023820877075195 31.8841972351074219 -54.951873779296875
0.649759292602539062 69.6883163452148438 44.4483871459960938
28.9602622985839844 11.1127719879150391 -37.649749755859375
4.50647258758544922 -70.2910995483398438 15.5498361587524414
11.0364255905151367 -75.1507110595703125 -8.96047401428222656
-14.9394083023071289 -66.4576568603515625 11.8428888320922852
-18.4657859802246094 50.1021080017089844 -51.1382827758789062
8.46005821228027344 -56.3646392822265625 12.6733150482177734
4.55394697189331055 -63.0505180358886719 -14.6776571273803711
-18.1244678497314453 43.6232032775878906 -50.7167701721191406
-35.2144393920898438 26.9515819549560547 38.5736808776855469
-8.46612167358398438 69.3209152221679688 11.427001953125
-1.8336944580078125 0.0327589958906173706 -53.8195381164550781
-6.27115440368652344 -133.82763671875 9.12170791625976562
-29.6710071563720703 54.3238067626953125 -27.8392505645751953
-0.628851771354675293 56.9303398132324219 55.0543403625488281
-29.8287887573242188 13.1073923110961914 19.5227851867675781
-35.7730712890625 34.8084526062011719 -40.5775794982910156
-17.6415042877197266 1.69795131683349609 -2.87009835243225098
-2.82590603828430176 56.6937828063964844 -53.0008773803710938
-5.93788862228393555 -68.6672515869140625 17.9671268463134766
-2.18260073661804199 -25.0723457336425781 16.3976459503173828
-8.69026374816894531 -65.8794631958007812 -15.0343084335327148
-14.2212753295898438 -89.9815139770507812 -12.2815694808959961
-4.16437101364135742 7.85909795761108398 55.3409385681152344
23.0732307434082031 63.8539047241210938 -3.54957866668701172
-34.675323486328125 22.4177951812744141 -4.34494924545288086
-26.8581218719482422 9.82644748687744141 47.1366195678710938
-24.0476150512695312 45.9075698852539062 57.6491012573242188
25.6387615203857422 33.1992568969726562 -54.0339279174804688
24.9876041412353516 26.4933509826660156 51.1631965637207031
-18.8110618591308594 2.71454620361328125 35.5294227600097656
0.419637501239776611 -128.40484619140625 -8.66110610961914062
-35.5974540710449219 35.2515830993652344 42.7881202697753906
11.0877523422241211 -93.394134521484375 8.84661197662353516
-17.3040046691894531 65.890228271484375 -7.98515081405639648
1.70222294330596924 -1.95824146270751953 -49.5374908447265625
21.2966194152832031 65.132476806640625 43.00531005859375
14.719059944152832 -0.0713403746485710144 -31.4181957244873047
-14.1576061248779297 0.889172196388244629 -36.2448539733886719
-19.3154640197753906 49.373382568359375 -52.1051826477050781
-16.7538471221923828 -16.2586727142333984 -4.47345399856567383
1.58858716487884521 -126.19354248046875 -9.20775604248046875
-29.35662841796875 54.6711997985839844 19.6180572509765625
-15.785369873046875 -88.0240249633789062 11.6077098846435547
-21.6199741363525391 5.21542787551879883 50.7888755798339844
26.8941650390625 61.2929916381835938 23.8288650512695312
21.4547176361083984 1.06222355365753174 50.2770423889160156
13.3249216079711914 -56.8121261596679688 7.62523460388183594
12.9416046142578125 -104.258964538574219 -0.591829240322113037
-0.333841860294342041 65.4687957763671875 -55.2738075256347656
-4.6114354133605957 -90.8810882568359375 15.2146072387695312
39.6119613647460938 25.3039016723632812 39.4038314819335938
34.4358749389648438 48.8244895935058594 -24.5590286254882812
-15.019190788269043 -65.3028564453125 -10.6726541519165039
-18.2746696472167969 -98.0397567749023438 -7.92392206192016602
0.57888484001159668 -108.179229736328125 -15.5724601745605469
38.9681167602539062 24.6129913330078125 23.6371707916259766
35.3924942016601562 46.3589286804199219 -25.3409805297851562
-35.5869941711425781 26.0156040191650391 12.6340560913085938
11.9234142303466797 -60.3997039794921875 -8.47406387329101562
-19.6823215484619141 63.3570213317871094 43.3881721496582031
7.03614377975463867 70.0723876953125 -16.8407649993896484
-13.1906948089599609 -129.590744018554688 4.71765899658203125
-36.2425308227539062 37.3400001525878906 -2.75028872489929199
-13.1963443756103516 27.9792270660400391 -53.1618614196777344
-26.1229419708251953 57.9921798706054688 37.0153427124023438
5.72951650619506836 -118.494552612304688 -11.2031488418579102
3.37067389488220215 70.1318893432617188 26.0570106506347656
21.4812793731689453 1.51465725898742676 13.7731037139892578
2.21773290634155273 -2.374359130859375 -42.5476951599121094
12.5389862060546875 -98.4867630004882812 5.18569374084472656
12.0571470260620117 68.449859619140625 48.8644866943359375
-34.9992523193359375 22.8598251342773438 -0.35298454761505127
8.57071876525878906 -54.1655311584472656 13.2590131759643555
36.7890892028808594 48.0299148559570312 50.6603813171386719
10.6156759262084961 69.4674835205078125 9.9159698486328125
28.4558010101318359 57.5829811096191406 -27.3005390167236328
-20.8865795135498047 -109.550552368164062 -0.614376842975616455
-35.4740142822265625 25.5443782806396484 10.6575632095336914
-17.8839397430419922 2.09120273590087891 27.3755779266357422
6.671051025390625 -41.8159751892089844 15.1759490966796875
-24.7709026336669922 59.9611473083496094 -36.78961181640625
-35.2677192687988281 40.4886283874511719 -36.4788894653320312
1.1625748872756958 -74.7240524291992188 18.1027069091796875
8.74977397918701172 -51.3710441589355469 13.4900321960449219
7.88229703903198242 -113.941665649414062 11.6085357666015625
19.5305099487304688 65.9498367309570312 -6.24961280822753906
-26.5243015289306641 8.47069454193115234 1.39458692073822021
7.40625762939453125 -12.7842483520507812 13.7098369598388672
22.4268722534179688 64.5169830322265625 33.0076560974121094
-31.5376434326171875 45.2549247741699219 -53.5320014953613281
-12.4684505462646484 31.3211097717285156 52.1463813781738281
-17.5252971649169922 -69.3078460693359375 -7.29185771942138672
-36.2333221435546875 30.3844165802001953 9.59575939178466797
37.1131477355957031 18.3064556121826172 33.5694236755371094
-34.1655960083007812 44.0696334838867188 38.0069389343261719
15.8933525085449219 -0.049565047025680542 -20.9727516174316406
-29.8572902679443359 28.62164306640625 57.061279296875
15.0541582107543945 0.0284202955663204193 -31.3477268218994141
-14.5375823974609375 -128.922103881835938 -1.65352129936218262
-2.52106070518493652 69.3724822998046875 47.7244644165039062
39.0735092163085938 27.6841697692871094 7.82691621780395508
-15.4601078033447266 -82.9668655395507812 -10.9118452072143555
-1.03125977516174316 -53.1209259033203125 22.1479473114013672
-20.4934940338134766 3.39097857475280762 0.741278529167175293
-33.7284049987792969 19.6570758819580078 -4.35215091705322266
-17.2883110046386719 -28.4672565460205078 -4.78907537460327148
33.8065261840820312 13.0167837142944336 18.5438270568847656
36.4232292175292969 30.2366161346435547 -39.6189117431640625
4.75980997085571289 33.6713523864746094 -55.0264358520507812
33.2889671325683594 54.6382598876953125 36.8234825134277344
-10.0699777603149414 -81.731689453125 15.2796058654785156
5.49182367324829102 47.1166267395019531 -53.6270904541015625
-30.0872669219970703 24.0923595428466797 57.00701904296875
-23.6446952819824219 59.6534576416015625 51.1395988464355469
-30.3223667144775391 15.6534395217895508 -49.79681396484375
-14.2637062072753906 -93.6455841064453125 -12.3557815551757812
24.27880859375 37.6108436584472656 52.3057785034179688
-11.2222089767456055 -0.78777390718460083 -19.4986152648925781
20.5520267486572266 59.6198348999023438 -55.2937202453613281
-17.8668651580810547 2.24985814094543457 45.729827880859375
-32.6937294006347656 19.127716064453125 46.0009117126464844
27.31658935546875 10.8315534591674805 55.4313850402832031
-8.95134258270263672 58.5291633605957031 -53.8946380615234375
22.6143741607666016 2.27740859985351562 8.90500640869140625
-19.5417022705078125 64.3339080810546875 -23.3362064361572266
-35.7862396240234375 29.5755634307861328 -27.3183822631835938
-35.8432540893554688 37.0608901977539062 25.3858585357666016
-21.731536865234375 4.32976531982421875 -1.9475409984588623
-30.7188568115234375 14.8962392807006836 36.56939697265625
28.9602336883544922 37.6654396057128906 55.6793098449707031
-4.04151678085327148 -94.9029617309570312 -16.1275062561035156
-31.4306201934814453 45.7686729431152344 54.8732376098632812
-15.9160261154174805 24.0704860687255859 52.2146339416503906
32.8071327209472656 19.1052608489990234 -48.9669151306152344
23.2182788848876953 63.990386962890625 20.5146236419677734
21.4024143218994141 65.085174560546875 19.3133697509765625
10.0424900054931641 -71.4230270385742188 -10.4615087509155273
-2.56550979614257812 68.2115402221679688 -53.6000328063964844
14.2722921371459961 0.182321399450302124 -39.9396553039550781
-0.289189666509628296 -0.545260608196258545 55.8720054626464844
40.235260009765625 32.4082183837890625 32.3362503051757812
32.0349349975585938 10.0997533798217773 29.4851741790771484
-14.9460954666137695 -94.186065673828125 -11.7848653793334961
-18.9322490692138672 -99.5441741943359375 7.21247243881225586
31.8988761901855469 25.8283920288085938 56.0602760314941406
38.94390869140625 41.82733154296875 22.2099933624267578
29.5714626312255859 9.92998123168945312 -17.5657749176025391
-28.2041759490966797 50.9898452758789062 55.8191490173339844
-18.2494850158691406 -81.8135604858398438 -6.80954790115356445
13.2345752716064453 68.142364501953125 -33.85125732421875
-0.0893372073769569397 -42.6872482299804688 16.6403484344482422
-34.2169685363769531 45.6805229187011719 -12.8947315216064453
36.9819412231445312 42.9384765625 -16.6163005828857422
39.3603057861328125 34.0214767456054688 52.6067962646484375
-30.0560455322265625 39.0033073425292969 -57.26739501953125
-18.5445003509521484 -56.180419921875 4.35793781280517578
5.20075130462646484 -63.47088623046875 15.0494012832641602
31.1733322143554688 54.929290771484375 -17.4673938751220703
28.9676303863525391 13.1901311874389648 55.3642463684082031
-24.8366489410400391 39.4878349304199219 -53.6716041564941406
-6.52125644683837891 -99.7030258178710938 -16.053253173828125
-10.8186502456665039 -155.50494384765625 1.5214308500289917
3.22218632698059082 39.5782470703125 52.0319099426269531
25.9951114654541016 8.06613826751708984 -40.0637664794921875
7.89963340759277344 -2.21044063568115234 -28.8884830474853516
-2.93508481979370117 -50.5725555419921875 -16.1174716949462891
8.65225696563720703 69.8555908203125 -8.97732162475585938
-12.3482847213745117 68.1142654418945312 -22.2769069671630859
-35.5786247253417969 30.4841766357421875 40.865203857421875
-18.8358650207519531 2.36944365501403809 -1.27756655216217041
15.6685323715209961 67.41900634765625 -20.2342319488525391
28.1384410858154297 58.0312652587890625 -25.7633819580078125
-4.20063257217407227 31.7743778228759766 53.260467529296875
-0.896148145198822021 -2.95345354080200195 40.1429023742675781
-20.4326152801513672 -100.303260803222656 2.49657464027404785
-24.0025749206542969 60.8987617492675781 -17.0137767791748047
36.1586265563964844 48.0210189819335938 -3.49933910369873047
10.2968502044677734 -63.7512092590332031 12.12255859375
14.2880516052246094 -68.4348907470703125 -1.1279369592666626
-5.54961585998535156 53.1974334716796875 -52.6586265563964844
8.19968223571777344 -28.7452716827392578 14.6140022277832031
-20.7046012878417969 -103.051612854003906 0.999041497707366943
39.3918266296386719 40.1556663513183594 25.0076808929443359
14.6389474868774414 -48.2823905944824219 5.12108182907104492
-20.3789005279541016 -91.940673828125 -0.121358372271060944
6.90680217742919922 -89.0918807983398438 -12.832737922668457
25.6615810394287109 46.7962417602539062 -56.8575477600097656
12.9649734497070312 -33.5196456909179688 -8.33246994018554688
-17.4716815948486328 -67.2987442016601562 8.13918876647949219
7.7889399528503418 -104.369453430175781 -11.5071287155151367
-3.20918416976928711 70.4128570556640625 7.51349782943725586
-26.6229496002197266 57.9399337768554688 22.9202671051025391
12.7177486419677734 -98.5127410888671875 4.42406988143920898
5.90327978134155273 -3.02768301963806152 45.8376502990722656
39.3179931640625 35.7994270324707031 2.38020563125610352
-17.1452980041503906 -52.5670890808105469 8.0012054443359375
14.1816110610961914 -72.4831619262695312 -0.603454232215881348
15.1555700302124023 -45.6788406372070312 -1.66288304328918457
27.5181388854980469 56.5171318054199219 -50.3467864990234375
17.5315170288085938 35.5113906860351562 51.2027206420898438
-6.96939516067504883 -2.13632082939147949 35.989105224609375
14.7475194931030273 52.3251075744628906 -56.8552017211914062
16.6479625701904297 25.4183158874511719 -52.869110107421875
-10.4299945831298828 -0.418224722146987915 -39.9402427673339844
4.34477090835571289 70.5461196899414062 -6.76852989196777344
14.7841339111328125 -56.756561279296875 1.97233343124389648
8.76279354095458984 -4.06719970703125 -9.62670326232910156
19.7554187774658203 64.155975341796875 53.6245193481445312
20.7771854400634766 61.4242324829101562 55.69635009765625
-33.8259048461914062 47.1724357604980469 -5.2652277946472168
-23.4606075286865234 6.6127009391784668 -31.9335861206054688
1.98182690143585205 -119.692893981933594 -13.1597023010253906
5.67406606674194336 40.9382362365722656 -54.54095458984375
-23.9309597015380859 6.92302227020263672 -26.0484333038330078
9.89153385162353516 33.4266433715820312 -54.7030410766601562
-7.58475685119628906 -79.8227462768554688 16.9748210906982422
11.8262195587158203 -103.573432922363281 6.62371015548706055
-0.600544929504394531 -104.994873046875 16.3955860137939453
-5.84457206726074219 -57.9471168518066406 20.2414264678955078
-20.5298805236816406 -108.495109558105469 -3.30209159851074219
40.028594970703125 38.8443603515625 39.6196823120117188
15.1963768005371094 67.8942794799804688 -9.32230663299560547
0.615089356899261475 70.8128662109375 0.726086974143981934
-18.9025592803955078 59.3131599426269531 56.9233818054199219
22.9078044891357422 64.1773529052734375 9.56469249725341797
-1.18748915195465088 -123.591812133789062 -12.3215579986572266
15.5347585678100586 9.66565799713134766 -56.9753379821777344
22.7558650970458984 45.5576858520507812 -54.9323081970214844
-24.2926902770996094 60.0427131652832031 30.1200885772705078
-25.478363037109375 35.4108848571777344 -53.2914962768554688
37.9021148681640625 25.7615547180175781 -9.0147552490234375
-5.786224365234375 70.0274124145507812 7.57445287704467773
3.4303739070892334 66.4673919677734375 -55.2452735900878906
21.4370441436767578 1.36286604404449463 19.8671035766601562
3.2732236385345459 -80.0647659301757812 -14.9927911758422852
26.1250514984130859 62.1117668151855469 43.5952301025390625
27.0176925659179688 7.63636970520019531 -23.5090198516845703
23.3075294494628906 2.33067965507507324 27.5194778442382812
-9.05969047546386719 26.2251663208007812 -53.8264617919921875
-19.1409950256347656 18.0470027923583984 -54.4403152465820312
39.3363265991210938 38.0559577941894531 12.3570146560668945
-33.5698318481445312 19.3373985290527344 8.52023506164550781
23.0388774871826172 61.3451423645019531 -49.1396064758300781
-20.2725353240966797 -99.2710800170898438 -3.15797710418701172
-15.5811672210693359 1.19408011436462402 -25.7364177703857422
-1.75490415096282959 -3.43327093124389648 -14.0117874145507812
-33.3322982788085938 20.9822845458984375 -45.4463348388671875
-18.7500114440917969 -71.371734619140625 5.34684133529663086
-5.85204553604125977 -87.37054443359375 15.2439203262329102
-21.7097549438476562 61.8990707397460938 42.0163536071777344
-23.5792465209960938 49.8584556579589844 57.2030792236328125
-34.3846244812011719 23.049468994140625 -30.4489593505859375
15.1295318603515625 -37.5593833923339844 4.98698186874389648
-31.1328144073486328 52.0497207641601562 -28.7247791290283203
19.4078102111816406 26.2433376312255859 -53.0570030212402344
-33.4811897277832031 45.5738983154296875 47.5609970092773438
11.6488399505615234 -51.8801116943359375 -9.31154060363769531
0.255823969841003418 -58.7395973205566406 22.1382522583007812
-18.7711219787597656 2.82840514183044434 47.2401275634765625
-13.0158052444458008 66.8192367553710938 46.8651504516601562
-23.9362030029296875 28.7780838012695312 56.9761962890625
-35.8973464965820312 26.9012737274169922 -2.25872611999511719
-12.3526630401611328 -103.745925903320312 -13.828857421875
38.6092948913574219 40.8974800109863281 4.16162347793579102
-8.92143821716308594 42.0152015686035156 -53.59881591796875
10.2049245834350586 -21.0580272674560547 -11.9949989318847656
-35.4937820434570312 28.1998481750488281 -33.4228858947753906
11.3899879455566406 -8.55459976196289062 7.3035736083984375
-7.55485343933105469 -120.400527954101562 14.5744256973266602
-8.47754859924316406 -98.7553176879882812 14.5287189483642578
-33.6898155212402344 20.4939937591552734 24.5192642211914062
39.8579940795898438 35.9165458679199219 23.1984806060791016
-9.80448246002197266 -56.0476531982421875 16.0491065979003906
-0.844829916954040527 -3.10369777679443359 29.4038105010986328
-16.755279541015625 -28.8776435852050781 -6.0724034309387207
-2.50666403770446777 64.8325576782226562 -55.2637863159179688
0.876698434352874756 6.50294399261474609 55.5396766662597656
-18.3310031890869141 -120.436225891113281 3.09251999855041504
-11.8021125793457031 -70.6944046020507812 -13.5488948822021484
30.4185810089111328 7.53587007522583008 47.2442398071289062
-16.7495841979980469 -15.2885751724243164 -3.89160847663879395
-20.7000560760498047 63.7411041259765625 -6.09083843231201172
6.62311410903930664 -123.402191162109375 -6.53771066665649414
34.9029273986816406 14.6841030120849609 21.2154636383056641
11.9374485015869141 -84.97088623046875 -6.76918220520019531
-35.7624282836914062 30.3724784851074219 33.5788650512695312
-7.0894627571105957 -83.9782485961914062 16.7756977081298828
-7.68202018737792969 49.449737548828125 52.65087890625
-12.6748933792114258 -15.7073383331298828 -10.7850856781005859
-1.60712873935699463 70.440521240234375 -25.6202678680419922
-16.6006984710693359 55.7592697143554688 57.1828384399414062
-24.3527374267578125 60.5777816772460938 13.1742429733276367
10.6650581359863281 -72.4663314819335938 10.7680034637451172
10.8584966659545898 -91.2178802490234375 -8.39404487609863281
-13.7765464782714844 -119.379730224609375 -11.192626953125
-32.8391494750976562 43.1304779052734375 53.903900146484375
-28.8379745483398438 11.9266290664672852 -19.6550769805908203
-1.74909579753875732 70.589141845703125 -7.24194717407226562
-28.4992485046386719 55.6143112182617188 25.4764499664306641
-18.6502227783203125 2.38682365417480469 10.2556838989257812
29.2027492523193359 10.8435859680175781 55.205718994140625
16.9721126556396484 3.12501072883605957 -51.7818336486816406
13.3271465301513672 -59.7856788635253906 -5.774322509765625
31.4283771514892578 55.8214607238769531 -4.60606908798217773
10.3508491516113281 69.4381103515625 14.9691591262817383
-35.5771675109863281 38.6010665893554688 -34.1178398132324219
-34.322235107421875 23.0624675750732422 -32.5374336242675781
12.1122045516967773 -38.2399978637695312 -9.36886692047119141
12.563532829284668 -109.138526916503906 -2.07140517234802246
-8.51059722900390625 32.5073471069335938 -54.4924392700195312
-32.8218803405761719 49.146942138671875 -11.6262054443359375
-10.5204076766967773 65.216156005859375 55.9404449462890625
-23.0005016326904297 61.5698089599609375 -44.72442626953125
2.20333528518676758 19.544036865234375 -52.9203453063964844
-26.8711128234863281 32.801513671875 57.7248992919921875
21.4912586212158203 65.0310745239257812 17.7653560638427734
-6.72628688812255859 23.8603553771972656 -54.3393020629882812
-18.9579410552978516 -56.9180183410644531 2.5708472728729248
28.2783470153808594 8.31751918792724609 -15.8810205459594727
-7.0205235481262207 56.2532081604003906 54.1413040161132812
15.7134037017822266 16.2860774993896484 53.8363418579101562
-30.8426399230957031 49.3669624328613281 52.7531509399414062
-13.8195428848266602 65.1013107299804688 -53.3000602722167969
-10.6253032684326172 -141.73065185546875 4.20640897750854492
-17.7201919555664062 -89.2641448974609375 -8.30986309051513672
10.0095853805541992 69.0744705200195312 -40.1532325744628906
39.5814666748046875 40.6856536865234375 35.8413124084472656
27.7379016876220703 37.2025375366210938 53.2924690246582031
34.50933837890625 22.3694114685058594 -43.4240493774414062
32.8850936889648438 12.3610496520996094 1.88268637657165527
-16.9317550659179688 -77.4827651977539062 -8.89688301086425781
-15.0375547409057617 0.225035607814788818 5.44779682159423828
26.7184028625488281 54.52874755859375 -54.2926177978515625
33.1816139221191406 12.8208789825439453 0.145323261618614197
-7.68274164199829102 -107.998146057128906 -15.7186479568481445
-34.1834907531738281 43.7532844543457031 41.2137985229492188
-33.1352882385253906 44.9684410095214844 -50.4798355102539062
5.04860448837280273 18.3385696411132812 -52.3268051147460938
19.9876327514648438 0.860877394676208496 4.41698598861694336
-1.4542078971862793 -124.620315551757812 12.5038652420043945
-3.56633496284484863 5.6283574104309082 56.160675048828125
-12.9396343231201172 67.26763916015625 32.4574851989746094
-19.711700439453125 6.17002391815185547 -53.6826324462890625
-12.7142229080200195 68.0521774291992188 -10.7411012649536133
13.3308620452880859 -90.371856689453125 -2.37536287307739258
-9.68140125274658203 32.6403236389160156 -54.2824020385742188
-27.4921417236328125 53.5206756591796875 -53.229156494140625
9.13654041290283203 -121.716133117675781 4.6434483528137207
-13.9138650894165039 0.0646930485963821411 22.7441024780273438
34.3719024658203125 38.4061508178710938 -53.0653724670410156
26.9893417358398438 5.63985586166381836 4.13167428970336914
-12.1770877838134766 11.893310546875 -55.2115745544433594
0.357868313789367676 45.0145149230957031 52.5483589172363281
-8.86169815063476562 69.2793731689453125 -18.2678337097167969
9.83672332763671875 -121.637794494628906 1.37602710723876953
-18.4211616516113281 -36.9116973876953125 1.23635661602020264
15.8736667633056641 -0.0140861216932535172 -22.1658401489257812
-30.4520244598388672 37.4492874145507812 57.1498336791992188
-15.7151937484741211 38.2107162475585938 51.8222465515136719
-7.79552412033081055 -11.6869993209838867 -12.6335849761962891
8.70323848724365234 -25.5521183013916016 14.2689886093139648
1.25172102451324463 -133.624618530273438 6.82102584838867188
-2.14483857154846191 -166.92315673828125 3.18999958038330078
13.5012655258178711 64.5629425048828125 55.9627342224121094
-1.38925957679748535 -2.96973323822021484 35.3199996948242188
32.6360511779785156 30.5281829833984375 -56.2408866882324219
25.3282814025878906 62.5564765930175781 30.3122043609619141
-10.9793519973754883 68.6468582153320312 8.68603992462158203
9.7255706787109375 -90.4884796142578125 -9.98771762847900391
-20.1346340179443359 34.50091552734375 -51.23931884765625
0.0664434060454368591 -2.27906060218811035 -43.3620719909667969
-14.8851566314697266 -10.8398666381835938 -3.93029975891113281
14.7760896682739258 -58.2348289489746094 0.751214385032653809
-20.0552616119384766 63.4806327819824219 29.6463527679443359
20.3028736114501953 39.0620841979980469 51.9417190551757812
19.5916843414306641 17.6106834411621094 53.4160957336425781
39.9325218200683594 27.6748733520507812 49.8302078247070312
-6.08104896545410156 69.9392471313476562 8.70642948150634766
6.95285654067993164 53.3376274108886719 -55.5476531982421875
-15.9296960830688477 0.932436287403106689 9.70145130157470703
-35.8708038330078125 30.6047191619873047 28.93731689453125
-15.5287866592407227 -125.8740234375 -3.93902158737182617
29.8787803649902344 35.2108573913574219 -56.7806358337402344
-35.9249267578125 34.35528564453125 29.8525314331054688
-19.417449951171875 26.946533203125 51.4986991882324219
-11.0137605667114258 68.4707717895507812 -41.1729927062988281
-29.0125045776367188 52.0678787231445312 53.4106826782226562
6.44179439544677734 50.2413330078125 -53.2669105529785156
25.3497943878173828 61.0573997497558594 -22.2243175506591797
-16.1750087738037109 -102.309196472167969 -10.8547286987304688
1.14056122303009033 -3.09294271469116211 36.3415985107421875
-19.1005802154541016 45.8091583251953125 -46.0050697326660156
38.1007232666015625 37.3848686218261719 -15.3675050735473633
7.72563600540161133 -2.68978428840637207 -15.1412372589111328
13.5167407989501953 -64.7860260009765625 6.34184980392456055
1.95280396938323975 41.9989395141601562 -55.1973724365234375
16.3406105041503906 -1.11858534812927246 32.4468650817871094
5.98619508743286133 69.7164840698242188 36.0222129821777344
34.7953758239746094 46.5430526733398438 -33.8052177429199219
39.4144515991210938 37.5465011596679688 12.2915973663330078
28.9260406494140625 59.2697219848632812 12.0804882049560547
37.790618896484375 22.77593994140625 1.44924771785736084
38.7355003356933594 26.4123096466064453 4.01323127746582031
1.92734920978546143 43.4446525573730469 -55.0747413635253906
-3.65943241119384766 -64.4919586181640625 -16.1671924591064453
18.9856147766113281 66.431793212890625 -0.9116402268409729
-2.36618947982788086 -70.3143844604492188 -16.2154388427734375
38.8700904846191406 24.6123771667480469 20.8418445587158203
14.7672319412231445 37.8860244750976562 -53.5630073547363281
-16.2587566375732422 -17.6734962463378906 6.62923383712768555
-15.2046985626220703 0.56866145133972168 9.61445045471191406
36.8671455383300781 26.6374416351318359 -26.0287837982177734
32.0816383361816406 53.5931663513183594 -17.7843132019042969
-4.65676259994506836 -69.960540771484375 18.4713916778564453
-8.93887042999267578 -139.420989990234375 -5.29411506652832031
