ply
format ascii 1.0
element vertex 783
comment vertices
property float x
property float y
property float z
end_header
-3.59062290191650391 14.8685388565063477 24.7351799011230469
-17.1718540191650391 -34.7630500793457031 13.3344755172729492
18.7060966491699219 6.88025617599487305 -10.4584636688232422
-13.4670867919921875 2.29131007194519043 7.61193513870239258
12.5169057846069336 19.624114990234375 -22.7972869873046875
-11.1266546249389648 29.7183208465576172 10.3203668594360352
-14.4520835876464844 -6.57884502410888672 10.4620332717895508
10.8362932205200195 40.8703689575195312 0.480828464031219482
20.1509037017822266 5.06644916534423828 4.59190654754638672
1.29159688949584961 41.1796340942382812 -20.7956676483154297
-12.7241621017456055 -11.3720312118530273 23.3265953063964844
-15.1026954650878906 -24.8173446655273438 1.42086243629455566
-8.74940776824951172 40.9696922302246094 -2.19118237495422363
-15.6696081161499023 -40.9041481018066406 -4.96331596374511719
-7.08765363693237305 -35.7044181823730469 22.6137504577636719
12.4467325210571289 -34.0212936401367188 -6.69778347015380859
16.1591224670410156 -11.9666242599487305 -16.8091869354248047
-9.29122352600097656 -9.32747650146484375 -2.63021588325500488
-8.87193870544433594 33.3235206604003906 -15.401646614074707
-8.3663482666015625 28.2549724578857422 -20.5864543914794922
6.99812793731689453 -40.1901817321777344 11.0631484985351562
4.0062260627746582 43.807037353515625 -17.7613754272460938
-9.24823570251464844 38.8065528869628906 1.00950455665588379
-8.41045951843261719 32.6371383666992188 20.4973621368408203
-6.37102890014648438 -6.37921476364135742 -25.5022411346435547
-12.2980318069458008 25.1284713745117188 17.7307567596435547
0.756653428077697754 49.4844245910644531 0.143712893128395081
-14.591618537902832 -26.4176731109619141 21.6949005126953125
12.9604339599609375 26.7384452819824219 18.5594959259033203
11.8731451034545898 -32.8416481018066406 12.2812862396240234
14.439457893371582 13.8462190628051758 20.7508354187011719
11.9255580902099609 26.3770923614501953 20.8490924835205078
-9.06907749176025391 -0.433268040418624878 -2.3021390438079834
-7.26217126846313477 -2.75211787223815918 24.9219245910644531
16.6801643371582031 -26.8210983276367188 3.13547158241271973
16.6373939514160156 22.1404514312744141 9.30852985382080078
10.7468090057373047 -38.2538909912109375 1.18337881565093994
11.0673685073852539 -18.5649261474609375 -21.5538444519042969
19.0122566223144531 -18.1392898559570312 4.93670272827148438
-12.7503299713134766 1.46360635757446289 2.91954684257507324
-5.53757905960083008 -48.9370193481445312 7.1622314453125
17.1591453552246094 -20.840179443359375 11.0290212631225586
12.9964761734008789 22.7275810241699219 20.5408821105957031
19.6819362640380859 -12.4802684783935547 -4.76951408386230469
-16.9322509765625 -31.6521644592285156 16.6593551635742188
14.3803205490112305 21.6907329559326172 17.7850532531738281
7.06082057952880859 -14.1570281982421875 26.7779407501220703
-12.5424528121948242 11.9883365631103516 10.7387704849243164
-15.4613637924194336 -10.8194179534912109 16.4317836761474609
5.93853139877319336 -42.0536842346191406 9.20272922515869141
6.09110927581787109 -37.1665306091308594 17.0728302001953125
9.67029190063476562 -6.52487564086914062 -25.1408195495605469
-15.460749626159668 -8.25348472595214844 19.8110637664794922
18.6191787719726562 -10.9428577423095703 -11.2312078475952148
18.3998908996582031 -9.39782333374023438 14.0022420883178711
2.58145809173583984 43.8432655334472656 15.8406190872192383
0.510081827640533447 -23.6029300689697266 -27.2616844177246094
-10.3085222244262695 17.5770931243896484 -6.25240707397460938
-11.1618137359619141 34.99237060546875 10.888092041015625
20.6362514495849609 -0.692777335643768311 -0.242967888712882996
10.3903846740722656 -35.3860244750976562 11.8673563003540039
19.3648242950439453 -14.7062664031982422 -5.25845146179199219
-3.52397513389587402 49.5560226440429688 -6.09743690490722656
0.889404833316802979 -9.88298130035400391 27.2585716247558594
19.5945243835449219 0.443738937377929688 -9.30463981628417969
6.68147373199462891 43.71026611328125 15.7285308837890625
2.64604878425598145 -40.3210716247558594 -15.3532772064208984
6.2348017692565918 -7.06058216094970703 -26.8373603820800781
-3.92624068260192871 47.350341796875 -7.96096324920654297
5.47128105163574219 14.7603492736816406 26.5708847045898438
-9.77363681793212891 21.8529224395751953 -8.20157909393310547
9.27455997467041016 -34.0975875854492188 -13.8492870330810547
-6.5600285530090332 -12.5215425491333008 25.8942947387695312
15.9339084625244141 -26.0059738159179688 -7.53702783584594727
-7.48165178298950195 31.7974948883056641 21.8412628173828125
16.2196598052978516 24.5510940551757812 -4.85370683670043945
8.90322399139404297 -6.62802791595458984 -25.1869602203369141
20.6760139465332031 -3.18204903602600098 2.69917583465576172
1.15302622318267822 8.08519363403320312 25.6230430603027344
18.0216484069824219 3.64395356178283691 -14.6056737899780273
14.8622360229492188 24.5965747833251953 -12.9495687484741211
-6.90088939666748047 -30.9563350677490234 24.9222373962402344
-8.7349853515625 23.5695209503173828 -21.6048965454101562
2.6911013126373291 -46.5561714172363281 -0.849214375019073486
2.04330873489379883 48.9837493896484375 -6.26790094375610352
16.1979236602783203 -9.77414226531982422 18.6644477844238281
-13.0986967086791992 -8.13599967956542969 1.92730510234832764
12.9299802780151367 35.9910964965820312 -4.63703107833862305
-6.07305479049682617 -18.4804897308349609 26.3313083648681641
-16.4301948547363281 -31.3677272796630859 8.00349521636962891
12.0714139938354492 -34.2993545532226562 9.20966339111328125
-10.0210733413696289 30.4210700988769531 1.29138433933258057
12.1362619400024414 -32.3348007202148438 12.4202899932861328
15.4117031097412109 6.61005496978759766 20.4059543609619141
12.1035680770874023 -25.3276329040527344 18.5578403472900391
-15.7240476608276367 -16.6963005065917969 19.9581012725830078
7.11475706100463867 11.5638904571533203 -26.6723117828369141
-14.6490983963012695 -5.94151926040649414 13.0207538604736328
5.53928136825561523 48.5164604187011719 5.10281515121459961
13.1463537216186523 10.1991109848022461 23.2642955780029297
11.6261224746704102 27.7651290893554688 20.9290885925292969
10.6018772125244141 -34.2784461975097656 13.3184661865234375
-11.4479217529296875 3.98310065269470215 -11.6999197006225586
-3.66902637481689453 -33.9097785949707031 -23.5706443786621094
9.249481201171875 34.8966636657714844 20.6849193572998047
-8.40089893341064453 43.0998039245605469 -3.97942900657653809
11.5348834991455078 38.252532958984375 -8.8202972412109375
13.7529525756835938 9.828857421875 -23.0122108459472656
17.8172855377197266 18.2449378967285156 1.36874914169311523
-4.54477453231811523 -22.4742565155029297 27.1642570495605469
15.646153450012207 24.4807929992675781 -9.44000244140625
9.27284145355224609 -15.6562385559082031 25.4907112121582031
-13.9428777694702148 -28.3915996551513672 -18.5228958129882812
1.0259857177734375 46.7854461669921875 -11.3788156509399414
-11.2665481567382812 1.25460481643676758 -18.7841014862060547
-11.6011667251586914 -3.82928109169006348 -20.3850212097167969
-12.7287473678588867 -6.17130661010742188 -8.51221084594726562
14.8233070373535156 29.6418190002441406 -1.36778676509857178
-2.98047733306884766 49.5158767700195312 -5.88199901580810547
18.1558017730712891 -13.4932231903076172 -11.3505363464355469
16.9820823669433594 22.7547721862792969 3.8915705680847168
13.6853466033935547 30.0714263916015625 12.5691957473754883
-11.4184541702270508 1.97223794460296631 0.0119868423789739609
-5.16210746765136719 -24.5779190063476562 26.9468898773193359
-7.73874139785766602 20.0527153015136719 -23.7783985137939453
-10.2556915283203125 20.8675003051757812 -5.51117706298828125
-13.4695291519165039 -31.5616989135742188 -19.2995147705078125
4.41996574401855469 34.5321502685546875 25.1605644226074219
5.62454986572265625 -14.4804792404174805 27.5871734619140625
-4.24664545059204102 37.0137367248535156 21.5711002349853516
1.31262838840484619 12.6808509826660156 -26.3098678588867188
-16.1083316802978516 -14.3111963272094727 19.3729095458984375
13.5633831024169922 32.255859375 -1.3056102991104126
-9.07766819000244141 36.6233634948730469 -3.02775812149047852
-12.3590383529663086 20.1257114410400391 14.8629865646362305
8.77454280853271484 42.9773483276367188 -12.694793701171875
16.6656265258789062 16.8382797241210938 -12.5315017700195312
6.57961702346801758 3.16552543640136719 26.2905025482177734
0.973662853240966797 -46.8340682983398438 -5.24329948425292969
-6.70591354370117188 -49.3574180603027344 -1.44994115829467773
-12.4269256591796875 11.5125999450683594 7.94323444366455078
-15.4758577346801758 -33.7819671630859375 -4.98707151412963867
14.5961971282958984 30.7062263488769531 5.23780679702758789
-9.84271812438964844 24.7882061004638672 -4.32796335220336914
11.6577062606811523 -0.753011107444763184 -24.2284049987792969
11.1118087768554688 41.0975914001464844 -2.89834046363830566
17.2942829132080078 19.3309535980224609 -7.07692527770996094
12.1439151763916016 -32.5925521850585938 -10.1131105422973633
17.0074939727783203 20.4027576446533203 -3.7852783203125
-1.04330432415008545 26.2074928283691406 26.3921127319335938
-16.6749992370605469 -24.8057823181152344 13.8967208862304688
-3.3653712272644043 -40.3649215698242188 -18.1676197052001953
-6.16333818435668945 -47.3281478881835938 11.4269247055053711
-11.0418491363525391 24.2222824096679688 7.48603343963623047
-14.0058450698852539 -4.37428665161132812 8.03041458129882812
9.95247840881347656 -33.9434356689453125 15.1151857376098633
17.8450412750244141 7.08237409591674805 15.1733131408691406
18.7353878021240234 -0.00988574326038360596 -12.7429141998291016
-6.85036468505859375 32.4435653686523438 22.0759849548339844
12.1964607238769531 25.8787899017333984 20.4759941101074219
19.1937141418457031 -16.0889911651611328 -3.70590806007385254
18.8354682922363281 6.11796903610229492 -10.3006486892700195
-10.268589973449707 -15.4836435317993164 -24.2076969146728516
15.7119464874267578 -12.9843587875366211 -17.2487831115722656
-14.0747509002685547 -26.5989799499511719 -17.7054462432861328
15.2908382415771484 -28.0400638580322266 8.74549961090087891
-14.5006198883056641 -4.47334957122802734 20.69732666015625
19.70867919921875 -5.26614713668823242 -9.27669048309326172
6.03142881393432617 30.7501010894775391 -27.6675376892089844
11.0265560150146484 -29.3167152404785156 -15.6948585510253906
3.48811745643615723 2.26716327667236328 26.3253211975097656
6.44579935073852539 16.1001415252685547 -27.0069160461425781
14.9795551300048828 27.7848281860351562 -8.53983974456787109
-7.17030477523803711 -8.04191303253173828 25.3300914764404297
-8.74037933349609375 34.3398323059082031 -7.68552255630493164
2.97200989723205566 40.3792572021484375 -21.9265270233154297
-6.05673074722290039 49.3650779724121094 1.23775482177734375
17.0752372741699219 15.3117961883544922 -12.1838064193725586
-9.39991855621337891 25.3678455352783203 -10.080866813659668
-13.7690610885620117 -22.2891902923583984 22.7621517181396484
-4.52885532379150391 -42.3765640258789062 17.1666984558105469
-0.0893054381012916565 -36.1138343811035156 -21.3877449035644531
-3.73795461654663086 -35.8019981384277344 -21.6572341918945312
13.0870208740234375 18.1543331146240234 22.3775844573974609
7.73963308334350586 -2.93586897850036621 -26.7915477752685547
-9.86019802093505859 13.227717399597168 22.8125419616699219
-8.09283828735351562 39.9933815002441406 -11.7427654266357422
-11.568603515625 -43.0374870300292969 14.2347631454467773
-10.1869592666625977 28.7676544189453125 2.04711437225341797
-14.3590707778930664 -9.67385768890380859 7.41350650787353516
-10.3024911880493164 13.4624261856079102 -13.1147623062133789
-5.54329299926757812 8.02515602111816406 24.4830322265625
-10.5676336288452148 27.5272102355957031 5.31420564651489258
-5.17143440246582031 20.8829803466796875 -25.1022930145263672
-3.95863175392150879 -38.2999458312988281 22.5230293273925781
8.27707290649414062 -28.6366939544677734 21.6435928344726562
6.45356893539428711 44.3676033020019531 -15.7052373886108398
-9.02348136901855469 27.01348876953125 -11.8793067932128906
2.41173672676086426 7.62727594375610352 -26.0658206939697266
7.62372398376464844 -41.9569625854492188 2.34725713729858398
4.57122707366943359 2.75011062622070312 -26.1623210906982422
17.2445163726806641 -15.3389644622802734 -12.7166919708251953
8.95530033111572266 -11.9994497299194336 26.0972633361816406
-14.6799440383911133 1.74065589904785156 18.6185016632080078
-7.09447383880615234 -8.95894432067871094 -0.07001466304063797
-2.16474294662475586 48.8452377319335938 -7.05902385711669922
7.77319717407226562 42.7498321533203125 16.2808837890625
19.890655517578125 3.54012060165405273 9.0356597900390625
10.1747522354125977 -2.06675028800964355 26.0149745941162109
-14.4517736434936523 -28.7661819458007812 -16.2644996643066406
14.4594106674194336 30.0184764862060547 -7.54033565521240234
11.9587001800537109 -21.719482421875 -19.1648368835449219
10.6911706924438477 28.5213718414306641 22.3730945587158203
-8.27132701873779297 10.7783889770507812 -24.2635021209716797
8.83917713165283203 17.7662220001220703 -26.6710166931152344
19.7728481292724609 7.35733985900878906 6.11862850189208984
14.0134944915771484 32.403472900390625 -4.91908168792724609
18.9972782135009766 12.563685417175293 5.4998326301574707
9.83900642395019531 -13.4234189987182617 25.2794036865234375
-13.1619319915771484 -19.8769359588623047 -19.969970703125
-14.6016416549682617 -26.8107357025146484 -9.05554485321044922
-8.90119075775146484 -43.1459999084472656 -14.2814836502075195
-0.0941241458058357239 -4.12802743911743164 26.3354454040527344
2.4523460865020752 -11.7262182235717773 -26.5891952514648438
-4.45001077651977539 8.89959049224853516 -25.6346988677978516
-13.4088230133056641 -33.05670166015625 21.1721286773681641
-6.63720893859863281 -33.8585281372070312 -22.9883956909179688
-11.3984518051147461 17.5965480804443359 4.15141725540161133
-8.44002342224121094 -47.4348716735839844 -9.25146770477294922
12.8206195831298828 21.2490386962890625 21.8854293823242188
1.28693604469299316 48.7429962158203125 -7.10220193862915039
-13.8896026611328125 -22.1874561309814453 -10.3647518157958984
-0.646748006343841553 -23.2386569976806641 -26.8376293182373047
13.3094291687011719 -16.1616859436035156 21.1299324035644531
4.01535224914550781 -44.2807540893554688 -6.39027643203735352
16.7900886535644531 -9.52694988250732422 17.6977577209472656
-12.8111190795898438 13.0511913299560547 14.3541383743286133
1.92807984352111816 26.8145523071289062 27.144744873046875
-12.2528800964355469 24.6815395355224609 17.029205322265625
13.8321914672851562 32.25909423828125 8.53185367584228516
-9.6111907958984375 17.4392318725585938 -15.5159692764282227
7.43768215179443359 -17.6308135986328125 26.1454734802246094
10.1267280578613281 41.4858627319335938 -9.65911769866943359
-2.03626751899719238 -33.4670562744140625 -22.6101932525634766
-6.60597801208496094 43.0339508056640625 -12.9900636672973633
-10.1099023818969727 -21.3967075347900391 -23.9981174468994141
11.6263637542724609 35.3182144165039062 14.2211198806762695
0.477166175842285156 -11.0662126541137695 27.2608661651611328
-13.524724006652832 2.7750096321105957 9.11549568176269531
-11.4589986801147461 24.6248264312744141 19.7561321258544922
10.7515020370483398 -4.69952964782714844 -24.6476593017578125
17.5989246368408203 18.81121826171875 2.19940662384033203
-6.19735431671142578 -0.30357930064201355 24.8217182159423828
1.94257688522338867 23.3813381195068359 -27.4897403717041016
10.2436132431030273 -6.60092878341674805 -24.8540458679199219
14.2449932098388672 -0.307941079139709473 23.2239360809326172
20.5486202239990234 -6.34476661682128906 1.97255361080169678
-12.2555742263793945 -46.1004600524902344 0.393371462821960449
-10.0060281753540039 -11.3346834182739258 -24.2427558898925781
-8.37944698333740234 41.9060287475585938 -6.29997587203979492
12.3587369918823242 13.6542882919311523 23.4271697998046875
-2.68333530426025391 -46.9243545532226562 -9.70612621307373047
14.8574132919311523 -2.83867168426513672 21.8745460510253906
-12.2843818664550781 -1.80031359195709229 22.8820095062255859
10.7074441909790039 21.4636974334716797 -23.2810916900634766
13.143458366394043 14.1317968368530273 -22.8199405670166016
5.40628528594970703 -15.5440206527709961 -25.9214267730712891
-3.11242461204528809 49.9086151123046875 -2.09463071823120117
-3.85406017303466797 23.1507740020751953 -25.5899200439453125
-13.9811267852783203 -9.61908245086669922 3.60866236686706543
3.06000876426696777 41.2919387817382812 19.1134853363037109
-3.87865567207336426 41.9997100830078125 -17.4764251708984375
13.760258674621582 11.4895515441894531 -23.0645427703857422
-7.75327014923095703 47.8503684997558594 -1.91330325603485107
-4.69413042068481445 -36.5813179016113281 -21.3869419097900391
18.6355457305908203 0.442308813333511353 -13.0835075378417969
13.7357416152954102 33.49395751953125 -4.64329957962036133
-17.0341682434082031 -34.2313919067382812 10.4017171859741211
-13.1809568405151367 -33.4141578674316406 -18.8293914794921875
-0.933069705963134766 -48.5321235656738281 2.44282221794128418
-0.441409200429916382 -46.3861656188964844 -8.48688316345214844
20.3886623382568359 2.66959691047668457 -2.58389592170715332
-8.25328254699707031 9.97215080261230469 23.6099414825439453
-11.1924476623535156 26.0364456176757812 9.21929550170898438
12.5875425338745117 36.7925491333007812 5.35482072830200195
-2.39472484588623047 30.2601356506347656 25.5609664916992188
2.10584712028503418 -44.9861068725585938 -8.37395191192626953
2.3375086784362793 8.29433917999267578 -26.0179634094238281
2.03091979026794434 47.3563613891601562 -10.1765432357788086
7.50437259674072266 41.9093971252441406 17.761322021484375
-6.43257951736450195 -40.9484176635742188 19.4939632415771484
-10.7753410339355469 5.53744411468505859 -19.4119186401367188
-10.4182987213134766 17.1483783721923828 -5.40819883346557617
15.4013471603393555 17.0115089416503906 -16.8923225402832031
14.3576850891113281 -5.61774539947509766 22.3796024322509766
-11.0035848617553711 31.0819282531738281 9.30596351623535156
17.9680423736572266 11.4829187393188477 -11.0876054763793945
-14.0479393005371094 -19.9282455444335938 -7.89499855041503906
8.35273933410644531 13.9246978759765625 -26.3887195587158203
-14.2827005386352539 -43.3852424621582031 -3.36811423301696777
-10.8942413330078125 2.91977500915527344 -21.2327156066894531
19.1773815155029297 -7.87175941467285156 12.0023765563964844
17.8283596038818359 25.1382045745849609 1.20225620269775391
-2.10262584686279297 33.7520217895507812 24.5737934112548828
-6.92676734924316406 39.707611083984375 -16.787567138671875
4.38511896133422852 11.1915006637573242 -26.4310932159423828
-16.1438121795654297 -25.7314205169677734 20.1026725769042969
-14.9680910110473633 -41.8803863525390625 -5.3697509765625
-15.6779766082763672 -26.5268688201904297 20.8538417816162109
-9.92309093475341797 -10.9414472579956055 -2.05285286903381348
14.0049324035644531 -31.6983871459960938 -4.75963783264160156
1.6174323558807373 -40.4642105102539062 17.8282356262207031
19.7237186431884766 -1.4267122745513916 -8.74415683746337891
-15.0481052398681641 -6.73183155059814453 16.4673843383789062
-12.4431819915771484 -6.20962667465209961 -10.1705331802368164
0.292771011590957642 27.8162765502929688 -27.2028484344482422
-6.4446253776550293 -40.8486976623535156 19.3787498474121094
12.5066184997558594 35.4218673706054688 -9.10331153869628906
12.3024187088012695 2.60382437705993652 -24.0064544677734375
-14.4568748474121094 -35.0496292114257812 19.2094573974609375
12.7059221267700195 -17.5059680938720703 21.51336669921875
-10.2063312530517578 2.58342766761779785 -23.3456916809082031
16.8109645843505859 13.5478382110595703 15.5456790924072266
20.4405765533447266 -2.03602099418640137 -4.32753705978393555
10.2625494003295898 42.796051025390625 -5.76188516616821289
-15.0177516937255859 -25.7352294921875 21.4530773162841797
9.65884017944335938 -38.0512008666992188 -7.3269648551940918
-15.1309337615966797 -19.8373146057128906 5.55425834655761719
-10.5344114303588867 -0.104372859001159668 -23.2027835845947266
10.7764883041381836 -14.4362821578979492 -23.4243144989013672
12.3936738967895508 36.9334945678710938 -0.191314548254013062
6.53839015960693359 24.7564754486083984 27.3504638671875
-10.2699203491210938 -9.97597980499267578 1.43554604053497314
4.24168205261230469 -44.2287445068359375 -6.08368158340454102
7.88004732131958008 12.2191162109375 26.4614467620849609
9.26822280883789062 -28.0700588226318359 20.8387546539306641
15.422795295715332 -5.89707374572753906 -19.4540691375732422
9.32781982421875 45.3197364807128906 0.0507922805845737457
-13.2436094284057617 3.62172389030456543 6.77456092834472656
-10.0237483978271484 28.3305149078369141 -0.0799669995903968811
3.42322516441345215 28.9169387817382812 -28.1531448364257812
-16.6469478607177734 -31.7367801666259766 10.348423957824707
6.08845901489257812 -37.770416259765625 -14.6151275634765625
1.15445244312286377 4.38003158569335938 25.8635959625244141
15.4406414031982422 -29.1271286010742188 4.57314634323120117
-14.3767032623291016 -25.2397384643554688 -10.9151010513305664
-14.7389612197875977 -21.5487346649169922 -3.41575884819030762
10.148900032043457 43.4888725280761719 -2.38708639144897461
10.5082168579101562 -37.8319435119628906 5.75409364700317383
-9.13727283477783203 20.3803176879882812 -17.5036411285400391
-12.4290933609008789 19.0095138549804688 14.9691066741943359
7.23940944671630859 48.5866012573242188 -1.81645262241363525
16.5401477813720703 13.8496980667114258 16.2069931030273438
-15.4343061447143555 -15.5657033920288086 20.7431221008300781
-10.151982307434082 11.1834268569946289 -17.5023994445800781
-11.2100515365600586 5.61384057998657227 -14.406193733215332
-12.7147703170776367 -32.76470947265625 -19.7173118591308594
12.9530029296875 -29.8525009155273438 -11.2750682830810547
-13.7515945434570312 -21.4337787628173828 -12.3760871887207031
11.6516904830932617 -30.8163948059082031 15.154545783996582
-5.32092857360839844 -42.9671287536621094 17.2833881378173828
15.8082647323608398 22.8582668304443359 12.0499868392944336
15.3261604309082031 27.9740352630615234 -4.56466913223266602
3.21997761726379395 -26.8491706848144531 25.8911266326904297
16.9290332794189453 16.9269027709960938 -11.0920991897583008
18.8230094909667969 11.5171737670898438 8.24752044677734375
-1.96789443492889404 -18.1907100677490234 27.6186389923095703
11.6823854446411133 -16.4457626342773438 23.0521297454833984
10.6371402740478516 20.6053066253662109 -23.9104976654052734
-1.59333992004394531 30.1814441680908203 -26.088226318359375
5.21302509307861328 -44.3776931762695312 -2.35167622566223145
-9.66897487640380859 7.65545320510864258 -23.3427982330322266
17.3787860870361328 -20.8630714416503906 10.2233505249023438
-13.0716514587402344 8.50660037994384766 9.75080013275146484
-15.196131706237793 -26.0412864685058594 -0.233384519815444946
-3.48067331314086914 23.6689262390136719 24.9567604064941406
-15.1504631042480469 -22.6619300842285156 21.6081600189208984
-10.1770801544189453 11.0905237197875977 -21.6141948699951172
-11.4911394119262695 30.6000442504882812 15.1109466552734375
12.8263177871704102 -31.4212970733642578 -9.61404228210449219
-4.0080413818359375 -40.49249267578125 20.5727672576904297
0.0633119717240333557 -9.36643695831298828 -26.39959716796875
20.4978446960449219 -7.63449668884277344 2.6069793701171875
20.5168495178222656 -4.69616508483886719 -3.18182873725891113
-13.718409538269043 -25.0429420471191406 -18.7714004516601562
-8.47008800506591797 27.6661224365234375 -18.5402812957763672
5.53139305114746094 28.0573310852050781 27.3020038604736328
-13.2465763092041016 7.6507568359375 11.3806962966918945
-13.0883960723876953 -42.4674491882324219 12.7041902542114258
-12.152557373046875 -3.25056910514831543 -10.6723175048828125
18.7366828918457031 10.9884185791015625 -7.59146261215209961
-15.473505973815918 -27.2217903137207031 20.9036636352539062
-6.77106046676635742 -12.9057397842407227 25.8905601501464844
12.5635309219360352 33.3252754211425781 -12.1869068145751953
-10.1212368011474609 -18.7050666809082031 -24.1363964080810547
-8.58477020263671875 -1.08507263660430908 -1.82254064083099365
-12.0154104232788086 -39.1901397705078125 -15.5906896591186523
13.1225137710571289 32.2645187377929688 0.00641738343983888626
-3.9807581901550293 3.12485194206237793 -25.6730690002441406
-3.00559186935424805 17.6665191650390625 -25.7943305969238281
15.3864030838012695 -11.5086841583251953 -18.3046665191650391
3.89385080337524414 48.4889945983886719 3.41097712516784668
-14.8932476043701172 -23.3289852142333984 -2.51766157150268555
5.6029963493347168 31.7791900634765625 -27.0550441741943359
-12.0309324264526367 -6.44079303741455078 1.34051382541656494
0.635659158229827881 -44.7788963317871094 12.4317588806152344
-0.357007682323455811 12.8931694030761719 -25.9667987823486328
-11.42767333984375 20.0274181365966797 6.38823366165161133
3.23633360862731934 -35.7997016906738281 -19.2573146820068359
14.4210424423217773 13.5017786026000977 20.8684921264648438
20.6351089477539062 -3.58645081520080566 2.5218660831451416
-11.5323953628540039 -1.74905598163604736 -18.9467716217041016
-7.86041259765625 -25.7274456024169922 25.6028900146484375
6.14925956726074219 2.05648112297058105 -26.1487693786621094
0.347392946481704712 12.9088859558105469 -26.1526985168457031
14.8494939804077148 3.68236374855041504 22.5298423767089844
19.4856643676757812 7.56186008453369141 8.32108497619628906
-14.6159286499023438 -27.2690238952636719 -11.1968708038330078
-9.03100395202636719 33.3944320678710938 19.516845703125
-16.4215888977050781 -33.426666259765625 7.11156368255615234
-13.7060470581054688 -44.0296134948730469 -3.2396538257598877
-11.7758417129516602 -34.7853279113769531 21.4739742279052734
-9.14868545532226562 27.6181602478027344 -9.62965106964111328
-8.72266006469726562 43.8107681274414062 -0.523718476295471191
6.474609375 -40.6199378967285156 11.190495491027832
-9.19902610778808594 26.8187408447265625 -9.34187126159667969
17.4344272613525391 -24.9843769073486328 0.278887540102005005
19.4040737152099609 -16.8455810546875 3.78579998016357422
0.259672105312347412 18.0033378601074219 -26.379608154296875
10.6234512329101562 -10.3732795715332031 24.9128379821777344
-12.2512226104736328 -45.1010894775390625 -4.22891950607299805
5.35803604125976562 36.0797309875488281 -25.4320507049560547
-3.26113009452819824 -20.3200931549072266 27.4131278991699219
6.983978271484375 -40.1682090759277344 -9.80820941925048828
-8.81957340240478516 43.7202415466308594 1.15626025199890137
-15.0736150741577148 -15.2193670272827148 8.65799522399902344
-8.28303718566894531 44.3695564270019531 -5.54449176788330078
0.670063614845275879 47.8345756530761719 -8.40931034088134766
5.63031816482543945 45.9417304992675781 12.4222650527954102
-4.79732942581176758 17.492401123046875 24.254302978515625
-9.02872657775878906 43.1109085083007812 5.33706521987915039
-3.17130041122436523 42.6783638000488281 -17.0647087097167969
9.05817031860351562 46.1292381286621094 3.06410837173461914
4.07886552810668945 36.1181793212890625 24.2674999237060547
14.4331626892089844 -31.9510154724121094 2.42938733100891113
-15.242548942565918 -29.5045795440673828 -1.68301653861999512
6.98830747604370117 33.7284698486328125 -25.34625244140625
3.70482707023620605 12.0869274139404297 -26.3896846771240234
4.62474489212036133 -16.4170322418212891 -26.6270408630371094
11.4769973754882812 -19.7652759552001953 22.1990203857421875
12.5183696746826172 -18.9117279052734375 -19.7810115814208984
2.40707659721374512 35.2681808471679688 -25.7816390991210938
-10.6715812683105469 28.1524219512939453 6.37486362457275391
16.5302371978759766 15.5683393478393555 15.3291749954223633
7.5822300910949707 -28.5812397003173828 22.3294506072998047
13.6121978759765625 -32.4069328308105469 6.7723393440246582
-10.2973499298095703 0.551532745361328125 -0.353015035390853882
-11.3307399749755859 31.3107814788818359 11.5354766845703125
-3.33288478851318359 40.1189346313476562 -19.5838546752929688
-3.2198183536529541 -32.9679641723632812 -23.9202556610107422
2.22949576377868652 44.0043373107910156 15.5222616195678711
-0.430019527673721313 29.1065196990966797 -26.7529277801513672
-1.77514374256134033 25.6539726257324219 -26.5079517364501953
-11.1337699890136719 17.0223484039306641 0.546241283416748047
-16.3206214904785156 -33.4686012268066406 7.71243858337402344
19.7017631530761719 9.13384151458740234 -1.04046010971069336
-11.4897298812866211 12.7979879379272461 1.31114411354064941
20.1756725311279297 1.84589028358459473 7.38126134872436523
13.1644315719604492 33.33758544921875 -8.59777641296386719
4.02836322784423828 47.1421661376953125 -11.4756565093994141
18.3967742919921875 -9.46272850036621094 -12.4760227203369141
-14.7817344665527344 -0.68198692798614502 17.6846847534179688
4.00093746185302734 -7.62509059906005859 -26.38525390625
11.832005500793457 -20.4174919128417969 -20.0140571594238281
-7.99517059326171875 21.6038665771484375 -23.3937740325927734
-12.3983230590820312 -35.5125694274902344 -18.6385173797607422
1.66824853420257568 50.050872802734375 -2.87671589851379395
17.2416133880615234 -8.58404541015625 17.0850543975830078
2.13122129440307617 -31.6968173980712891 24.6823673248291016
18.6170196533203125 6.83261537551879883 13.2237749099731445
-16.9865589141845703 -36.2187843322753906 13.1482563018798828
-10.0062503814697266 -41.2494392395019531 18.5252609252929688
-12.5351228713989258 -5.67941188812255859 -11.2969226837158203
3.59416961669921875 -31.4394893646240234 23.7675495147705078
16.8406410217285156 -26.5130367279052734 0.0535510070621967316
0.280364274978637695 47.7418327331542969 -8.48249340057373047
3.76931571960449219 -42.0441703796386719 13.2728195190429688
-8.57979011535644531 -11.6866397857666016 -25.0457668304443359
-16.1873874664306641 -38.5227394104003906 -0.0513762719929218292
-14.2060508728027344 -16.3829898834228516 1.13658666610717773
-11.0905380249023438 4.47273683547973633 -15.0472030639648438
-11.0483169555664062 6.67282867431640625 -14.7077550888061523
8.58201217651367188 31.573699951171875 -24.2828712463378906
14.7704811096191406 9.53448104858398438 -21.8458995819091797
18.2975349426269531 -14.4945535659790039 -10.2269268035888672
10.2673377990722656 -23.9983844757080078 -20.145843505859375
2.76385498046875 -23.1056232452392578 -25.3814620971679688
-7.86178064346313477 -45.0710029602050781 12.20452880859375
-3.6541144847869873 17.5228176116943359 24.5768184661865234
18.2132072448730469 4.43665027618408203 -13.310791015625
-13.1044178009033203 8.19036293029785156 9.86049747467041016
16.0390853881835938 1.07999336719512939 -19.2186813354492188
14.2086992263793945 -17.7229728698730469 19.2802181243896484
-9.76724433898925781 -5.71536064147949219 -3.14826321601867676
-7.26804256439208984 -48.0911750793457031 1.95625019073486328
15.0300464630126953 -13.2838296890258789 -18.2556056976318359
14.7445230484008789 23.3231449127197266 -14.8062667846679688
-11.5363788604736328 -35.6979942321777344 21.0981674194335938
-9.17872524261474609 40.7346153259277344 11.9276008605957031
-8.84215068817138672 -38.9208412170410156 -18.8593254089355469
17.2076969146728516 6.58207130432128906 -15.8053970336914062
-6.95037984848022461 39.9150466918945312 15.7910375595092773
-13.5362482070922852 -29.2727565765380859 -19.6551170349121094
-11.1179113388061523 29.1378498077392578 10.8476428985595703
-11.5927162170410156 -42.5094833374023438 -10.7996120452880859
17.0928630828857422 12.5893526077270508 15.0899839401245117
15.1003141403198242 -9.57678794860839844 20.3694496154785156
-13.9674358367919922 -16.2759685516357422 -0.065173022449016571
-3.79947900772094727 43.618865966796875 -15.0304336547851562
-8.68765640258789062 43.7670402526855469 6.89981555938720703
1.05135548114776611 41.6857986450195312 18.809539794921875
-8.53475284576416016 -47.0728607177734375 1.61318385601043701
-15.50665283203125 -10.0694360733032227 17.0132217407226562
2.61314868927001953 -18.5941047668457031 28.0110397338867188
-1.10296070575714111 44.3650436401367188 -15.6521596908569336
-0.837499380111694336 38.8281173706054688 -22.1315135955810547
-8.49824810028076172 44.3234443664550781 -2.85792350769042969
-15.2436752319335938 -30.7824764251708984 -3.97554349899291992
19.6299495697021484 -13.5150566101074219 -4.54889488220214844
18.3378772735595703 13.1080570220947266 9.46549701690673828
11.4615707397460938 7.86664009094238281 -24.7971706390380859
-6.37520551681518555 49.5183448791503906 -0.389816880226135254
14.7648391723632812 -31.1437644958496094 3.34414911270141602
18.8712501525878906 -19.7356700897216797 1.29819333553314209
-17.1329784393310547 -27.5929965972900391 14.7402095794677734
-16.5519123077392578 -37.4752769470214844 4.09146499633789062
-8.0844268798828125 28.3409290313720703 -21.7674751281738281
19.5256710052490234 10.1306371688842773 -1.25886952877044678
3.86468863487243652 46.7889785766601562 10.4177379608154297
-14.2629537582397461 -3.33583450317382812 20.9265499114990234
-8.22173213958740234 -25.9099712371826172 -24.5546131134033203
-7.74967622756958008 3.80170512199401855 -24.9367599487304688
-12.6268758773803711 3.34670805931091309 2.41469812393188477
-11.1834983825683594 -46.0089874267578125 9.76891994476318359
8.59456443786621094 39.2561721801757812 18.2294750213623047
-10.0191793441772461 20.5980167388916016 -7.14837265014648438
-6.56042337417602539 -35.2007827758789062 -22.4192104339599609
-5.54700899124145508 -11.286036491394043 25.9771995544433594
-10.2991762161254883 3.13455939292907715 -23.0775146484375
-12.3568248748779297 -8.17286777496337891 -15.2736749649047852
15.8561954498291016 -7.15400314331054688 19.6555423736572266
15.8499088287353516 17.15496826171875 16.5090217590332031
17.4110431671142578 -21.4828128814697266 9.61668777465820312
-9.38083171844482422 -3.66504693031311035 -2.81551718711853027
-8.77304935455322266 24.0626411437988281 -20.9165000915527344
-7.319976806640625 23.5376529693603516 -23.6403331756591797
-7.82921791076660156 27.3398227691650391 22.4852104187011719
-12.3721294403076172 -8.80224132537841797 -17.3384990692138672
-11.6174297332763672 7.08694744110107422 -5.76542997360229492
4.32655429840087891 14.6000480651855469 -26.5944938659667969
2.04058647155761719 -14.6700439453125 -26.4276809692382812
-2.98948836326599121 0.997547149658203125 25.5289497375488281
10.9693031311035156 -23.9814910888671875 -19.1744041442871094
-16.6942653656005859 -23.8051242828369141 18.3915367126464844
10.682612419128418 40.86639404296875 8.06813144683837891
-10.1997585296630859 -9.5103607177734375 -24.0344390869140625
1.57828545570373535 48.8944358825683594 2.44851565361022949
13.8741750717163086 13.3740921020507812 22.385345458984375
11.0682287216186523 40.100433349609375 -7.21696281433105469
18.5876426696777344 11.2959737777709961 -8.330657958984375
-15.4031896591186523 -12.2793712615966797 15.2097816467285156
18.0508956909179688 23.811676025390625 0.0935542136430740356
-7.95880126953125 29.798553466796875 -21.45599365234375
3.3654327392578125 -41.0895347595214844 -13.6691188812255859
8.82725429534912109 -10.2786006927490234 26.2945289611816406
17.3983116149902344 -24.2378940582275391 5.26082515716552734
4.58362102508544922 45.4161109924316406 13.5398139953613281
-14.2585897445678711 -24.4907283782958984 -11.5186738967895508
-14.7131795883178711 -21.0239677429199219 -3.82609677314758301
-4.58139467239379883 -26.5330162048339844 -25.6542015075683594
2.17095184326171875 -24.1067829132080078 27.1820831298828125
-2.60791778564453125 -35.0636444091796875 -21.8338775634765625
3.5899348258972168 -37.9494857788085938 19.0362758636474609
0.514406144618988037 25.481109619140625 -27.2470893859863281
11.1004705429077148 35.3478431701660156 -15.444366455078125
1.6356891393661499 29.7246971130371094 -27.5932979583740234
-12.9503421783447266 -14.6609535217285156 -15.3792047500610352
-3.00177931785583496 17.4942569732666016 -25.8239078521728516
11.9233646392822266 -16.0942764282226562 -21.6008625030517578
2.41390633583068848 -2.08670282363891602 26.4782142639160156
-11.2624330520629883 18.4728069305419922 4.82151889801025391
13.748870849609375 -10.4925260543823242 -20.834808349609375
18.52093505859375 -15.5979766845703125 -8.25111293792724609
-11.1976499557495117 32.3601226806640625 9.90027809143066406
-14.7022333145141602 -3.02777814865112305 15.7718505859375
4.634002685546875 -39.3305206298828125 16.0248260498046875
-14.3834962844848633 -22.2286968231201172 -6.9837498664855957
-3.7864069938659668 27.3212680816650391 -25.3718376159667969
15.1976184844970703 24.8195381164550781 12.7093629837036133
-11.4306850433349609 -26.3265876770019531 -22.7575187683105469
-9.37432289123535156 40.4374046325683594 2.56074810028076172
0.370540380477905273 41.3722991943359375 -20.326904296875
19.577484130859375 8.85938644409179688 -3.70099663734436035
6.2801814079284668 -26.5180034637451172 24.5029067993164062
7.61316680908203125 32.1541366577148438 -25.9406623840332031
12.4850177764892578 16.9908065795898438 -22.9248638153076172
10.8388242721557617 39.2516441345214844 11.329258918762207
3.36774969100952148 8.58225917816162109 26.0123748779296875
12.4765291213989258 34.4476776123046875 -11.0726089477539062
20.5111846923828125 -4.99024629592895508 -3.05542087554931641
4.39838171005249023 -11.1630144119262695 -26.8153018951416016
20.3967571258544922 -8.00000762939453125 0.549530863761901855
-0.402212083339691162 -24.8913631439208984 26.9633731842041016
-6.1813507080078125 24.7157096862792969 23.8030338287353516
17.6402263641357422 8.18142414093017578 -13.9023380279541016
-13.8843612670898438 -30.7992954254150391 21.2552471160888672
8.30268287658691406 -32.4214324951171875 -16.9860439300537109
16.1239528656005859 -26.5639324188232422 7.95933341979980469
-9.359375 28.5091094970703125 -5.13698816299438477
13.5168285369873047 18.9115867614746094 21.26751708984375
-7.41269588470458984 -31.7354049682617188 24.6566219329833984
14.9037055969238281 11.4323081970214844 -19.7302780151367188
-13.8037786483764648 -30.3363876342773438 -19.0716114044189453
-8.41580867767333984 -38.0271530151367188 21.22216796875
9.42106056213378906 4.55952596664428711 -25.4058799743652344
-13.3321466445922852 12.3963985443115234 16.8699703216552734
-9.94727230072021484 16.4962310791015625 -12.6650753021240234
17.1705741882324219 -19.4295864105224609 12.1221675872802734
15.8673830032348633 -27.9771595001220703 6.03496265411376953
16.7672557830810547 22.5709419250488281 -5.15359210968017578
20.0020503997802734 4.37249135971069336 7.1906580924987793
-9.19858646392822266 14.8290109634399414 -22.7325439453125
3.81235885620117188 23.2081851959228516 -28.1404018402099609
-10.0190620422363281 -13.0324220657348633 -24.2444210052490234
16.8827724456787109 -15.0210504531860352 15.3731241226196289
-13.0482578277587891 17.2949962615966797 18.1002330780029297
-14.412959098815918 -20.1607742309570312 -5.22180891036987305
-10.5380182266235352 8.53890800476074219 -19.1497631072998047
-7.21963405609130859 46.4101142883300781 2.31854033470153809
-11.6302461624145508 -18.5755176544189453 -23.1660728454589844
-10.6168994903564453 17.1479434967041016 -4.47100830078125
14.1494150161743164 -7.48917388916015625 -21.1613407135009766
20.6281261444091797 1.37516260147094727 -0.173962622880935669
-4.54631853103637695 -47.6015625 10.5862216949462891
-15.8284969329833984 -20.3060111999511719 20.6110744476318359
8.01529026031494141 37.4721641540527344 21.0796318054199219
13.1080760955810547 -31.61224365234375 10.7291154861450195
3.94925284385681152 -42.5621681213378906 12.2760963439941406
-14.6953630447387695 -18.8762588500976562 3.85759663581848145
-6.87481021881103516 -8.75165462493896484 25.4830818176269531
-14.4529962539672852 -10.0428028106689453 7.55969429016113281
2.93468141555786133 -35.3746147155761719 -19.7669963836669922
12.0655727386474609 -34.8915061950683594 -6.52685022354125977
14.092437744140625 -32.5811195373535156 3.74382758140563965
-12.4142494201660156 -8.50742912292480469 -15.0166120529174805
-11.7719583511352539 -0.655350267887115479 -14.1674995422363281
-4.53180408477783203 -40.2793426513671875 -18.1360797882080078
-10.5881805419921875 25.7127819061279297 20.5835742950439453
11.6094818115234375 16.40185546875 23.9868659973144531
0.830795466899871826 22.9543590545654297 26.6645221710205078
-4.59478378295898438 9.82452678680419922 -25.5767555236816406
-12.5219154357910156 -6.22878074645996094 -4.9691777229309082
-13.7235441207885742 7.66395854949951172 15.691716194152832
-10.5637807846069336 20.9360485076904297 -0.826280593872070312
-8.80574321746826172 35.7289657592773438 -7.2739410400390625
9.73351001739501953 21.8636665344238281 24.9711570739746094
4.19684982299804688 -44.9464225769042969 4.14673233032226562
18.9734535217285156 13.114314079284668 -2.17023205757141113
8.22842502593994141 8.07862281799316406 -26.2507457733154297
8.40151691436767578 25.8011264801025391 -26.2654285430908203
-11.9484157562255859 3.001373291015625 -2.00575113296508789
-14.4467334747314453 -16.8767681121826172 -2.26397347450256348
10.862828254699707 -5.50808525085449219 25.4939537048339844
2.71280121803283691 -9.84731960296630859 -26.5798072814941406
14.7414312362670898 -30.2716712951660156 6.66663789749145508
18.9857120513916016 9.99361133575439453 -6.38589239120483398
12.8425750732421875 19.3194713592529297 -22.0425472259521484
-3.30790877342224121 -5.85882425308227539 26.0158252716064453
-13.4449052810668945 -0.0351943597197532654 21.8369235992431641
20.6263847351074219 -5.446044921875 -2.11362552642822266
12.0170669555664062 31.0380191802978516 17.6019344329833984
-4.35299062728881836 -49.6670265197753906 5.28132390975952148
17.8709526062011719 -5.2623753547668457 16.1860771179199219
16.9318218231201172 18.0555343627929688 -10.1250495910644531
7.87670803070068359 22.5290107727050781 26.7580146789550781
-10.9943103790283203 21.1849098205566406 3.47218036651611328
13.7329864501953125 -9.65936756134033203 22.3254299163818359
-11.5875415802001953 26.1824703216552734 14.1694984436035156
2.4480140209197998 -11.2268314361572266 -26.5353488922119141
10.6421241760253906 27.7612953186035156 -22.7819671630859375
15.1719627380371094 -4.81841802597045898 21.1340255737304688
-16.1890239715576172 -20.1929225921630859 15.7987089157104492
-9.46128940582275391 30.6888904571533203 20.2763042449951172
9.22933483123779297 -6.14889955520629883 -25.2234077453613281
16.8742218017578125 22.2515754699707031 6.94818973541259766
6.14553022384643555 -21.0777778625488281 26.2377338409423828
-4.90465736389160156 18.9176139831542969 24.2038822174072266
17.8504180908203125 -23.6680088043212891 0.353660702705383301
-7.74975204467773438 -14.0743474960327148 -25.4077701568603516
8.57225799560546875 -24.6756839752197266 23.2934780120849609
-9.13995933532714844 42.6001548767089844 7.94269561767578125
8.37468147277832031 10.852630615234375 -26.1420040130615234
12.6132621765136719 35.6524391174316406 8.82852649688720703
13.6831550598144531 8.82024860382080078 23.0406646728515625
-16.0360870361328125 -37.2334518432617188 14.5276699066162109
4.79277753829956055 46.9094810485839844 -12.7841520309448242
-11.4286956787109375 -13.7826004028320312 -23.2346210479736328
-14.365107536315918 -38.7552223205566406 -11.9693965911865234
-5.06434345245361328 -40.4668998718261719 -18.2011508941650391
-9.49666404724121094 21.4663047790527344 -13.6370506286621094
14.5753517150878906 -4.30846071243286133 -21.4298171997070312
-12.3098487854003906 -7.55870151519775391 -15.146580696105957
-0.13856641948223114 -11.2731084823608398 27.13751220703125
-11.7088584899902344 14.5376911163330078 3.24243259429931641
11.1662998199462891 -36.7701339721679688 -5.60335254669189453
14.6490535736083984 -24.1169586181640625 -13.0158214569091797
-3.57117724418640137 12.1066732406616211 -25.60968017578125
11.9243936538696289 11.0282573699951172 24.5633201599121094
1.94291043281555176 -17.5478153228759766 -27.0388660430908203
-12.1460685729980469 -9.62187099456787109 -20.2948741912841797
-8.13162994384765625 5.84067630767822266 -24.642364501953125
-9.46657371520996094 31.2051353454589844 -4.66023015975952148
15.328852653503418 11.2733774185180664 -19.0610237121582031
9.5984039306640625 -39.7979965209960938 0.297858595848083496
10.6540136337280273 -38.0206565856933594 4.16795635223388672
-9.95700454711914062 12.1351766586303711 -19.3191986083984375
-9.54356956481933594 16.8709030151367188 -18.1350898742675781
-10.6144037246704102 28.5661029815673828 5.73455142974853516
14.2082672119140625 -7.241790771484375 -21.1681118011474609
-9.59806442260742188 23.758026123046875 -8.68305683135986328
-6.21152877807617188 -19.3022575378417969 -25.7046222686767578
3.68702554702758789 47.1048851013183594 -11.1787242889404297
-7.18631792068481445 39.3046913146972656 -16.9591712951660156
-13.7223052978515625 5.95290565490722656 14.5991506576538086
11.0420665740966797 -37.8512496948242188 0.557853341102600098
3.54545783996582031 -45.8553543090820312 5.04858303070068359
11.7146635055541992 34.0400924682617188 -14.838688850402832
1.31897008419036865 -4.60947990417480469 -26.1818828582763672
20.3030261993408203 -11.0153207778930664 -0.461927622556686401
-4.73072195053100586 37.6189727783203125 20.2818031311035156
-8.10982513427734375 31.7590351104736328 -19.4768600463867188
-13.6325645446777344 7.58642721176147461 14.9943304061889648
-11.5006237030029297 2.2515411376953125 -0.47237694263458252
12.9555482864379883 -0.367821484804153442 23.9939670562744141
-11.3867692947387695 -8.34105587005615234 23.9384574890136719
-12.3440618515014648 -11.3553342819213867 -20.0264301300048828
-4.58628559112548828 34.5629615783691406 22.5829429626464844
-8.84838294982910156 30.2601203918457031 20.8928546905517578
2.03782963752746582 -18.5751304626464844 -27.3633041381835938
-9.68479537963867188 -41.2134323120117188 18.4818058013916016
12.7605180740356445 30.8738555908203125 15.7499570846557617
-0.714690864086151123 4.3816680908203125 25.6666011810302734
4.17547607421875 48.7663345336914062 0.539554357528686523
13.0997772216796875 27.9429836273193359 17.1524810791015625
-10.3550949096679688 21.6209487915039062 -2.87671279907226562
-5.06908702850341797 -29.5262794494628906 25.542694091796875
-10.2532672882080078 19.978546142578125 -4.58000659942626953
-9.30857276916503906 -44.2386474609375 13.5340127944946289
-0.00592265138402581215 25.986297607421875 26.842864990234375
13.4900074005126953 24.2924880981445312 18.2499675750732422
-9.13359642028808594 34.8622817993164062 -4.12881374359130859
17.8873443603515625 17.7745151519775391 6.01531696319580078
-10.2534084320068359 -24.4228591918945312 -23.6979198455810547
-4.47100400924682617 13.9643955230712891 24.5339393615722656
11.2729501724243164 -33.5185012817382812 12.8528575897216797
4.5505828857421875 -18.8183231353759766 -25.7595863342285156
-8.92861747741699219 31.4441337585449219 -10.9429006576538086
15.252960205078125 21.4116592407226562 -14.4692726135253906
14.2385568618774414 -29.8686122894287109 -8.39719772338867188
15.2860651016235352 16.3585376739501953 18.2643947601318359
-13.0904417037963867 -8.87895107269287109 22.8460750579833984
13.4253101348876953 29.0569477081298828 15.222325325012207
-14.6996946334838867 -33.1144752502441406 -14.2072763442993164
-13.9307708740234375 -16.7401657104492188 -6.07808589935302734
-11.6795492172241211 22.0613536834716797 20.1385231018066406
14.4410123825073242 14.936131477355957 20.4872684478759766
-10.0372829437255859 16.6936531066894531 -10.834559440612793
-15.0598239898681641 -8.15356159210205078 15.495671272277832
-10.2024574279785156 10.491267204284668 -17.5717086791992188
7.71041393280029297 -15.5233955383300781 -24.8512744903564453
-15.2638235092163086 -17.3715858459472656 8.41655254364013672
3.96942400932312012 18.9514656066894531 -27.2647132873535156
12.3121042251586914 12.1576356887817383 -23.5167293548583984
