ply
format ascii 1.0
element vertex 779
comment vertices
property float x
property float y
property float z
end_header
2.70997810363769531 -16.6463088989257812 -7.64907932281494141
16.8329067230224609 -4.76583719253540039 0.624548792839050293
-5.83843660354614258 -35.1446876525878906 -2.00999283790588379
-15.6485919952392578 8.91867542266845703 2.35979533195495605
8.96167278289794922 -4.15406656265258789 -2.50088644027709961
7.052581787109375 9.29934978485107422 6.42829179763793945
-10.2514781951904297 -0.419189333915710449 15.9667186737060547
-2.9987645149230957 5.21512842178344727 -26.4434757232666016
2.17605066299438477 -16.6860542297363281 -17.4270133972167969
-0.973258018493652344 -7.20387077331542969 5.98642826080322266
8.04626941680908203 -7.05295610427856445 16.6695632934570312
-3.15758681297302246 -24.3935832977294922 5.50627374649047852
-0.475593239068984985 17.0724525451660156 -7.74064970016479492
2.4642031192779541 9.86585140228271484 -24.8528919219970703
-9.75393104553222656 15.8263645172119141 -5.82949686050415039
5.40080785751342773 10.4749917984008789 10.5154714584350586
12.350407600402832 7.94988536834716797 -3.71506094932556152
3.18216681480407715 -5.54342031478881836 25.5820255279541016
7.12348031997680664 15.5382356643676758 0.389272511005401611
-11.3759756088256836 7.66202116012573242 -15.6024131774902344
3.62653183937072754 -20.9125003814697266 -6.16428089141845703
6.50250720977783203 14.6257705688476562 -4.84158754348754883
-0.00270327669568359852 15.4285974502563477 8.72324275970458984
-12.5886659622192383 10.7264499664306641 10.0139179229736328
15.2746343612670898 -3.26794958114624023 -7.38813352584838867
2.94272971153259277 -3.23198366165161133 -14.7367029190063477
0.673650562763214111 -11.7079277038574219 20.8016624450683594
-4.5935063362121582 19.2368717193603516 0.555368304252624512
-6.38326883316040039 18.6927356719970703 3.76901936531066895
-15.9935464859008789 7.76854228973388672 -1.29983067512512207
-14.1659040451049805 15.4780387878417969 0.711041271686553955
12.2909564971923828 7.76174306869506836 -3.90215134620666504
2.60494089126586914 -15.083765983581543 -7.82523536682128906
5.03903913497924805 -9.46186351776123047 23.2611141204833984
-0.66387099027633667 13.2929191589355469 -21.8841972351074219
-12.1822500228881836 -3.90225028991699219 7.77657079696655273
-8.18852043151855469 10.0999011993408203 11.6164779663085938
3.6371619701385498 -18.17413330078125 -4.51763582229614258
2.32264304161071777 -19.3031463623046875 1.91538000106811523
-6.73836231231689453 -28.1839122772216797 -0.945880472660064697
-2.16936564445495605 -18.4773941040039062 8.86048793792724609
1.95790410041809082 -6.28945255279541016 9.88897514343261719
-7.70886659622192383 18.4055366516113281 -1.89805126190185547
-3.3376462459564209 7.76469945907592773 17.8909358978271484
0.281983047723770142 -8.17716503143310547 25.4485912322998047
4.63081073760986328 3.94513058662414551 -24.7750148773193359
-14.1287603378295898 3.29328083992004395 -18.3433399200439453
-2.56813573837280273 -21.1345653533935547 7.16112327575683594
4.73827791213989258 -27.9143581390380859 -0.635278046131134033
-12.7500238418579102 2.89490199089050293 -2.77311396598815918
-5.42925167083740234 -40.1759834289550781 -0.581636965274810791
-6.85700607299804688 -6.04773330688476562 20.5879936218261719
4.61828994750976562 -28.0662441253662109 -0.153864637017250061
-1.43612182140350342 -8.28673934936523438 -12.8836650848388672
9.84547233581542969 3.08213710784912109 -14.5489425659179688
3.38037490844726562 -7.06145095825195312 0.114640682935714722
-5.12208795547485352 -37.763092041015625 -3.32949066162109375
4.63647174835205078 15.2783231735229492 2.35653901100158691
-4.51019525527954102 -3.85058736801147461 -18.6374320983886719
6.17417287826538086 -4.96651172637939453 -5.1349949836730957
-3.79248881340026855 -10.0212392807006836 10.0937623977661133
10.2831335067749023 14.0914087295532227 -8.19182205200195312
-3.98599815368652344 -7.75164651870727539 13.9313344955444336
-9.10714435577392578 0.900604903697967529 5.43686580657958984
-5.39020061492919922 12.0900001525878906 -16.1442985534667969
-9.92884254455566406 -7.85311794281005859 14.5871391296386719
4.31008720397949219 -10.1445064544677734 -5.22601413726806641
-11.4841909408569336 0.547424912452697754 -10.9855670928955078
-11.5562353134155273 7.39056062698364258 -16.3784370422363281
-15.5281887054443359 5.24960422515869141 -2.29458355903625488
5.19014883041381836 -2.38412809371948242 -6.5209965705871582
-3.28407430648803711 -6.00867605209350586 26.1340579986572266
11.9394912719726562 2.98737072944641113 -14.6717805862426758
-6.05292558670043945 -7.70478487014770508 13.701171875
13.0333347320556641 8.07501029968261719 -8.93019676208496094
-8.07054996490478516 10.8789281845092773 11.4516448974609375
-7.63734006881713867 -1.52012145519256592 20.6098079681396484
-8.59029579162597656 -0.839292407035827637 5.26389169692993164
-7.72730112075805664 -4.17096710205078125 20.4478435516357422
17.5467414855957031 1.38630867004394531 -6.77474308013916016
13.6459245681762695 -5.81581830978393555 -3.42217826843261719
1.72442615032196045 4.90514326095581055 -26.1117725372314453
-6.84361410140991211 -15.3974809646606445 -4.0732569694519043
-6.150115966796875 -15.8045282363891602 0.949915528297424316
17.1925334930419922 -2.39272236824035645 -2.70482826232910156
-2.24296259880065918 13.513707160949707 -13.3978977203369141
-1.31145691871643066 14.3021163940429688 -14.9412527084350586
-5.27448511123657227 -7.34832096099853516 -10.2265529632568359
5.83478546142578125 7.82713937759399414 10.1036567687988281
5.53187465667724609 15.8409786224365234 -1.25931799411773682
-14.3250713348388672 13.8880462646484375 -2.73376893997192383
-1.81863021850585938 15.673863410949707 -9.51207447052001953
1.69713366031646729 -8.74904632568359375 -17.8739662170410156
-8.56102180480957031 -6.87218999862670898 -2.4371640682220459
11.7909364700317383 4.88837623596191406 -14.4947977066040039
4.73217439651489258 -36.0530166625976562 -5.95426654815673828
14.4306983947753906 -0.925395369529724121 2.50002074241638184
-15.2427797317504883 4.63884353637695312 -11.0215940475463867
-8.82033348083496094 4.84416055679321289 15.3781728744506836
-9.203643798828125 -1.39382123947143555 16.4413661956787109
-3.15641617774963379 -6.48821258544921875 3.16497588157653809
-7.77296161651611328 19.0783596038818359 3.79830384254455566
7.27606296539306641 -1.74066376686096191 -11.8332624435424805
6.29823446273803711 1.68884718418121338 -7.69104576110839844
6.41848850250244141 14.5523653030395508 3.54587960243225098
-1.97891294956207275 -2.83320879936218262 4.98442649841308594
3.26321697235107422 0.990693569183349609 22.76953125
-11.8928384780883789 15.6335439682006836 6.64667415618896484
13.0893573760986328 7.91964006423950195 -9.34455680847167969
-2.73305344581604004 17.23187255859375 -6.34309816360473633
-4.41777658462524414 9.472808837890625 15.0206489562988281
-7.58325862884521484 0.109822109341621399 -8.33376789093017578
5.66391944885253906 -2.98643302917480469 0.652220666408538818
-11.8311786651611328 18.1474361419677734 1.04815912246704102
-4.06591510772705078 7.71553182601928711 17.4854469299316406
-14.296940803527832 8.04717063903808594 7.80430412292480469
1.27806746959686279 -2.57912731170654297 6.64370536804199219
2.91295337677001953 -36.142791748046875 -5.13478183746337891
-3.47333526611328125 -12.8319158554077148 19.5293216705322266
14.755396842956543 4.87960624694824219 -0.102115742862224579
-5.0485835075378418 -15.6899709701538086 2.3457033634185791
2.09022712707519531 15.0169229507446289 -17.1131725311279297
3.74112105369567871 1.57493138313293457 6.0075383186340332
-6.02019262313842773 -28.4364604949951172 -4.82229471206665039
-6.32146787643432617 18.4769515991210938 -2.23813080787658691
-6.5610957145690918 -17.2855052947998047 -4.65541839599609375
-2.90048694610595703 -6.36631965637207031 -23.4760894775390625
-14.614995002746582 0.656271874904632568 8.09038639068603516
0.942578971385955811 -13.6218938827514648 20.2334613800048828
-3.29791498184204102 18.2616863250732422 -3.30260753631591797
-10.7488842010498047 -3.15832257270812988 -18.1086616516113281
-9.22047138214111328 -3.05788135528564453 16.5811805725097656
-3.13436365127563477 -0.530809223651885986 -17.0173702239990234
7.11911535263061523 -12.0179662704467773 19.2121639251708984
5.38190078735351562 16.8357620239257812 -7.64418649673461914
2.18490767478942871 17.0739727020263672 -1.19833815097808838
-10.0114879608154297 0.638551533222198486 -13.131617546081543
-14.1144618988037109 4.0413670539855957 9.95770740509033203
-3.79451084136962891 1.64938759803771973 -26.6348628997802734
14.1571664810180664 4.44951915740966797 0.585716843605041504
6.0477910041809082 -30.498504638671875 0.0257890969514846802
0.786781132221221924 -7.90157842636108398 7.14306926727294922
10.9296817779541016 12.5441551208496094 -5.91501712799072266
12.3207178115844727 9.349334716796875 -12.1696195602416992
3.92089247703552246 -22.6366558074951172 -6.20637226104736328
-0.297930747270584106 -3.41916298866271973 10.6010227203369141
1.27201783657073975 -12.9073600769042969 20.0137004852294922
-1.85348010063171387 17.4539413452148438 -4.71712923049926758
1.25986778736114502 -6.28812313079833984 9.12702655792236328
-5.57108020782470703 -37.6315536499023438 -0.274958401918411255
-2.80195140838623047 0.104916505515575409 -25.230224609375
17.7706069946289062 0.56019967794418335 -5.61291408538818359
-8.27012538909912109 -6.79411506652832031 17.3732662200927734
7.42117023468017578 6.10015344619750977 -21.2953338623046875
-7.60861492156982422 -3.63245439529418945 -2.21125531196594238
1.85630357265472412 -11.8404741287231445 -9.78880882263183594
-1.37878453731536865 6.16706037521362305 -27.5517578125
16.0846633911132812 0.23593294620513916 -7.40805768966674805
-3.43550634384155273 -29.4562225341796875 -7.24348688125610352
11.9827566146850586 9.96942806243896484 -5.50949287414550781
-11.1382980346679688 3.59553790092468262 -3.97761988639831543
8.022430419921875 -10.0626144409179688 21.4483489990234375
-4.3523106575012207 -14.5138216018676758 16.374786376953125
-10.2150335311889648 -6.1139979362487793 15.7590513229370117
1.73509573936462402 -3.33569121360778809 -18.1543388366699219
13.641209602355957 2.96417427062988281 -10.9197854995727539
-1.74941754341125488 -28.8299770355224609 -8.33442592620849609
9.71354293823242188 2.82555747032165527 -20.8683815002441406
0.770297884941101074 -13.4492940902709961 14.6649084091186523
6.59554719924926758 -3.66234445571899414 -19.3201637268066406
16.1493206024169922 -4.99868011474609375 1.04195165634155273
5.05474996566772461 3.77671360969543457 -24.8894939422607422
2.83482933044433594 -8.13908481597900391 9.85293388366699219
-6.53905010223388672 -3.64749979972839355 -13.8742179870605469
4.96700859069824219 -11.5713710784912109 14.7665948867797852
-12.1049003601074219 17.6049098968505859 1.00774848461151123
7.69244050979614258 16.1160011291503906 -6.48554515838623047
-10.9073390960693359 -1.3982243537902832 -21.6696491241455078
2.18450307846069336 -7.52684593200683594 -16.0788307189941406
-0.967416882514953613 16.7039928436279297 7.16498088836669922
-8.77854347229003906 -4.9949030876159668 10.6029424667358398
3.29247546195983887 8.16646099090576172 12.0314674377441406
1.70520353317260742 -13.5224676132202148 -17.9576129913330078
8.12545871734619141 15.4635934829711914 -1.17962455749511719
2.18610167503356934 -35.9110794067382812 -0.604844748973846436
-11.2110424041748047 1.11778569221496582 5.39457130432128906
-2.69561052322387695 12.6235132217407227 -21.138336181640625
-15.6039295196533203 4.10026788711547852 -1.65225744247436523
-8.17409229278564453 14.9537439346313477 9.57931137084960938
3.56870341300964355 5.53967618942260742 13.0706710815429688
0.931226611137390137 -37.1238937377929688 0.806528031826019287
7.84704971313476562 -5.83531904220581055 -4.4777989387512207
-10.1895008087158203 -2.86472177505493164 -20.2493743896484375
8.20702457427978516 5.81682777404785156 2.34437274932861328
-3.1864323616027832 11.1236667633056641 13.3841876983642578
-1.41647326946258545 -9.69421005249023438 13.6827793121337891
-10.5930042266845703 -3.90861773490905762 -15.4664592742919922
-3.62650156021118164 -10.8016328811645508 9.47089099884033203
-4.58738040924072266 -8.53501319885253906 -7.37715578079223633
-10.3888893127441406 13.9698343276977539 9.34937572479248047
-1.15096867084503174 13.1330480575561523 -10.9225606918334961
-14.1052513122558594 3.55627560615539551 7.35828781127929688
12.7554988861083984 9.24205684661865234 -11.0440292358398438
10.0884370803833008 11.5407915115356445 -3.50983428955078125
7.19919872283935547 15.4699640274047852 -5.3537449836730957
10.8887901306152344 1.03963947296142578 -12.3612480163574219
15.5693120956420898 6.19946670532226562 -2.47517514228820801
-9.09445571899414062 -0.784840762615203857 -13.104644775390625
3.56617951393127441 -16.0019359588623047 -4.70364141464233398
1.65871906280517578 -1.23163926601409912 -15.2228298187255859
-0.215177595615386963 -4.76903533935546875 9.52505874633789062
3.79907655715942383 2.55378317832946777 17.1881618499755859
-14.6041440963745117 1.30990254878997803 11.6769876480102539
14.5871200561523438 6.28952121734619141 -1.75328719615936279
0.18870408833026886 -15.0396261215209961 19.5835762023925781
5.1166539192199707 2.4857177734375 -25.4618110656738281
4.76566028594970703 -0.994954407215118408 -11.2297773361206055
3.18033742904663086 9.17711925506591797 12.5534276962280273
3.78396272659301758 -31.3659706115722656 2.57731103897094727
-4.04204845428466797 -11.4421367645263672 22.1462497711181641
3.51751041412353516 16.9184436798095703 -0.530296385288238525
-3.53584098815917969 5.70216035842895508 18.5547046661376953
-4.77690887451171875 16.17999267578125 -8.33468437194824219
12.6900644302368164 8.65838050842285156 -6.19847202301025391
9.04352664947509766 0.566151022911071777 5.31741571426391602
-4.58231210708618164 16.0518283843994141 9.10279560089111328
-1.48439371585845947 17.2417240142822266 -7.37289619445800781
-2.20252227783203125 11.8931093215942383 -23.3644237518310547
-4.32278060913085938 -40.0457000732421875 0.91917717456817627
2.30153656005859375 -27.4051971435546875 3.06265449523925781
18.0258140563964844 -0.557551681995391846 -4.45589923858642578
-6.04668283462524414 -3.63738179206848145 -4.55767631530761719
-0.456221312284469604 -4.90153598785400391 9.21841621398925781
-12.0286016464233398 -3.92643928527832031 9.00533771514892578
0.795894205570220947 15.1661500930786133 -9.22057247161865234
0.0907189473509788513 16.8849849700927734 5.55777263641357422
3.19020485877990723 11.717494010925293 -22.7482719421386719
5.36591768264770508 14.1798677444458008 -14.8178939819335938
-4.55155324935913086 13.2853488922119141 -17.9521675109863281
7.98969030380249023 -1.93312680721282959 3.60433006286621094
-11.9017839431762695 6.99096918106079102 -13.9088897705078125
6.31974458694458008 -2.72493529319763184 -22.1394844055175781
-4.37488698959350586 1.98908030986785889 -26.4790382385253906
16.9790782928466797 3.89334297180175781 -5.99955940246582031
3.47093677520751953 -9.92185878753662109 -5.30249118804931641
-1.30063223838806152 -2.37682151794433594 6.32775735855102539
-1.34598469734191895 14.0622053146362305 11.0426645278930664
-13.8807029724121094 4.85682582855224609 9.72982120513916016
2.0773780345916748 -4.43380546569824219 5.2751765251159668
6.53257942199707031 3.60146856307983398 5.20955753326416016
7.79158592224121094 7.28201484680175781 -16.8828277587890625
15.7806863784790039 -3.42901158332824707 -5.08498239517211914
-0.382683753967285156 -14.0895166397094727 14.8774080276489258
5.23464393615722656 -8.10263252258300781 22.5359420776367188
0.90620124340057373 -25.0446643829345703 4.76311492919921875
3.37364101409912109 -0.512092411518096924 18.1126327514648438
0.0713385194540023804 -11.8434972763061523 -11.5071334838867188
17.3603897094726562 3.41792082786560059 -5.70327329635620117
2.1064608097076416 -9.61776065826416016 -9.92078208923339844
-2.06243801116943359 -12.4018564224243164 -11.6403446197509766
7.91050863265991211 13.181818962097168 -14.3708963394165039
-5.11111354827880859 10.5183706283569336 12.0849123001098633
13.8741083145141602 -2.26558041572570801 2.65574288368225098
-6.32588005065917969 -8.44654941558837891 13.6970510482788086
2.17330741882324219 -6.235443115234375 25.5307121276855469
9.47232723236083984 2.42740607261657715 -19.6978626251220703
4.04477453231811523 0.527283251285552979 22.4150962829589844
-6.51535272598266602 -4.37670707702636719 1.08628237247467041
7.98242568969726562 4.82103729248046875 -20.8451595306396484
-9.88538742065429688 -3.0183713436126709 6.55234003067016602
-2.04569220542907715 17.2278804779052734 -7.71024036407470703
3.05536127090454102 -12.2124357223510742 15.3956308364868164
1.78219687938690186 -0.288965493440628052 14.3742008209228516
14.2499942779541016 1.82940757274627686 -10.9343175888061523
-1.03133225440979004 13.5962104797363281 -19.8010196685791016
-6.96222209930419922 -14.3544855117797852 -3.11124110221862793
-4.39528083801269531 -11.1505565643310547 22.0583572387695312
0.616496503353118896 16.5443916320800781 5.48940610885620117
-3.97504281997680664 2.82548284530639648 19.4679450988769531
1.03453552722930908 -4.90382003784179688 25.9660797119140625
2.24462485313415527 -25.8632965087890625 -8.22139644622802734
-6.42340993881225586 -22.5200271606445312 1.06428897380828857
-2.46799492835998535 -3.620208740234375 -25.3903598785400391
-5.58791160583496094 -3.55637860298156738 -10.4357185363769531
-2.9976966381072998 3.65875577926635742 20.3969459533691406
-3.71420884132385254 -6.12302684783935547 8.05024242401123047
-1.84280383586883545 -10.4352598190307617 24.064849853515625
-9.05610179901123047 19.0252056121826172 -0.880625724792480469
-4.9580535888671875 -9.62507915496826172 -8.58899497985839844
-9.67236137390136719 10.6267662048339844 -19.4045791625976562
0.853852510452270508 -10.6631107330322266 14.7144231796264648
2.53449010848999023 -6.42399215698242188 10.9009914398193359
6.82048511505126953 3.43956851959228516 5.16600942611694336
8.81414031982421875 -4.69566106796264648 20.4856834411621094
5.36664819717407227 11.1904239654541016 8.24824905395507812
-6.6749262809753418 -9.85259628295898438 20.6569347381591797
-10.1466388702392578 2.4825892448425293 2.16983842849731445
-1.56295645236968994 9.38095378875732422 -25.5698928833007812
11.2223310470581055 11.3530693054199219 -13.929473876953125
14.4308547973632812 -1.83185672760009766 -9.22648048400878906
0.0195098556578159332 -8.72451686859130859 -18.0589447021484375
-4.59509801864624023 -12.7837352752685547 4.74584007263183594
4.87248659133911133 -4.97861146926879883 -5.33438634872436523
-1.24167072772979736 -6.26450729370117188 -20.3482818603515625
-3.70106196403503418 -0.348179876804351807 -6.99015331268310547
4.77894973754882812 -13.1249265670776367 16.80255126953125
3.95546746253967285 -3.64481377601623535 -20.43023681640625
-10.5775480270385742 10.9700050354003906 -12.0367660522460938
-14.1228256225585938 1.03200662136077881 12.5204000473022461
3.14273571968078613 14.4447383880615234 9.13513946533203125
4.12278556823730469 5.99215936660766602 15.6540374755859375
0.129680082201957703 -1.13437449932098389 25.3974666595458984
7.67808961868286133 -9.86518669128417969 14.8694648742675781
4.87907123565673828 -8.99761199951171875 -0.763322412967681885
-4.12681436538696289 14.0268278121948242 9.68756675720214844
10.9108610153198242 10.7213659286499023 1.63060665130615234
11.2668828964233398 1.21157491207122803 -10.3022785186767578
-3.43206334114074707 -1.76268815994262695 -8.77068042755126953
4.17488288879394531 -24.5613803863525391 -5.25434303283691406
-2.3934333324432373 1.87325572967529297 -26.8552074432373047
2.36657261848449707 -5.61532688140869141 3.32709884643554688
0.442113399505615234 18.1656169891357422 1.90198171138763428
3.61162590980529785 -4.15899229049682617 25.8430843353271484
0.973274707794189453 -35.3894119262695312 3.20279192924499512
-13.1110115051269531 3.89896440505981445 12.0057468414306641
-6.57257699966430664 -27.7690181732177734 -3.66654849052429199
-13.8621721267700195 2.76718425750732422 -7.47733831405639648
6.26618432998657227 -3.42696261405944824 -5.99810266494750977
-13.7189188003540039 3.8873438835144043 6.58792638778686523
5.66953134536743164 15.2549886703491211 1.22405993938446045
-5.06811952590942383 -3.71379184722900391 -24.429840087890625
-14.6398725509643555 2.40845942497253418 -2.11012625694274902
12.213836669921875 11.4654150009155273 -9.13006687164306641
3.00844764709472656 7.45482254028320312 16.8273639678955078
0.896873950958251953 -0.646958231925964355 17.6377944946289062
-2.93294262886047363 -1.63862442970275879 -18.3204727172851562
-0.649178802967071533 0.189893320202827454 -26.2223892211914062
-2.69126105308532715 -18.3975982666015625 6.88788318634033203
-5.42022800445556641 -18.4556236267089844 2.5772712230682373
-6.43505668640136719 -4.71703958511352539 11.59747314453125
-5.95617532730102539 -1.29501724243164062 -23.8711357116699219
-2.04530644416809082 -1.52223300933837891 -25.6059494018554688
-15.9409866333007812 9.99987411499023438 -3.00560617446899414
-8.96947288513183594 9.54765415191650391 -20.9384250640869141
0.581696629524230957 -4.03794479370117188 -19.5576210021972656
-6.2789616584777832 -3.37466883659362793 -2.98143982887268066
6.58019924163818359 5.17843770980834961 7.24716091156005859
8.12018871307373047 14.5171346664428711 1.44624602794647217
6.47956943511962891 -2.65109372138977051 23.5048904418945312
2.20248723030090332 -11.5238275527954102 13.6838626861572266
1.2285151481628418 -30.0937385559082031 4.44851112365722656
-5.14699506759643555 -7.18474817276000977 9.55544948577880859
5.10608148574829102 11.2393627166748047 -20.6211490631103516
4.13178873062133789 13.3990964889526367 8.905303955078125
2.61530137062072754 8.75249862670898438 15.4625387191772461
5.87066745758056641 -6.84498310089111328 -4.05914449691772461
15.824305534362793 -2.12192082405090332 2.87623882293701172
-9.15679454803466797 9.84292030334472656 12.4165620803833008
5.71103715896606445 -0.962134599685668945 20.1478710174560547
3.45154929161071777 -12.9660987854003906 -17.9122543334960938
-2.34113430976867676 -9.90971183776855469 24.3173713684082031
-4.26659965515136719 -37.62249755859375 1.88112568855285645
-6.41499900817871094 -29.1527748107910156 -3.8000943660736084
10.1877737045288086 -4.77080726623535156 0.982714712619781494
1.93126070499420166 -9.17487430572509766 -16.7352523803710938
0.422170460224151611 16.3431758880615234 -7.80952310562133789
4.38086748123168945 11.3600645065307617 10.4693384170532227
-5.16337442398071289 1.51682555675506592 20.54400634765625
-2.85322165489196777 -7.32660865783691406 3.76199054718017578
16.4131278991699219 -2.15929031372070312 2.37883877754211426
1.59461450576782227 -34.7545814514160156 1.76824796199798584
1.41044211387634277 -4.1583714485168457 5.79295587539672852
-11.5034332275390625 -0.746020913124084473 -21.9339618682861328
1.05500030517578125 -15.1595296859741211 -10.3342828750610352
-6.06531810760498047 -12.9050359725952148 -5.0958094596862793
4.54243850708007812 14.6368236541748047 -17.1283206939697266
-5.01819276809692383 -9.98060894012451172 -9.06732845306396484
-4.74799680709838867 -16.7892990112304688 -7.96163749694824219
4.98404836654663086 16.8451690673828125 -8.25620555877685547
-6.23340511322021484 1.05086266994476318 -26.0272846221923828
-11.4591999053955078 -2.06595230102539062 -14.8590879440307617
-4.66037178039550781 -1.91154921054840088 24.4295845031738281
5.05529403686523438 -6.45375776290893555 -15.7399110794067383
-2.85956406593322754 -2.17435145378112793 -15.154388427734375
1.85671114921569824 -8.29673004150390625 25.0359745025634766
-2.31129002571105957 -40.2903633117675781 -1.56415653228759766
-4.86369514465332031 -8.41004180908203125 8.44373607635498047
2.63859653472900391 -15.3048801422119141 -17.5020561218261719
3.85159635543823242 -10.2882261276245117 -5.31199312210083008
-13.6429176330566406 -3.66479778289794922 10.1014785766601562
4.31458854675292969 -3.24708127975463867 -16.7230625152587891
-15.2368364334106445 3.5963900089263916 9.36715984344482422
-5.15384817123413086 -8.43704509735107422 -10.3535518646240234
-7.06324625015258789 -22.5020122528076172 -2.98091244697570801
-10.5808010101318359 7.8877100944519043 -15.2648096084594727
6.6381535530090332 -2.98816180229187012 -13.1772346496582031
-12.8759088516235352 16.0850067138671875 -2.03359508514404297
1.24468374252319336 8.17930793762207031 17.4537563323974609
3.0061805248260498 -11.5729427337646484 -17.6095848083496094
9.76175689697265625 7.51538324356079102 3.6960909366607666
-6.43590974807739258 2.19892644882202148 16.4651756286621094
4.80706214904785156 0.140253245830535889 4.31579780578613281
3.84506535530090332 -20.1672859191894531 -4.21417236328125
-4.70928001403808594 -34.0097389221191406 2.58464407920837402
3.14887428283691406 -25.0584239959716797 -7.16884326934814453
-6.84294605255126953 -9.33890914916992188 -2.18497681617736816
2.33858418464660645 5.32581138610839844 -26.5314750671386719
4.93244791030883789 -34.8938674926757812 -4.73361063003540039
-8.90644645690917969 2.61957144737243652 -5.19879436492919922
-7.11591386795043945 -3.6198737621307373 -22.9148044586181641
2.89075279235839844 14.8980789184570312 -16.7504367828369141
3.34224224090576172 -36.5806617736816406 -6.70010614395141602
-7.03485774993896484 -0.644565343856811523 20.6927070617675781
3.08278346061706543 6.46917963027954102 13.6056604385375977
2.0697791576385498 -25.9513511657714844 -8.38666534423828125
-1.08516538143157959 -12.3654403686523438 12.9786520004272461
12.0193386077880859 5.4026641845703125 -12.0175189971923828
8.31434726715087891 -7.11808490753173828 -3.65691399574279785
-10.4705018997192383 9.04729461669921875 -15.9058074951171875
7.03853368759155273 16.4013862609863281 -7.12312078475952148
5.35816526412963867 1.44438755512237549 4.44150590896606445
4.46866703033447266 9.96982574462890625 10.6358184814453125
-16.0048046112060547 4.66892480850219727 -3.73975038528442383
6.61435747146606445 9.52153682708740234 9.58672046661376953
17.1414546966552734 -2.30951309204101562 -3.09553122520446777
1.26424169540405273 -12.6419353485107422 13.9280633926391602
2.16461443901062012 12.978938102722168 11.8110198974609375
3.18207550048828125 -6.72965717315673828 24.4392356872558594
-1.13111567497253418 -16.3014507293701172 10.1067266464233398
6.13499546051025391 2.72096347808837891 -23.9495296478271484
-13.3714141845703125 4.09787654876708984 8.11435508728027344
3.10102486610412598 -14.8340244293212891 -6.13154697418212891
18.275299072265625 -1.54385340213775635 -0.154759392142295837
-4.14143085479736328 -38.6781730651855469 1.34629976749420166
5.56940412521362305 11.9702959060668945 7.58418560028076172
0.848281443119049072 -8.54016590118408203 25.5735111236572266
-1.27438247203826904 15.1931362152099609 9.99982261657714844
-5.62733602523803711 -7.09980869293212891 1.65939426422119141
0.949737846851348877 -2.29158949851989746 25.9188652038574219
-2.74145007133483887 9.73328304290771484 -25.7757225036621094
9.68052577972412109 -7.66747856140136719 20.7950687408447266
4.80324125289916992 14.286778450012207 8.08423042297363281
-1.32893288135528564 -6.31435108184814453 -20.5972805023193359
11.4123687744140625 8.92291259765625 -1.55184507369995117
-2.54381442070007324 -3.76320457458496094 26.2629108428955078
1.57319200038909912 15.4214763641357422 5.85281562805175781
5.96663761138916016 -0.223787248134613037 20.8144855499267578
-2.28708314895629883 -5.86617469787597656 3.91905856132507324
-12.4018278121948242 3.95947504043579102 -20.9615535736083984
2.09988903999328613 2.9266362190246582 8.5640716552734375
-14.3582143783569336 3.45362257957458496 7.6244659423828125
4.91089725494384766 -11.3406095504760742 -16.8158512115478516
-9.09598064422607422 -4.21259927749633789 13.3788785934448242
11.5995016098022461 -4.54516077041625977 -1.68489634990692139
8.53112506866455078 4.71680927276611328 3.96350717544555664
-10.6527004241943359 8.55659580230712891 -19.6004047393798828
-1.40125620365142822 -3.73374390602111816 -25.0770282745361328
-5.87392997741699219 -11.6579093933105469 19.7790813446044922
-3.58012747764587402 -19.4997463226318359 5.88092470169067383
-9.48076820373535156 9.31897449493408203 12.2579250335693359
4.59690761566162109 3.70285463333129883 -9.71000099182128906
4.21224451065063477 -5.7854156494140625 -16.1830787658691406
2.50226736068725586 -10.7133293151855469 -16.4403648376464844
-5.50132608413696289 -4.73824024200439453 10.3352813720703125
0.786931455135345459 -13.9125442504882812 18.0295848846435547
-7.09512710571289062 14.1498289108276367 10.5856761932373047
9.03396987915039062 -9.37417125701904297 17.1415328979492188
-7.53796243667602539 11.1860742568969727 -13.3900880813598633
9.60641860961914062 1.83049702644348145 -10.1924581527709961
-0.0994543656706809998 4.47067880630493164 -26.4269943237304688
-11.3039493560791016 18.5495777130126953 -0.831881105899810791
-14.1639041900634766 0.958450078964233398 -16.2802848815917969
-4.74160099029541016 -8.46854019165039062 9.40503787994384766
3.45370006561279297 -1.73180055618286133 -22.1048088073730469
-5.76064682006835938 -11.5341176986694336 1.46589136123657227
0.825853586196899414 -1.91830945014953613 25.6876716613769531
-0.164427220821380615 -25.9271373748779297 -9.83609580993652344
-8.31091403961181641 0.891073763370513916 16.9560794830322266
-2.92742753028869629 -14.1421041488647461 7.35623741149902344
-13.8019371032714844 3.8935854434967041 7.26023244857788086
-8.16526412963867188 -0.228424564003944397 5.66504049301147461
-4.97085809707641602 -15.9965114593505859 2.74654817581176758
7.1425471305847168 -3.40337324142456055 -19.0692405700683594
0.727387487888336182 -12.6744709014892578 20.7887020111083984
-8.89563369750976562 4.92331314086914062 -24.0433444976806641
12.942845344543457 4.70591974258422852 1.41578936576843262
12.0460777282714844 -0.745546519756317139 -10.5151939392089844
-10.4445838928222656 8.76509571075439453 -15.8841266632080078
-3.87012600898742676 9.68255996704101562 -25.2497539520263672
-1.28490340709686279 -2.17758417129516602 -17.9801235198974609
-6.01549959182739258 9.85482120513916016 -24.1007118225097656
1.10485827922821045 -10.4459915161132812 24.2865161895751953
-6.73874759674072266 10.2438478469848633 -21.3489723205566406
-1.28790056705474854 4.23460912704467773 19.2847957611083984
5.21815395355224609 -12.5772848129272461 -2.95279669761657715
7.53962898254394531 -3.94371938705444336 21.2088203430175781
-4.07790374755859375 -2.33705663681030273 -24.7880058288574219
-3.98873567581176758 -13.4517011642456055 16.1317234039306641
4.39573383331298828 -12.8517160415649414 15.3134098052978516
-5.07899665832519531 -8.70545196533203125 -6.05034923553466797
3.16817927360534668 -15.4986486434936523 -6.00829267501831055
-4.80125093460083008 -10.2512493133544922 -7.74561166763305664
-3.08668279647827148 11.6437015533447266 12.3281412124633789
2.46331405639648438 -12.6109523773193359 14.7501859664916992
-14.0871982574462891 -3.39830327033996582 10.1215553283691406
-6.85146427154541016 -0.187081754207611084 -24.8994865417480469
-4.55739593505859375 -20.2197895050048828 -8.23216056823730469
-6.99967193603515625 -22.9362392425537109 -1.23181700706481934
-5.38273191452026367 -40.9830589294433594 -0.258038192987442017
-7.14139795303344727 3.83829998970031738 15.9459733963012695
-7.4405512809753418 6.05744504928588867 15.27703857421875
-1.35574185848236084 -24.4893569946289062 -10.1753444671630859
-4.474334716796875 -2.7553095817565918 -14.8032979965209961
4.02043724060058594 -3.68297576904296875 -7.12997293472290039
-2.79241371154785156 11.6330270767211914 12.3615760803222656
-14.6036338806152344 2.47403383255004883 -4.70668601989746094
7.92584228515625 5.84448766708374023 -22.0496540069580078
12.8289566040039062 9.04369735717773438 -9.54014205932617188
11.7722959518432617 -2.89422941207885742 -2.65049600601196289
14.3030433654785156 -0.469682008028030396 -10.540679931640625
-1.73176717758178711 -11.0661277770996094 10.3914108276367188
-4.85994195938110352 -24.5404281616210938 4.32309389114379883
-11.6757040023803711 0.177288040518760681 -13.8850574493408203
5.47385072708129883 -9.25218963623046875 -16.5307159423828125
-5.19072580337524414 -6.49135732650756836 -9.64601039886474609
-11.3624162673950195 6.92803764343261719 -15.9788942337036133
-0.950766861438751221 -16.3960151672363281 9.78672599792480469
-5.39379739761352539 -34.0963134765625 1.71886587142944336
8.48216342926025391 1.11998164653778076 -21.7587165832519531
-4.51073598861694336 3.30040955543518066 -27.3111648559570312
2.12610411643981934 -11.5170383453369141 20.8241462707519531
3.41563558578491211 7.34605789184570312 -25.3985176086425781
-7.72955417633056641 1.0366051197052002 -25.1061382293701172
-11.9526805877685547 10.1527824401855469 10.1013774871826172
-5.79282760620117188 -4.45163202285766602 1.27794873714447021
-6.87115335464477539 -26.3198337554931641 -2.89504146575927734
9.23925685882568359 -0.413185179233551025 -14.8887414932250977
14.0924367904663086 -4.2569432258605957 2.3923790454864502
4.24256467819213867 4.64795255661010742 10.8473758697509766
0.924455881118774414 -12.1910276412963867 -17.5129032135009766
7.45131874084472656 6.14708709716796875 3.91898417472839355
2.08685588836669922 16.4219493865966797 2.58403134346008301
0.502355754375457764 11.3723115921020508 -23.6241111755371094
-1.90344953536987305 5.33055734634399414 -27.17108154296875
1.2546086311340332 -21.4603252410888672 -13.0544195175170898
-0.527948558330535889 6.43755149841308594 -27.5538482666015625
-2.3944096565246582 -25.2967872619628906 5.74807214736938477
2.71722912788391113 12.379643440246582 11.6506767272949219
10.3923931121826172 7.06051158905029297 2.70015096664428711
0.425921142101287842 14.3876886367797852 10.8829851150512695
-0.918457150459289551 14.6756038665771484 10.6170816421508789
1.03618800640106201 -7.60146808624267578 7.65058183670043945
-14.665766716003418 9.80579471588134766 -4.56011724472045898
-0.100017145276069641 -1.75945460796356201 12.9177379608154297
2.2212677001953125 -3.98778247833251953 -20.0889358520507812
11.2652549743652344 9.82126045227050781 0.251925915479660034
-8.25724220275878906 1.82483530044555664 -4.20101737976074219
4.64468574523925781 -25.9443855285644531 -3.83807110786437988
3.50132513046264648 -12.3335504531860352 15.1920366287231445
1.56478750705718994 -17.1242122650146484 -9.55074119567871094
4.36125802993774414 -26.9496269226074219 -4.60936784744262695
-1.4615480899810791 -17.3206710815429688 -10.952214241027832
-11.363530158996582 5.43395757675170898 -21.090423583984375
-8.69917201995849609 -0.669179379940032959 16.7671566009521484
-7.42785882949829102 -4.47116422653198242 13.2098522186279297
-10.2463417053222656 2.62466716766357422 -1.0849461555480957
5.43606090545654297 -10.8204765319824219 -1.48004937171936035
-0.0412382185459136963 16.5389747619628906 4.33971691131591797
-15.0718173980712891 13.1021308898925781 -0.804950356483459473
1.34691417217254639 -16.2026004791259766 3.07477211952209473
2.46528315544128418 8.88313198089599609 16.2035465240478516
-5.72393655776977539 -36.4583282470703125 -0.439825534820556641
5.68385839462280273 -8.33624362945556641 23.1127414703369141
9.13504695892333984 -3.44777655601501465 -0.816829681396484375
1.4658818244934082 14.3554763793945312 -10.583460807800293
6.29432582855224609 15.5069818496704102 1.37470161914825439
-1.57991874217987061 -40.2117767333984375 -6.79065084457397461
6.76021528244018555 7.57042837142944336 -17.7567520141601562
3.10441255569458008 -31.9763011932373047 3.30430841445922852
-2.53275752067565918 -40.7980575561523438 0.309803307056427002
-5.42751693725585938 7.98636531829833984 16.3444004058837891
-1.87336564064025879 -26.5378246307373047 -9.14294052124023438
-13.2395753860473633 3.33856010437011719 -20.7137947082519531
7.17570829391479492 -11.2005929946899414 20.9338436126708984
2.78991436958312988 -10.0230865478515625 -16.4407768249511719
12.8179388046264648 -2.41774606704711914 -7.57735013961791992
-3.7847588062286377 -6.24543523788452148 -22.5550251007080078
-6.73421955108642578 10.619110107421875 -23.2823925018310547
-0.691199302673339844 -24.0315017700195312 -10.5303735733032227
-3.09545540809631348 -7.80494070053100586 25.99566650390625
-5.30063104629516602 -41.34075927734375 -1.93045437335968018
8.81749725341796875 -5.03323698043823242 -2.89196348190307617
0.433912187814712524 -4.65854167938232422 10.1844644546508789
-11.4447784423828125 2.87116026878356934 -5.93041563034057617
-4.30138158798217773 -3.99756336212158203 -24.4655857086181641
7.61060142517089844 -4.36663055419921875 -5.08589649200439453
11.9452247619628906 5.787017822265625 -10.7022943496704102
2.55450129508972168 -11.6151704788208008 18.6599349975585938
-4.97483253479003906 -13.9544477462768555 -6.85873651504516602
3.10848593711853027 12.6757831573486328 -21.7423477172851562
0.317717581987380981 -10.9887380599975586 22.4196834564208984
5.28190469741821289 -12.2038745880126953 -1.96334683895111084
-0.922894299030303955 -38.5741424560546875 -2.85760331153869629
1.78819692134857178 -26.5146446228027344 -8.55121994018554688
-4.64743280410766602 10.6508960723876953 12.7439393997192383
-14.9881887435913086 5.55270004272460938 -12.4413166046142578
4.22120428085327148 -13.0283384323120117 17.7430095672607422
-6.01300430297851562 14.078618049621582 -9.89389514923095703
-15.3080940246582031 3.79107856750488281 -7.88400411605834961
10.7121429443359375 12.3614416122436523 -0.684444069862365723
16.2036247253417969 -4.91855430603027344 -2.87737178802490234
5.85401725769042969 9.347442626953125 -20.2990818023681641
3.37178826332092285 -5.1484980583190918 13.7962417602539062
0.185360997915267944 -16.6285266876220703 10.4517927169799805
-7.68093347549438477 6.54405832290649414 -24.5488624572753906
3.97374367713928223 -33.6392097473144531 -3.68774557113647461
15.5734596252441406 -4.24527120590209961 2.64375829696655273
-14.5398902893066406 2.29276061058044434 2.36158323287963867
-3.62339186668395996 12.4852581024169922 -10.5082521438598633
2.25107598304748535 -15.3512239456176758 -17.9607791900634766
8.14313602447509766 3.21240496635437012 -17.6948089599609375
3.00702929496765137 1.79662811756134033 -25.8242683410644531
-12.9978961944580078 13.3344030380249023 7.29202556610107422
2.78298473358154297 13.2468233108520508 -21.3639068603515625
4.61595439910888672 -14.0429782867431641 -16.1337814331054688
-14.1949348449707031 -2.48343563079833984 8.25516414642333984
-5.51740217208862305 -5.90211343765258789 -10.5879383087158203
4.61352729797363281 -4.02280807495117188 -20.4055824279785156
-1.08039534091949463 -14.340179443359375 12.1907634735107422
6.34252548217773438 1.97669267654418945 -23.2945137023925781
-9.35142040252685547 -9.57620716094970703 14.1381015777587891
0.28107064962387085 -25.0161609649658203 -10.2173366546630859
4.48938465118408203 12.434112548828125 -19.9220867156982422
17.0604095458984375 5.29227209091186523 -5.3318486213684082
-7.39698171615600586 -5.61249113082885742 -3.56565237045288086
-9.16216182708740234 -2.53146052360534668 14.4895782470703125
-15.7372846603393555 6.05592203140258789 -10.9912118911743164
-4.54278326034545898 -4.29055261611938477 -6.63119888305664062
-11.2326221466064453 1.58207809925079346 4.62505149841308594
7.71094655990600586 -3.01241278648376465 1.07561194896697998
-1.92503631114959717 -6.51459646224975586 26.2134799957275391
18.1144542694091797 -2.46450519561767578 -0.942535400390625
13.0601930618286133 7.17087602615356445 -8.77805709838867188
3.84916186332702637 7.65250492095947266 15.976374626159668
1.01965272426605225 -1.14540672302246094 15.9626293182373047
3.29024171829223633 -7.66469621658325195 24.9195995330810547
-7.13063383102416992 -18.0240974426269531 -2.98138642311096191
-9.80008888244628906 -3.21191549301147461 -19.5898113250732422
10.7608299255371094 11.9204540252685547 1.24609315395355225
-12.6783781051635742 3.62272167205810547 -12.6882467269897461
1.19069051742553711 -22.3641567230224609 4.58599519729614258
-5.14966344833374023 -0.756576836109161377 -8.61980152130126953
-11.9407339096069336 16.0253372192382812 6.03644227981567383
7.25808286666870117 -4.90894794464111328 -1.27098608016967773
-5.98310661315917969 -3.59094429016113281 -4.94353675842285156
3.42662262916564941 -20.0963249206542969 -6.13369464874267578
4.96207809448242188 11.4182806015014648 -21.1019821166992188
-6.90875864028930664 -24.4934349060058594 -0.932212948799133301
2.13805437088012695 -18.4463024139404297 2.22638034820556641
7.67594146728515625 12.5168733596801758 4.3795318603515625
11.0013942718505859 1.6663050651550293 -10.7570562362670898
9.19797229766845703 -7.67916679382324219 21.5538120269775391
4.52643203735351562 -0.727044999599456787 -7.47115612030029297
2.7137753963470459 -2.1199343204498291 -9.35570430755615234
1.89223861694335938 -0.517267048358917236 15.6676673889160156
-12.9961490631103516 1.77589511871337891 -21.3663825988769531
2.57467913627624512 -0.860302090644836426 -24.4638671875
-9.36564159393310547 2.373016357421875 -0.476940065622329712
-10.3429698944091797 13.7026309967041016 8.01523780822753906
7.84794950485229492 -7.48664093017578125 -3.10323452949523926
1.28216803073883057 16.6606025695800781 -5.95631933212280273
7.87984848022460938 -10.6119089126586914 20.5244197845458984
0.964343726634979248 -5.79280281066894531 25.7633914947509766
13.517329216003418 5.44263267517089844 -8.24427509307861328
-2.32866215705871582 -32.2853012084960938 -6.98348093032836914
-2.91541767120361328 11.6598196029663086 12.3632898330688477
-1.38257789611816406 -6.96738338470458984 5.3519282341003418
-0.382155030965805054 18.3810005187988281 1.01775538921356201
0.125882863998413086 -37.7321929931640625 1.79541516304016113
1.19638621807098389 14.2294073104858398 -13.9977293014526367
7.51928186416625977 1.10191202163696289 -22.0645332336425781
-0.0904088988900184631 9.63547420501708984 16.5745429992675781
-12.7931509017944336 3.75538063049316406 -18.9439582824707031
-0.230765730142593384 -8.13827800750732422 5.72869682312011719
-2.67053771018981934 0.786442160606384277 5.97406816482543945
3.99101042747497559 -21.0655956268310547 -4.21501636505126953
4.20672798156738281 4.1150212287902832 10.7659063339233398
-2.23688268661499023 7.13188743591308594 18.2975025177001953
-2.65666913986206055 -15.5295171737670898 7.00708770751953125
-9.62732315063476562 11.8485584259033203 11.431706428527832
1.88892769813537598 -36.1530380249023438 -3.70298910140991211
6.80529260635375977 2.8281705379486084 5.22188234329223633
1.00572991371154785 -29.0776176452636719 -8.53203105926513672
12.4877653121948242 0.587164998054504395 -10.6468286514282227
14.4604282379150391 -6.16549873352050781 -2.65598535537719727
-14.0763416290283203 13.9471645355224609 5.20189666748046875
3.6871635913848877 14.3419332504272461 -16.1708755493164062
-14.1989164352416992 2.33463621139526367 -6.94549989700317383
7.39856576919555664 13.7863044738769531 -13.7128801345825195
2.88593411445617676 -36.3828277587890625 -5.98529386520385742
3.13272237777709961 13.6291399002075195 10.7999582290649414
-8.59144115447998047 6.60713434219360352 -23.8013896942138672
-2.44326043128967285 -19.0456314086914062 8.22379589080810547
-3.9410545825958252 -12.7780599594116211 -10.3546648025512695
8.92675590515136719 14.6293983459472656 -10.5101127624511719
4.751373291015625 -14.7857046127319336 -1.8233497142791748
-6.07827663421630859 -11.0236454010009766 20.1455154418945312
-3.49246406555175781 -41.2300033569335938 0.282277226448059082
-2.70165586471557617 -11.3804874420166016 14.1709976196289062
3.01916885375976562 -6.67347955703735352 0.200456723570823669
1.64923274517059326 -8.07456207275390625 -18.9513683319091797
3.78323698043823242 -2.85754823684692383 2.47333073616027832
0.62181854248046875 -19.5719547271728516 -12.2024984359741211
-15.8842935562133789 8.06120109558105469 -7.53355979919433594
9.81471920013427734 13.3656034469604492 -12.8434734344482422
5.61573076248168945 -10.9398384094238281 -3.83470249176025391
9.34425735473632812 -4.17281007766723633 0.0893058478832244873
-4.28417444229125977 -1.8079681396484375 -17.0329685211181641
-7.53179311752319336 11.1220512390136719 -12.6037673950195312
-2.5725092887878418 -13.0828542709350586 12.6060419082641602
-7.7527470588684082 18.9472370147705078 -1.56472682952880859
-11.9569902420043945 5.24823617935180664 -14.9777050018310547
5.57827854156494141 10.7991609573364258 -19.1028556823730469
2.28112936019897461 -23.9617900848388672 -8.71235847473144531
9.92794513702392578 4.14788722991943359 -15.4929447174072266
4.57216215133666992 -25.3038349151611328 -3.82634472846984863
-15.5093317031860352 5.39667606353759766 -4.43055200576782227
4.35516977310180664 9.96213626861572266 11.0134782791137695
-6.49172019958496094 19.3065128326416016 2.41004753112792969
4.35795450210571289 3.32743430137634277 10.4613666534423828
-8.04654216766357422 -0.429014384746551514 -11.0436916351318359
-14.9672708511352539 13.3896455764770508 1.99613118171691895
-0.370436996221542358 -20.2454261779785156 7.98266839981079102
1.16732525825500488 0.471150755882263184 -25.41241455078125
-6.42174100875854492 -21.1980743408203125 0.933114826679229736
17.627166748046875 -0.0974743738770484924 1.76382029056549072
-2.05825328826904297 -18.0718364715576172 8.07911491394042969
6.18372344970703125 -3.94705748558044434 -16.5269622802734375
1.01222419738769531 10.2002248764038086 17.0633029937744141
16.6348190307617188 -3.26552224159240723 -5.56640958786010742
18.6332511901855469 -0.286933690309524536 1.06768453121185303
-13.1701650619506836 13.6362638473510742 6.46753072738647461
-9.88176631927490234 -5.28327465057373047 16.6215400695800781
-7.37047433853149414 11.1037378311157227 -16.7767658233642578
2.73907303810119629 -24.7324123382568359 -7.8547821044921875
-10.2487545013427734 17.2086601257324219 -2.7326045036315918
-2.14356875419616699 -4.72630119323730469 26.6553611755371094
3.08699703216552734 -5.02747201919555664 -8.38583850860595703
-11.0414848327636719 -3.50024104118347168 -17.0494518280029297
4.57981681823730469 -3.55239415168762207 -21.1555843353271484
-5.04182577133178711 6.44840192794799805 16.6654472351074219
10.2869081497192383 -2.96280121803283691 -3.08788609504699707
12.6905994415283203 10.1611413955688477 -9.00056743621826172
-2.93192553520202637 -38.4441184997558594 -5.91543722152709961
3.82325649261474609 -3.4078667163848877 -12.9632568359375
2.91979503631591797 -3.73828816413879395 -8.82051753997802734
-12.4039230346679688 1.89755928516387939 3.1116340160369873
-14.1876049041748047 8.59895515441894531 8.05435085296630859
8.84075641632080078 -3.19943380355834961 3.81712150573730469
0.396398156881332397 -6.85758543014526367 25.5573711395263672
-11.2273550033569336 2.96652674674987793 15.3861494064331055
-2.04869937896728516 -6.64446258544921875 4.62447643280029297
1.64904451370239258 -10.5792245864868164 24.5105686187744141
6.30773544311523438 -3.83593606948852539 -19.0092124938964844
6.27950763702392578 0.510349571704864502 -23.7039775848388672
2.84762072563171387 -8.44479942321777344 24.3052501678466797
1.74707221984863281 -2.49515533447265625 6.43745231628417969
11.914280891418457 8.02895545959472656 0.402123242616653442
17.5744647979736328 1.50378334522247314 -3.94834065437316895
-7.77120733261108398 10.2959299087524414 11.4156036376953125
-6.63151311874389648 -9.35802268981933594 14.0684986114501953
-8.21896839141845703 2.17365074157714844 0.993538081645965576
8.76308059692382812 3.00534319877624512 -19.5222492218017578
-11.5268535614013672 6.85926532745361328 12.5803422927856445
-1.21459376811981201 -3.10578203201293945 5.84025001525878906
3.533203125 7.07035017013549805 16.8794822692871094
-11.7463560104370117 9.7298583984375 10.0234260559082031
-13.9470148086547852 14.1628255844116211 -4.44530582427978516
0.998614490032196045 -29.2548122406005859 4.59985017776489258
