ply
format ascii 1.0
element vertex 782
comment vertices
property float x
property float y
property float z
end_header
-3.59227895736694336 -10.8326311111450195 -29.1791934967041016
24.5699748992919922 2.83393073081970215 -20.1453323364257812
-1.50707769393920898 -18.8398246765136719 -20.6771755218505859
1.84296929836273193 -20.6728649139404297 -24.5528335571289062
-34.8102645874023438 2.79084181785583496 2.18739891052246094
32.4872894287109375 -0.968727171421051025 11.1165323257446289
11.0945510864257812 15.0427112579345703 25.8192348480224609
-0.878194034099578857 14.139063835144043 32.0521163940429688
-0.928350567817687988 0.198158383369445801 -30.4237022399902344
22.4860706329345703 -17.7351799011230469 -2.64946484565734863
10.7276926040649414 12.7061281204223633 32.2824249267578125
-18.1976261138916016 -18.894195556640625 -7.43289709091186523
3.73278975486755371 16.0688209533691406 -3.35905838012695312
6.59050655364990234 9.62282276153564453 38.0924148559570312
31.9011173248291016 3.86663818359375 14.5462007522583008
-25.4788131713867188 14.6481027603149414 12.8482379913330078
27.1177654266357422 -19.6393051147460938 -10.8103876113891602
-25.205352783203125 -17.8506355285644531 10.9158506393432617
11.071558952331543 15.1288547515869141 23.6829662322998047
29.4538764953613281 11.3216495513916016 17.4431915283203125
9.53307723999023438 -4.73968315124511719 36.5510597229003906
21.507049560546875 -10.2250661849975586 -20.8597354888916016
-33.1104164123535156 5.34960460662841797 -7.27741622924804688
3.19613432884216309 15.4723453521728516 11.1712026596069336
-3.19162464141845703 -4.54708719253540039 -29.8821144104003906
-24.9614410400390625 -18.5997257232666016 6.68141698837280273
-0.574261665344238281 0.697355031967163086 -30.6777667999267578
31.4263839721679688 -16.7782764434814453 8.95422649383544922
20.8855628967285156 -6.59065437316894531 30.2972526550292969
5.13112545013427734 -17.4814014434814453 24.3841323852539062
-31.2194938659667969 9.39654350280761719 -7.818115234375
-0.0192829575389623642 4.95388221740722656 -31.0919513702392578
21.4334392547607422 -20.4482898712158203 -14.8604812622070312
27.9693889617919922 7.85710859298706055 25.4066276550292969
11.5989227294921875 -17.6954669952392578 13.1660337448120117
-25.6343936920166016 8.26904582977294922 -17.7444553375244141
-2.07991504669189453 -20.3517227172851562 -26.6489467620849609
13.9508953094482422 -17.7985954284667969 -12.3628921508789062
-18.2145328521728516 3.43025732040405273 33.0390739440917969
-34.1255302429199219 7.59681987762451172 16.1379966735839844
-8.39019584655761719 14.0331134796142578 31.1567039489746094
-0.133718803524971008 15.4912548065185547 9.62145614624023438
3.47361421585083008 2.91498684883117676 37.9810066223144531
11.3713178634643555 -6.83234357833862305 -27.4777488708496094
9.13996791839599609 -16.3144569396972656 16.3475570678710938
5.53417110443115234 15.9821634292602539 -16.2364654541015625
-24.5578174591064453 10.7987880706787109 -16.2024116516113281
13.5913276672363281 -17.6006050109863281 25.292388916015625
21.9643306732177734 -19.9643211364746094 -17.7581005096435547
-27.4180755615234375 3.03552389144897461 -17.3858928680419922
16.6137523651123047 -12.1878032684326172 -24.3049678802490234
-12.8266897201538086 -16.9246597290039062 26.2874469757080078
4.85264873504638672 -17.2449417114257812 11.0436153411865234
13.9668254852294922 10.8081169128417969 -24.2279644012451172
-12.0473880767822266 -17.6986122131347656 11.6882448196411133
-25.3221626281738281 -5.49617576599121094 27.5326900482177734
15.3284749984741211 8.66268539428710938 -26.3007888793945312
-22.0018806457519531 -19.0740375518798828 -8.23845005035400391
14.9016218185424805 15.1053018569946289 16.7207298278808594
21.8387279510498047 -1.65645492076873779 29.7686328887939453
22.4997749328613281 -18.8735103607177734 5.35997390747070312
-0.945102214813232422 16.3862018585205078 -13.2422361373901367
-34.2453536987304688 -10.2759885787963867 6.78324031829833984
5.77081441879272461 15.5676984786987305 8.02561473846435547
-23.8916339874267578 -14.1691398620605469 -19.3972454071044922
-13.6837062835693359 16.0550651550292969 -6.36548662185668945
27.4100914001464844 -13.8207292556762695 -13.1156005859375
-28.7777099609375 -19.3129940032958984 13.407841682434082
31.6060562133789062 -6.94184207916259766 -5.23887205123901367
-1.84012758731842041 -18.5841732025146484 4.42721033096313477
-15.6212339401245117 16.2739505767822266 16.8156166076660156
2.66144609451293945 -5.6027064323425293 -29.6956272125244141
-11.7589378356933594 11.414546012878418 -25.1229019165039062
30.4317760467529297 -15.7252101898193359 -5.87964344024658203
-4.88148260116577148 -15.1663532257080078 37.2254066467285156
16.8353404998779297 -19.0551261901855469 -10.6216983795166016
-30.2779026031494141 -3.29492688179016113 -12.0610332489013672
-32.839202880859375 -10.7786321640014648 -5.37455940246582031
-18.7908248901367188 -14.9835662841796875 31.6846771240234375
26.47723388671875 12.2070560455322266 19.9483203887939453
-16.2338485717773438 15.9575576782226562 -4.87328577041625977
-30.2837982177734375 0.200173616409301758 21.4009075164794922
34.7978897094726562 6.86654043197631836 7.53321552276611328
-26.6073284149169922 5.36643266677856445 27.3631629943847656
25.3312911987304688 -13.5428104400634766 -16.06158447265625
-20.9410018920898438 -19.5452060699462891 -21.0136966705322266
14.749354362487793 -13.2248611450195312 33.9199790954589844
6.74370479583740234 -18.0467128753662109 28.6347026824951172
11.068547248840332 -15.3689613342285156 35.2985420227050781
10.6399784088134766 15.8238811492919922 2.82679057121276855
-31.8166522979736328 10.9320659637451172 -1.55052053928375244
-26.9635448455810547 14.319061279296875 8.25829696655273438
1.58886599540710449 -17.7399482727050781 -0.421475708484649658
-13.9882898330688477 -14.7374935150146484 34.4472846984863281
16.2848281860351562 -17.2289714813232422 -2.14812517166137695
-10.6544761657714844 -20.9374237060546875 -22.7214736938476562
30.2311000823974609 -13.7371826171875 -6.90182018280029297
-5.99075651168823242 -14.6374216079711914 -28.5590076446533203
22.2867469787597656 13.9185256958007812 20.0514430999755859
15.3537654876708984 -17.1540622711181641 23.6419353485107422
2.30888175964355469 16.0741310119628906 -17.0749893188476562
5.90512561798095703 14.1412744522094727 -21.1733818054199219
5.12955331802368164 9.51164722442626953 -28.8544578552246094
26.1891098022460938 12.7206935882568359 18.4540214538574219
-13.2737722396850586 -16.9918556213378906 26.0989151000976562
5.80710983276367188 16.1821327209472656 -12.5542945861816406
19.6660442352294922 15.5771455764770508 5.78777217864990234
1.67758464813232422 -17.8144111633300781 -9.16645145416259766
3.71992969512939453 15.5487594604492188 9.91832065582275391
-0.680526077747344971 -16.0431194305419922 21.3988380432128906
21.5398101806640625 14.6570005416870117 -8.13930416107177734
-3.97735786437988281 5.18890857696533203 -30.0658798217773438
11.6586523056030273 -6.38553810119628906 -27.3967761993408203
20.1416091918945312 0.40178680419921875 31.381622314453125
26.1803035736083984 12.598841667175293 18.9622173309326172
-34.2840499877929688 -7.41267538070678711 7.78457212448120117
-5.93339633941650391 4.45684576034545898 -26.9631118774414062
9.50843620300292969 15.0368928909301758 26.0293922424316406
32.0267372131347656 -5.99857568740844727 -3.81012105941772461
-23.4379501342773438 14.8509912490844727 16.4786338806152344
13.2164497375488281 -17.2788448333740234 2.45369076728820801
14.5476293563842773 -0.838972032070159912 -26.9568691253662109
-28.3012275695800781 -20.4057865142822266 -10.3407106399536133
4.28312540054321289 16.0837860107421875 -4.20790624618530273
-23.5371227264404297 15.0751514434814453 5.46296405792236328
9.25721263885498047 -1.30238497257232666 36.7519454956054688
7.01506710052490234 15.7858171463012695 20.6878070831298828
32.5920639038085938 -6.13747739791870117 8.61041355133056641
5.46422719955444336 -17.6584453582763672 28.4448432922363281
14.7466888427734375 -11.8608427047729492 34.0436592102050781
18.0000667572021484 -17.6169052124023438 -22.2881088256835938
23.8561344146728516 -15.689702033996582 -17.4726676940917969
14.5153570175170898 12.3999004364013672 -21.030731201171875
24.1276073455810547 -12.5955076217651367 -17.7183036804199219
-2.05010104179382324 -16.6000518798828125 36.9426727294921875
6.91873455047607422 15.7776622772216797 0.0469605475664138794
6.42474889755249023 -16.8806056976318359 7.17291498184204102
12.2240447998046875 -17.6573619842529297 12.8430423736572266
3.70345187187194824 -2.21933269500732422 37.9536056518554688
-35.4597702026367188 8.45827674865722656 4.89547109603881836
32.4929618835449219 -10.1476736068725586 2.80966687202453613
34.1118736267089844 8.83978939056396484 3.17461919784545898
-24.0082740783691406 -17.889404296875 -0.232040703296661377
-24.915771484375 -14.1181440353393555 -18.4598731994628906
17.40185546875 -11.6597557067871094 -23.7815704345703125
28.8944816589355469 -8.49432849884033203 -11.5476865768432617
31.9419002532958984 -15.547454833984375 4.65654611587524414
-16.5030899047851562 -2.06557416915893555 -25.8594322204589844
16.1581878662109375 -17.1013927459716797 13.7425947189331055
25.1821765899658203 -15.5478582382202148 24.6455745697021484
-7.6157379150390625 12.5606966018676758 -25.7519073486328125
-7.66677188873291016 -17.8212833404541016 36.2706985473632812
27.3809661865234375 -18.8274059295654297 17.2553195953369141
25.9605617523193359 -11.5203475952148438 24.3907222747802734
-18.6587352752685547 -20.1770496368408203 -18.2873687744140625
17.9830665588378906 -19.5540027618408203 -10.7658300399780273
1.39796769618988037 -13.2680721282958984 -28.9129180908203125
14.7155351638793945 -1.83277392387390137 -26.8257293701171875
-23.4036006927490234 11.4745979309082031 26.9051284790039062
15.9349260330200195 -13.2230558395385742 33.2234954833984375
-14.0542478561401367 -17.5055713653564453 2.79241800308227539
1.18596410751342773 -18.422576904296875 2.65714764595031738
24.9317398071289062 -18.5394172668457031 13.7753429412841797
-26.5123939514160156 -17.8538608551025391 -15.903712272644043
25.2149677276611328 3.5591588020324707 26.2020854949951172
-33.9533538818359375 -14.159703254699707 1.63104963302612305
22.6832618713378906 11.9013805389404297 25.7584438323974609
20.8963375091552734 8.83575153350830078 -22.4466991424560547
12.0585269927978516 -17.4230403900146484 24.0614643096923828
24.0455150604248047 11.2505407333374023 -15.035832405090332
-4.38820028305053711 -17.3823890686035156 12.0954818725585938
11.4749898910522461 -17.7063617706298828 13.1810474395751953
17.5823802947998047 7.83672142028808594 -25.8906116485595703
-0.552399218082427979 6.64721155166625977 38.17791748046875
-10.1625099182128906 13.9132537841796875 -21.1275234222412109
-4.13878583908081055 -20.7141761779785156 -24.8025627136230469
-26.8317909240722656 -18.915863037109375 15.9888448715209961
-2.58962345123291016 -18.0365543365478516 -18.3251247406005859
-31.3772068023681641 12.0665826797485352 3.67768716812133789
10.7826013565063477 -1.67928457260131836 36.3024673461914062
16.0057258605957031 -17.9093818664550781 5.71176338195800781
22.3188056945800781 14.7718343734741211 -5.99215030670166016
-32.7528343200683594 -11.60504150390625 14.0352687835693359
-12.7080249786376953 -16.8799915313720703 25.6769447326660156
28.9346084594726562 12.8979206085205078 2.36011648178100586
-24.7101173400878906 12.8340377807617188 -11.5642900466918945
-12.0843772888183594 9.47638225555419922 -25.1730709075927734
0.381365150213241577 -17.7106857299804688 -28.3260726928710938
-30.1983795166015625 12.165557861328125 12.2841892242431641
24.4715633392333984 11.69757080078125 24.7498607635498047
-34.570343017578125 -3.31894803047180176 6.67931127548217773
5.19672679901123047 14.7971057891845703 -19.9242153167724609
28.8913173675537109 -18.4778804779052734 14.3641462326049805
-6.46834850311279297 15.5724201202392578 5.46451568603515625
29.9833698272705078 0.906063616275787354 -11.3273477554321289
13.9143514633178711 -20.4102859497070312 -19.8605976104736328
2.24370718002319336 -11.5739603042602539 -29.0864372253417969
22.2624607086181641 -17.9586086273193359 -4.88353395462036133
-33.1448516845703125 -2.86155509948730469 13.9249410629272461
16.8103981018066406 -17.6310958862304688 14.7388420104980469
17.3498172760009766 -0.670595407485961914 -25.4794788360595703
28.1735649108886719 -16.8862285614013672 -10.6450405120849609
-4.20963144302368164 16.3990020751953125 -15.6106014251708984
22.5111980438232422 6.61256122589111328 -22.9730129241943359
18.4830245971679688 -17.3264122009277344 6.94872474670410156
7.93829488754272461 -0.924395859241485596 -29.3311138153076172
-28.0386123657226562 1.91498613357543945 25.0489749908447266
26.6463661193847656 -4.47612762451171875 24.1838874816894531
-24.2333717346191406 -17.8011417388916016 -18.7762279510498047
24.0636463165283203 -15.5417299270629883 -17.2790088653564453
-20.0316581726074219 -17.2910194396972656 9.6025390625
-13.1262063980102539 16.03790283203125 -5.24462509155273438
-14.0108785629272461 -18.0664215087890625 -25.6298656463623047
-11.326258659362793 -20.920654296875 -23.2354068756103516
-10.7218112945556641 -19.0308494567871094 -17.3717746734619141
-4.39707374572753906 -17.6131057739257812 15.6900606155395508
-3.41586971282958984 15.5855236053466797 -18.702362060546875
10.5692558288574219 -18.1893024444580078 -15.913330078125
-20.9640884399414062 -8.79137420654296875 -22.7171230316162109
-15.3393669128417969 9.65823554992675781 34.0104026794433594
28.5631256103515625 -17.5510292053222656 -9.46433162689208984
3.95709347724914551 16.2268238067626953 -12.2721366882324219
-21.0200824737548828 -14.8883676528930664 30.6092109680175781
19.8718509674072266 -10.0729894638061523 30.8595447540283203
6.35597991943359375 -16.7097644805908203 6.64119100570678711
-28.0383682250976562 -20.7191867828369141 -7.37614536285400391
22.4294281005859375 4.25995683670043945 -22.6202678680419922
32.2111701965332031 -13.0178661346435547 2.64729571342468262
-24.1487998962402344 -17.9567070007324219 -1.09479868412017822
4.29901933670043945 -18.9047431945800781 -12.4165220260620117
21.5765457153320312 -0.173574730753898621 -22.2078495025634766
-19.4794769287109375 2.47482132911682129 32.4881935119628906
-24.2233791351318359 -14.098393440246582 -19.1619834899902344
-7.46559906005859375 15.3328561782836914 11.7386932373046875
-8.8727874755859375 -19.6935653686523438 -17.9627132415771484
7.12932109832763672 15.4939641952514648 9.37496757507324219
2.52098894119262695 -17.2657184600830078 20.0249557495117188
22.0675144195556641 -19.2357044219970703 -18.3311290740966797
-22.5548553466796875 15.5775823593139648 8.91036701202392578
-24.3826789855957031 -17.7924346923828125 -18.6565036773681641
-20.1016349792480469 -18.5184822082519531 20.7373542785644531
21.2548942565917969 -8.29108619689941406 -21.4033126831054688
-6.32260322570800781 -16.7449989318847656 -4.06001901626586914
-19.2180824279785156 15.7743129730224609 -3.5759730339050293
21.4721012115478516 -17.6166343688964844 13.6077098846435547
-6.1769556999206543 3.91727137565612793 -27.7580680847167969
-32.2686996459960938 11.1846952438354492 10.6791810989379883
32.59991455078125 -8.37399673461914062 4.13056278228759766
15.5782995223999023 8.43051528930664062 -26.3406696319580078
30.9814090728759766 -6.65043020248413086 15.4618921279907227
-35.3830604553222656 8.41498184204101562 3.66373205184936523
1.6134408712387085 -15.2272024154663086 37.0475959777832031
15.1064357757568359 -1.14449870586395264 34.5078201293945312
5.46530675888061523 -19.6537361145019531 -18.0578384399414062
19.4739532470703125 -17.1239223480224609 10.1516733169555664
-9.58769130706787109 -12.1871604919433594 36.5312423706054688
-5.44418525695800781 16.276763916015625 -7.23628568649291992
1.58413183689117432 16.2756919860839844 -14.6235647201538086
-17.261474609375 -19.4205169677734375 -23.6064853668212891
-3.84946250915527344 1.69524955749511719 -30.1240558624267578
-8.99926185607910156 -20.8096714019775391 -24.9029445648193359
0.746911525726318359 9.52230453491210938 38.4761543273925781
-3.2894752025604248 16.2554302215576172 -16.6305332183837891
-15.9338006973266602 -16.8384017944335938 10.7749490737915039
-30.3303260803222656 10.2310304641723633 -8.0224609375
-2.10614967346191406 -16.3845539093017578 19.6726284027099609
10.2786350250244141 7.66305160522460938 -29.1610679626464844
-10.7844266891479492 -18.035736083984375 -1.92408537864685059
18.3007678985595703 1.68119406700134277 -24.4199161529541016
21.0965423583984375 8.09424686431884766 31.4563922882080078
-19.5385684967041016 14.1427555084228516 24.4858226776123047
-21.9433059692382812 -17.4120731353759766 12.2401943206787109
32.5448265075683594 8.49186420440673828 -5.21265983581542969
31.8649425506591797 -9.99596500396728516 -2.53731250762939453
-18.9681930541992188 1.87852370738983154 -25.0914936065673828
-26.0326862335205078 -15.0861978530883789 25.7298107147216797
21.4593620300292969 -17.6908988952636719 -3.80495238304138184
-33.3688774108886719 -14.0813131332397461 10.789546012878418
28.6683387756347656 10.0665950775146484 -10.950775146484375
-4.43264579772949219 -16.9352493286132812 28.8153133392333984
2.44499540328979492 -17.5076389312744141 22.4571514129638672
30.6775283813476562 7.70569229125976562 20.8687648773193359
-4.1533660888671875 -17.9172744750976562 -11.8252458572387695
23.0086326599121094 -7.27795648574829102 28.2443428039550781
4.59139156341552734 -17.3087291717529297 22.2661514282226562
-0.421609610319137573 -18.1739234924316406 -28.2638301849365234
-5.21989250183105469 13.8460397720336914 32.5005302429199219
21.5878086090087891 -7.99543094635009766 -21.2218780517578125
-21.2296886444091797 13.0682315826416016 25.6196155548095703
-3.89058089256286621 -2.12881708145141602 -29.9824542999267578
-14.4491081237792969 6.91682100296020508 -25.5285987854003906
-33.4277763366699219 -13.0142593383789062 -2.58282113075256348
-25.7421188354492188 -19.7122135162353516 -7.46335077285766602
-18.3260746002197266 -7.68197393417358398 -24.5902843475341797
-27.1414985656738281 14.2691535949707031 6.53541088104248047
17.5649490356445312 -17.3138561248779297 -0.371720939874649048
-9.08826732635498047 -17.1361770629882812 5.83335113525390625
-14.0169925689697266 12.4743013381958008 -22.1977119445800781
27.8217811584472656 8.69154262542724609 25.1481647491455078
-11.8338623046875 -16.9615097045898438 2.35943102836608887
-34.3754348754882812 2.13511395454406738 -2.59224224090576172
-18.1876468658447266 15.2217845916748047 7.40226173400878906
26.4276828765869141 13.8515558242797852 1.19879722595214844
-10.5714073181152344 -0.522217869758605957 -28.1229267120361328
24.0209503173828125 -19.366058349609375 18.9995365142822266
-2.01767110824584961 13.6232194900512695 -23.3120803833007812
-17.5521049499511719 -18.2919845581054688 -15.6369657516479492
6.46517038345336914 2.33926630020141602 -30.3335075378417969
-3.63594341278076172 -12.7809419631958008 -29.0127201080322266
8.29620838165283203 4.38804960250854492 37.5035896301269531
-36.2427558898925781 6.7939915657043457 4.52036380767822266
10.7762432098388672 -8.32899570465087891 36.1618919372558594
32.8312797546386719 -6.44551706314086914 2.09636974334716797
-27.0848312377929688 10.7173442840576172 -12.8745326995849609
-4.51323318481445312 -12.2942399978637695 -28.9735240936279297
30.8418388366699219 -17.7645587921142578 -1.84627163410186768
-12.1992197036743164 13.2847347259521484 -21.6286048889160156
15.7807283401489258 -17.2556190490722656 25.8187503814697266
-30.6510791778564453 -19.2272014617919922 -6.75142145156860352
33.8763198852539062 4.74546241760253906 7.94380521774291992
15.0690279006958008 -20.6867790222167969 -20.9703617095947266
-8.97016620635986328 -16.5794906616210938 7.32714700698852539
-6.16001605987548828 -17.7888603210449219 -6.64848136901855469
5.74874734878540039 -19.3594379425048828 -15.3040523529052734
-6.38066291809082031 15.7652368545532227 3.08867716789245605
-11.3556194305419922 -16.7098903656005859 1.41204071044921875
29.7127952575683594 -15.0801334381103516 15.4276714324951172
-18.9808082580566406 14.0922889709472656 25.1711101531982422
32.4321403503417969 -8.56243419647216797 8.65438175201416016
2.12968182563781738 -17.8091621398925781 -2.27906322479248047
-30.2620906829833984 -5.41676139831542969 -12.0218935012817383
-27.2520313262939453 -1.24260342121124268 -17.1809272766113281
11.0853004455566406 -18.2128124237060547 -16.0586528778076172
-6.54951810836791992 -18.2244644165039062 25.4443931579589844
19.4207935333251953 -13.0986547470092773 -22.1027183532714844
-32.0751457214355469 -0.0875425785779953003 18.204315185546875
-33.34417724609375 -16.7817440032958984 7.49194192886352539
23.6099967956542969 11.9022092819213867 -14.0818748474121094
-32.4736595153808594 10.6337881088256836 -0.177072480320930481
-8.05342483520507812 -17.4727344512939453 10.8220224380493164
1.88650214672088623 -12.5598602294921875 -28.9762973785400391
22.5308265686035156 -5.00092983245849609 28.8493862152099609
-21.9818000793457031 -8.59621810913085938 30.4909992218017578
2.05385732650756836 -17.1137485504150391 21.5535125732421875
32.4902915954589844 3.13419389724731445 -5.13700294494628906
-19.4651603698730469 14.7079296112060547 22.5045356750488281
11.4324445724487305 -1.64644098281860352 -27.982086181640625
-7.61978864669799805 -16.2258033752441406 14.7622137069702148
5.44667673110961914 15.2466964721679688 -18.8475208282470703
-9.05228805541992188 -4.01440286636352539 -28.4125442504882812
3.17104911804199219 -17.3895511627197266 19.170501708984375
7.83291864395141602 15.7335309982299805 6.06043577194213867
5.52618074417114258 -17.7007560729980469 26.9235935211181641
-7.67142057418823242 -17.11102294921875 -7.462066650390625
32.6260108947753906 0.311735600233078003 11.1580953598022461
-31.6838703155517578 6.09517860412597656 -9.11036872863769531
-15.7852449417114258 5.54871892929077148 33.7844352722167969
-31.8496170043945312 -4.62768077850341797 17.6748771667480469
-3.2146000862121582 15.4580783843994141 13.1392536163330078
-12.1919965744018555 -17.5588932037353516 -6.7367243766784668
27.1029453277587891 -17.8360366821289062 -12.2940635681152344
-33.1683197021484375 -0.857641816139221191 15.3744478225708008
31.2499561309814453 -5.06873941421508789 14.9093770980834961
-0.655883252620697021 5.11955785751342773 38.2633552551269531
-7.58055782318115234 -17.6413021087646484 22.7054176330566406
12.8735685348510742 10.2318544387817383 -25.5030517578125
-34.3493537902832031 -7.66870498657226562 1.97468388080596924
-4.7366633415222168 -14.9771785736083984 37.2908782958984375
-13.1810808181762695 -17.6718273162841797 12.8411092758178711
5.55459165573120117 -16.9722785949707031 -2.45255827903747559
3.27549266815185547 6.56818151473999023 38.6288032531738281
5.22557878494262695 16.1877765655517578 -8.41992473602294922
-14.5122003555297852 -20.048828125 -24.286376953125
5.25940132141113281 -20.7920188903808594 -23.3644809722900391
-14.1032199859619141 16.2752952575683594 -10.5548171997070312
-31.7302474975585938 -5.26800537109375 17.8838710784912109
10.2943944931030273 -3.21666765213012695 -28.3306465148925781
-34.9048538208007812 7.19115591049194336 -3.07895016670227051
2.97535467147827148 -17.8518524169921875 -4.66796445846557617
-16.5635013580322266 11.4408960342407227 32.3855552673339844
-16.1894073486328125 7.20906352996826172 -25.1748981475830078
-11.5989446640014648 7.62346887588500977 36.7584037780761719
-34.3891563415527344 9.22762870788574219 1.0091937780380249
34.7370948791503906 6.44555521011352539 1.06192398071289062
-33.2411003112792969 9.45792198181152344 14.2763690948486328
-2.96637415885925293 16.3180694580078125 -8.09426307678222656
31.4710502624511719 -15.8543577194213867 9.87772560119628906
8.26730728149414062 3.43334865570068359 -30.1272163391113281
-14.1458454132080078 15.4426612854003906 10.2044086456298828
-1.60283732414245605 -11.4645318984985352 37.8181800842285156
11.0287809371948242 13.6293678283691406 30.1227779388427734
-4.20844364166259766 -16.9702682495117188 21.9166030883789062
-4.63414716720581055 -17.3994808197021484 -0.960090696811676025
3.55045270919799805 14.6901273727416992 -20.4898090362548828
-15.8653841018676758 -18.3583755493164062 -14.2766733169555664
33.9303550720214844 8.43130874633789062 12.4739761352539062
33.5502281188964844 5.95255374908447266 10.7096233367919922
-12.0283889770507812 -18.1427974700927734 -15.8502893447875977
29.7127761840820312 -13.9736537933349609 16.2148380279541016
-21.8297634124755859 -17.4254474639892578 12.2348794937133789
-34.612152099609375 -4.69810199737548828 1.96432054042816162
-33.58892822265625 1.3124767541885376 14.9452352523803711
5.21258354187011719 16.0908908843994141 -4.20900297164916992
-17.1545009613037109 -1.19468593597412109 33.5961227416992188
2.15312767028808594 15.4197187423706055 27.6465606689453125
2.11744189262390137 -17.58099365234375 26.3061103820800781
-16.3129940032958984 -16.8496513366699219 7.57906198501586914
4.33658981323242188 -17.5361347198486328 10.7815666198730469
28.1003379821777344 -4.71353435516357422 -13.7996330261230469
-17.4656887054443359 -17.3969345092773438 31.2387847900390625
-11.5095243453979492 1.91197586059570312 36.5006294250488281
-15.6479167938232422 -16.9324779510498047 24.659423828125
0.992915630340576172 -19.3160419464111328 -27.8498115539550781
2.37865161895751953 16.3024578094482422 -12.3828754425048828
-1.71493208408355713 16.0131912231445312 19.4798927307128906
-33.265472412109375 -15.0542564392089844 10.5593795776367188
20.7319068908691406 2.05345773696899414 -23.2429599761962891
-10.1642313003540039 13.2927103042602539 -23.0194339752197266
27.4202919006347656 11.8858785629272461 -7.55830478668212891
-26.8537883758544922 -13.5426397323608398 -16.2810287475585938
-27.8223209381103516 -18.7782344818115234 20.6982078552246094
12.7586727142333984 11.1099014282226562 34.572601318359375
27.2193622589111328 5.73080110549926758 25.0180683135986328
-8.42663383483886719 15.7141790390014648 21.2618312835693359
7.214691162109375 -17.0134105682373047 11.895359992980957
-16.5251350402832031 11.1216926574707031 -22.5812702178955078
13.2646322250366211 13.0478715896606445 30.3604316711425781
-6.61945724487304688 -17.9759387969970703 27.0935173034667969
10.5190715789794922 -4.56287002563476562 -28.0267620086669922
-6.37398672103881836 15.9021081924438477 20.7043380737304688
-13.4616289138793945 -0.735868513584136963 34.7701187133789062
11.7792825698852539 15.5942773818969727 19.4560298919677734
-15.81488037109375 8.20147895812988281 33.9467010498046875
-17.5986137390136719 -18.2534465789794922 -15.23291015625
-18.6746273040771484 -7.70394086837768555 -24.3510704040527344
-4.56124067306518555 15.4832630157470703 6.55472421646118164
-9.65961360931396484 -16.4867172241210938 -27.5083770751953125
17.74072265625 15.7096776962280273 0.692382395267486572
27.0273361206054688 9.79218006134033203 -14.0273475646972656
-34.6684646606445312 -2.22865748405456543 5.91148185729980469
7.89762496948242188 -16.6725578308105469 21.9726390838623047
32.59356689453125 9.47395706176757812 -2.41122221946716309
-32.0885429382324219 9.47765827178955078 -6.08074617385864258
-9.50762367248535156 -15.1249189376831055 -27.6419639587402344
22.5801010131835938 -10.3231773376464844 -19.7854576110839844
8.99708843231201172 -17.4439544677734375 3.72550678253173828
19.7918891906738281 15.652247428894043 1.19611561298370361
-4.50634860992431641 -20.2767906188964844 -26.9501800537109375
3.62077617645263672 15.4494361877441406 14.9981565475463867
30.5020046234130859 -5.9052586555480957 16.9250068664550781
-23.2731781005859375 10.0699043273925781 -18.9206256866455078
-19.0442523956298828 -10.2330598831176758 32.581024169921875
-2.20348811149597168 -17.931884765625 -28.2611160278320312
9.76920127868652344 15.2576627731323242 15.3506259918212891
-19.7823410034179688 15.2085237503051758 7.44877529144287109
-24.0119190216064453 8.93029689788818359 -19.60284423828125
-29.7606563568115234 1.65741527080535889 22.0861377716064453
-11.9916000366210938 10.5050239562988281 -25.3206710815429688
7.76044416427612305 -18.5525436401367188 32.3524551391601562
24.2388038635253906 6.63496541976928711 -21.5752658843994141
9.50151634216308594 -17.6798038482666016 24.6956615447998047
-30.9593677520751953 -4.38174343109130859 -10.7519941329956055
13.7058353424072266 15.6785669326782227 7.33582162857055664
24.1550884246826172 8.51947116851806641 30.3222675323486328
-15.174504280090332 10.970280647277832 33.5587120056152344
4.77887725830078125 15.2910385131835938 14.0505046844482422
-14.6923742294311523 16.0714645385742188 18.7038097381591797
31.4205951690673828 -16.6002960205078125 9.20657825469970703
13.0361461639404297 -7.61944150924682617 35.1936874389648438
12.7406339645385742 -18.7281169891357422 -25.1526679992675781
14.2102251052856445 11.9148855209350586 32.5837593078613281
19.8755073547363281 -19.4282302856445312 -20.1626338958740234
24.1328334808349609 -3.65066123008728027 -19.3132171630859375
24.4611740112304688 12.8220500946044922 -10.3758668899536133
4.37219810485839844 -18.6837482452392578 -9.57934665679931641
7.73397159576416016 -4.80862760543823242 37.1376876831054688
-2.47817230224609375 -17.7689495086669922 11.2480859756469727
33.1517448425292969 -1.85050034523010254 2.40901994705200195
0.178665578365325928 -18.5306396484375 8.65910720825195312
-15.6152267456054688 -6.90850400924682617 -25.9132671356201172
-0.317573994398117065 15.5965175628662109 5.96349430084228516
-14.1851634979248047 -17.1003952026367188 2.26192784309387207
-7.33809614181518555 15.9452390670776367 -0.59489905834197998
-9.38282203674316406 -3.27536916732788086 -28.2552757263183594
-35.396881103515625 8.08249092102050781 2.16429543495178223
-14.3209753036499023 15.4159164428710938 4.60048341751098633
-7.41566133499145508 15.4300251007080078 -18.3554286956787109
-33.2970199584960938 -8.98248195648193359 13.0269432067871094
-24.8153266906738281 -17.0148296356201172 26.8236503601074219
-13.0482244491577148 15.2545986175537109 7.69308710098266602
11.5486478805541992 15.9562282562255859 -3.82410860061645508
-9.78905773162841797 15.8790740966796875 -0.131954491138458252
-19.2790069580078125 -18.1446743011474609 -22.7631397247314453
-22.9810676574707031 12.5127964019775391 -14.7219486236572266
33.3101959228515625 0.148123636841773987 0.775048971176147461
8.50322532653808594 -17.13824462890625 -7.43231201171875
-10.2139797210693359 -3.71101903915405273 -28.023956298828125
1.79447901248931885 -18.2957534790039062 -20.2361602783203125
-6.99413967132568359 15.6271677017211914 3.15709042549133301
-16.8916015625 0.87584453821182251 33.3473625183105469
17.2694740295410156 9.06860160827636719 34.525390625
16.9542884826660156 -18.3758563995361328 27.7086963653564453
-16.8839149475097656 -17.7426376342773438 27.0695896148681641
-18.9509677886962891 -1.01567602157592773 32.8177070617675781
-12.6384305953979492 -17.7279605865478516 -6.84593915939331055
-27.2486476898193359 -19.2941837310791016 3.19130849838256836
32.19805908203125 -12.9424924850463867 1.71718168258666992
3.34611415863037109 15.4302835464477539 11.895848274230957
16.4592437744140625 12.068852424621582 -20.5777511596679688
-24.0501422882080078 13.7509088516235352 19.4457149505615234
-19.3943653106689453 12.6775283813476562 28.2515811920166016
-2.30829000473022461 -17.2909317016601562 13.3448085784912109
-0.35794028639793396 15.2203254699707031 13.0413532257080078
-28.6458663940429688 13.5986385345458984 5.73834371566772461
-16.9448356628417969 -10.7603073120117188 -25.0467014312744141
-14.9532737731933594 10.8045549392700195 -23.7210426330566406
3.57561302185058594 -9.03589916229248047 37.64923095703125
29.8479290008544922 3.1440894603729248 19.0109996795654297
18.2628974914550781 -1.63030529022216797 -24.8813190460205078
17.2269821166992188 -16.8216342926025391 8.24480724334716797
-18.8811988830566406 6.15563249588012695 -24.4254684448242188
-1.82340574264526367 8.2831878662109375 -30.4103870391845703
-34.2528152465820312 -1.78099334239959717 -2.40701174736022949
-30.7138404846191406 -9.99325752258300781 19.5922813415527344
-24.3503303527832031 -17.4668903350830078 -18.7031478881835938
-20.3271808624267578 -0.628745019435882568 -24.048675537109375
-20.0874462127685547 13.9502182006835938 -14.6041526794433594
7.63646602630615234 -0.700710654258728027 -29.4111156463623047
14.4318733215332031 -9.44407081604003906 -25.7825641632080078
-28.6091861724853516 9.89533519744873047 22.9093437194824219
25.5970726013183594 -4.87761449813842773 -17.4301338195800781
4.5729365348815918 -5.74929332733154297 37.7130508422851562
-32.1105003356933594 -7.06048583984375 16.8629856109619141
8.13387489318847656 9.44970798492431641 -28.175262451171875
0.991237640380859375 9.20624065399169922 38.5920143127441406
-0.558192133903503418 13.6930570602416992 -23.1950836181640625
29.8322715759277344 4.37998342514038086 -13.6787338256835938
-31.6104259490966797 2.10102963447570801 18.9349842071533203
10.864898681640625 13.0626602172851562 31.4249992370605469
-23.2861385345458984 -17.4543914794921875 11.9912347793579102
-34.1903228759765625 10.0795688629150391 6.20215892791748047
15.4579496383666992 15.8137788772583008 2.02038860321044922
-20.2290706634521484 -2.19991302490234375 31.9130134582519531
-5.01235198974609375 -6.81006526947021484 -29.4284515380859375
-32.333465576171875 -7.57376909255981445 16.2450790405273438
-33.2139930725097656 -15.7403907775878906 10.1895589828491211
-26.8688468933105469 10.9215974807739258 -12.8495550155639648
1.46014499664306641 13.1839466094970703 33.879547119140625
-35.0623283386230469 2.34625387191772461 3.5410001277923584
-30.8426685333251953 -19.9429874420166016 5.22748708724975586
-3.83123159408569336 12.9218120574951172 -24.5163516998291016
-25.4653263092041016 -9.73019504547119141 26.9723300933837891
-22.2459049224853516 -14.5635156631469727 29.7436046600341797
-33.7669448852539062 1.47554826736450195 14.378300666809082
32.7711143493652344 4.61182355880737305 -5.65464973449707031
-4.84634733200073242 -17.5340366363525391 -28.1827545166015625
29.3301315307617188 -19.5148735046386719 -0.66589200496673584
6.76507425308227539 10.1335515975952148 37.6729240417480469
29.7030658721923828 -17.9184761047363281 15.5100631713867188
-6.4330592155456543 16.2253971099853516 -6.47735929489135742
-24.0555057525634766 10.5663557052612305 -17.1988162994384766
-15.1353578567504883 -13.8190841674804688 -25.773223876953125
-13.2942285537719727 -6.45478963851928711 34.8494377136230469
11.5312528610229492 -17.8692035675048828 -6.29323673248291016
34.8594474792480469 7.76330137252807617 7.29554510116577148
-14.6704349517822266 -20.5509014129638672 -21.2524948120117188
32.358123779296875 -4.25418567657470703 11.1082763671875
-1.57500612735748291 -18.0417499542236328 -18.3071842193603516
14.5812587738037109 15.7178468704223633 3.58385181427001953
-8.88030433654785156 15.2204971313476562 -18.4879245758056641
-14.264073371887207 -5.92127323150634766 -26.3689823150634766
2.60809135437011719 -17.3432846069335938 15.0822067260742188
25.2907447814941406 13.2545022964477539 17.618743896484375
-6.72734975814819336 15.4280710220336914 -18.7410087585449219
26.6595039367675781 -4.72451972961425781 24.1246509552001953
6.94527626037597656 -19.7795619964599609 -25.9848289489746094
-9.17597389221191406 3.17131876945495605 37.0570106506347656
-15.0025463104248047 -15.7174110412597656 -25.6211452484130859
-18.8280754089355469 13.3516035079956055 27.2665748596191406
22.1184616088867188 -17.8133354187011719 7.00242424011230469
3.8790433406829834 15.6115703582763672 25.2451324462890625
3.68354129791259766 -17.3970241546630859 27.8108730316162109
-31.3855342864990234 8.84892463684082031 19.2599124908447266
20.9514732360839844 12.8358583450317383 25.1815662384033203
22.4459552764892578 -7.54680538177490234 28.7789859771728516
4.00868654251098633 15.3098621368408203 12.5824432373046875
16.088165283203125 -3.12090897560119629 33.7419700622558594
1.2386401891708374 1.29896759986877441 -30.6009902954101562
10.8266067504882812 5.92623805999755859 -29.7984886169433594
-0.454760879278182983 6.0941615104675293 38.2791557312011719
-36.2752609252929688 5.71783828735351562 2.0610969066619873
12.4071407318115234 -17.1982402801513672 23.5215320587158203
6.77335453033447266 -17.3375587463378906 10.5978984832763672
23.1335620880126953 5.13905572891235352 29.5348567962646484
-36.1686172485351562 7.06143093109130859 3.33263754844665527
5.13524007797241211 -19.2763557434082031 -14.8968992233276367
23.8333835601806641 -13.3602809906005859 -17.9448814392089844
-31.2703990936279297 -10.6901369094848633 18.3002338409423828
-18.6378726959228516 -18.8640460968017578 -7.23437213897705078
-23.5097427368164062 -17.4205799102783203 13.3540630340576172
2.15749764442443848 -18.0361709594726562 -4.38529062271118164
-1.81821966171264648 2.38928389549255371 38.0418663024902344
29.41082763671875 -2.15630078315734863 -12.036992073059082
29.4622802734375 1.14836406707763672 19.5940876007080078
-33.2024345397949219 -4.80557775497436523 13.9208593368530273
22.2133235931396484 -17.8587665557861328 -4.60428905487060547
-7.92702102661132812 -2.7153317928314209 -28.8949260711669922
1.27509260177612305 -17.9934921264648438 -2.67113494873046875
-36.3753662109375 6.01012229919433594 2.4160926342010498
-11.659144401550293 -20.8940010070800781 -23.1457118988037109
-31.3656082153320312 10.4154472351074219 15.6965980529785156
-17.08819580078125 -19.3730850219726562 -17.8356227874755859
-0.0866377204656600952 -16.7753429412841797 24.4899539947509766
9.66741943359375 3.18022394180297852 36.9941558837890625
16.6803455352783203 -4.01555347442626953 33.4469985961914062
20.6813716888427734 -17.4581680297851562 1.48749947547912598
-10.2824687957763672 16.2483005523681641 -7.73673057556152344
17.5225772857666016 15.6886692047119141 -3.39533662796020508
31.9062156677246094 -15.3441591262817383 5.32647514343261719
3.65437936782836914 -17.5074539184570312 35.6416664123535156
31.0430355072021484 -15.2291231155395508 -2.98915982246398926
24.9011821746826172 -19.0055122375488281 21.2216129302978516
27.3477287292480469 12.9173164367675781 14.4311656951904297
6.95697879791259766 13.1281843185424805 -23.0126533508300781
0.304568707942962646 -14.3435268402099609 -28.8854351043701172
25.8450813293457031 13.5605678558349609 14.6529598236083984
4.06803083419799805 15.24005126953125 23.1606025695800781
-2.99671077728271484 -18.3851222991943359 33.1583595275878906
28.5521965026855469 -19.6055450439453125 -0.747483134269714355
-13.4792709350585938 15.5798110961914062 11.0841636657714844
-12.143244743347168 15.8289594650268555 22.5533695220947266
16.7864170074462891 15.7093095779418945 3.40432024002075195
-31.29486083984375 -7.09167289733886719 -9.84510517120361328
21.1594638824462891 -18.3372287750244141 4.16106748580932617
-9.19742965698242188 16.0200729370117188 -5.00345945358276367
29.3508701324462891 -18.5876445770263672 -4.96384906768798828
24.9079627990722656 -19.1779308319091797 16.6747722625732422
-25.9875030517578125 -18.0138759613037109 -1.09975624084472656
-8.99351692199707031 -19.7095317840576172 -18.0757789611816406
33.0870513916015625 5.33828592300415039 -5.66559696197509766
-10.65869140625 4.584991455078125 36.9032249450683594
-29.9795494079589844 -20.1948604583740234 -0.647584497928619385
-32.336090087890625 -5.76375436782836914 16.4364471435546875
-2.70145797729492188 15.7516307830810547 21.2484416961669922
-20.8697910308837891 15.9642791748046875 10.7858514785766602
1.504830002784729 -18.2406940460205078 33.5272407531738281
-23.5811328887939453 15.3564624786376953 -0.578581392765045166
-11.77081298828125 -5.26342439651489258 -27.4396934509277344
25.2353954315185547 4.88520002365112305 27.3334522247314453
32.8186187744140625 -6.92140769958496094 5.47504520416259766
-11.3961753845214844 -19.4394321441650391 -19.4250106811523438
-8.83472251892089844 15.4009599685668945 9.03289604187011719
2.45160222053527832 15.8712596893310547 21.1379776000976562
12.5238456726074219 -16.6820869445800781 1.52406144142150879
-5.75241518020629883 16.4207019805908203 -14.0073795318603516
16.5253582000732422 2.65899181365966797 -26.6056690216064453
10.3073463439941406 -17.6330528259277344 25.9314403533935547
-16.6454544067382812 -18.0946311950683594 3.38363075256347656
32.6442489624023438 -3.76137614250183105 9.56007003784179688
15.6318855285644531 10.6201314926147461 -23.6582393646240234
29.5492496490478516 10.2118797302246094 20.3279666900634766
23.9270591735839844 -11.1069955825805664 -18.1972827911376953
10.0974464416503906 9.87325859069824219 -27.1357669830322266
1.91510558128356934 10.6534805297851562 37.7681198120117188
-17.8184223175048828 13.39300537109375 -18.11737060546875
19.1099300384521484 -7.15787696838378906 -23.2810935974121094
28.8253097534179688 -18.4985675811767578 16.6430759429931641
-24.5436000823974609 -18.2001876831054688 25.6104660034179688
-1.54789984226226807 -17.3918132781982422 12.0411863327026367
1.85248780250549316 -9.72200298309326172 -29.3077201843261719
-5.17114877700805664 16.3638286590576172 -15.420353889465332
15.9329328536987305 15.6333818435668945 7.89920616149902344
-0.388962835073471069 -18.6262893676757812 -21.5544567108154297
-22.3243885040283203 14.2340831756591797 20.6345119476318359
-14.8928623199462891 -16.9064178466796875 21.6809959411621094
2.10477375984191895 -18.0871315002441406 -4.84385395050048828
-22.8754997253417969 -18.4834938049316406 26.3362388610839844
20.2318344116210938 5.22804355621337891 -24.8213024139404297
16.2875328063964844 -18.4875717163085938 -6.37128019332885742
-34.7495651245117188 7.90659570693969727 -2.1993863582611084
-8.28014087677001953 5.84181451797485352 37.6724166870117188
-4.30547714233398438 -18.2931194305419922 3.91081881523132324
-33.3021812438964844 -9.49247455596923828 -3.85075664520263672
-3.2401282787322998 15.1677799224853516 29.2679080963134766
18.2957916259765625 -8.72505092620849609 32.0882644653320312
-24.0843601226806641 -18.3955707550048828 -18.6491794586181641
6.21093416213989258 16.1334629058837891 -13.2674427032470703
25.0899906158447266 3.90037274360656738 -19.8498897552490234
8.63961601257324219 13.9302701950073242 30.4745655059814453
18.5172519683837891 4.22238969802856445 -25.7692832946777344
13.8477306365966797 -5.18229293823242188 -26.6585140228271484
-23.0677528381347656 10.8219728469848633 28.2869091033935547
3.9172821044921875 -17.5753860473632812 23.6672573089599609
-9.81658554077148438 13.6187162399291992 -22.1101474761962891
28.3444442749023438 -16.6462993621826172 17.1464748382568359
12.4158267974853516 9.10713481903076172 -27.1501865386962891
33.058197021484375 -3.7660982608795166 4.1168212890625
24.1038436889648438 -9.60166072845458984 -18.2560138702392578
7.35941839218139648 15.1340274810791016 25.4486351013183594
-0.543954610824584961 16.1684074401855469 -5.28770256042480469
18.2616310119628906 9.32379150390625 34.0137710571289062
-16.6495151519775391 -16.9551773071289062 10.8389759063720703
19.0067863464355469 -18.3197574615478516 21.7712306976318359
-34.5372390747070312 2.39921951293945312 -3.26876115798950195
7.31894493103027344 -16.9368171691894531 -4.9478602409362793
-2.93602728843688965 15.362858772277832 9.14700031280517578
-23.3329620361328125 -17.5106983184814453 -19.5553779602050781
17.3431377410888672 -17.3414039611816406 -3.6458277702331543
-7.85371732711791992 15.8621187210083008 1.07862043380737305
32.7897911071777344 -4.67712020874023438 7.19721317291259766
23.1468410491943359 -2.56353211402893066 28.4821681976318359
25.5845108032226562 11.7468862533569336 -11.499781608581543
-4.32034969329833984 4.81070184707641602 38.1576042175292969
7.34470415115356445 15.8817338943481445 2.40962433815002441
23.9205665588378906 -15.2943096160888672 26.0713577270507812
-4.66139459609985352 -20.1590385437011719 -23.0741024017333984
-2.47394347190856934 16.3448772430419922 -10.8999719619750977
25.6945953369140625 -11.5644168853759766 -15.972264289855957
4.44622611999511719 -16.9188461303710938 16.6704254150390625
-14.2270841598510742 -18.2846183776855469 -16.9717273712158203
26.0760612487792969 12.9000215530395508 -6.90088367462158203
-27.3783531188964844 -15.7946901321411133 -15.2553491592407227
-5.13498544692993164 -18.4403667449951172 -14.7975444793701172
17.1000957489013672 15.7114152908325195 3.74326777458190918
22.8468990325927734 6.32188177108764648 30.0578994750976562
26.0624122619628906 -3.36902093887329102 25.0807361602783203
30.0346698760986328 -13.2861652374267578 16.0035076141357422
-15.5990743637084961 3.57459807395935059 33.8587379455566406
-8.81775856018066406 -16.7106819152832031 22.6330909729003906
-34.3180160522460938 -10.3581991195678711 2.47527122497558594
29.5431232452392578 12.5568962097167969 5.68840122222900391
-26.0707569122314453 -17.9427165985107422 9.18472957611083984
25.7203941345214844 -19.2109851837158203 5.46325874328613281
16.0613861083984375 -12.5118112564086914 33.2265853881835938
-6.38854694366455078 4.83914327621459961 38.0037117004394531
-16.9818363189697266 -17.5155735015869141 31.3019428253173828
-12.068145751953125 3.70655584335327148 36.0864143371582031
-24.9585285186767578 -17.7577457427978516 10.9399089813232422
32.1107559204101562 -13.9864187240600586 4.85125541687011719
-23.3921699523925781 -5.67214727401733398 -20.9348850250244141
-14.3949460983276367 -12.4023628234863281 -26.2037448883056641
24.7225570678710938 -13.835820198059082 -16.7251319885253906
13.1080818176269531 -16.5293674468994141 9.2436370849609375
16.0251235961914062 -17.7697830200195312 3.06401896476745605
10.5223321914672852 -17.4192466735839844 27.4972000122070312
27.4977321624755859 1.45889770984649658 22.7145309448242188
14.6672687530517578 -17.2415599822998047 18.5696296691894531
-30.2540931701660156 -11.5008077621459961 20.3586902618408203
19.4547233581542969 -17.4101238250732422 6.90542221069335938
9.35488128662109375 15.2432518005371094 -17.4582176208496094
17.5609550476074219 3.11413812637329102 -26.1243133544921875
-24.8449916839599609 -7.4923405647277832 27.9512462615966797
-31.0573825836181641 8.49377155303955078 20.4587631225585938
-2.64067459106445312 15.8975067138671875 25.3289852142333984
1.72305190563201904 -6.59561061859130859 -29.6996536254882812
-35.2547073364257812 8.84799385070800781 7.45643806457519531
-12.1147832870483398 -17.7304534912109375 14.1528377532958984
11.8363008499145508 -17.5489673614501953 24.4680576324462891
15.0752792358398438 -10.980778694152832 -25.1641807556152344
28.1361370086669922 -19.5213451385498047 -3.87972784042358398
20.2169208526611328 -18.7458305358886719 22.4411983489990234
-4.67720174789428711 -7.03043746948242188 -29.4250984191894531
17.3042278289794922 15.5327253341674805 -8.92803096771240234
33.8863487243652344 5.55859470367431641 -1.70525479316711426
-12.3639650344848633 13.3546743392944336 -21.3665103912353516
-5.70458745956420898 6.76842403411865234 -28.4347858428955078
27.7999324798583984 10.1880931854248047 -12.0023698806762695
-18.3075580596923828 10.0438461303710938 -22.6270847320556641
-32.7970695495605469 -2.43824958801269531 -7.53453779220581055
-16.4957504272460938 -16.8887290954589844 7.28773307800292969
17.211639404296875 13.72003173828125 -16.4364109039306641
20.4772777557373047 -16.2970180511474609 28.5876865386962891
-20.7642860412597656 -19.4645366668701172 -9.0777130126953125
32.2078819274902344 -13.7731838226318359 3.46913290023803711
-10.8892621994018555 -14.7520341873168945 36.0560150146484375
-30.8048820495605469 3.8279414176940918 -11.5509786605834961
-9.03183937072753906 -16.4783554077148438 36.3213768005371094
25.7029991149902344 9.80118083953857422 -15.9856395721435547
14.5430316925048828 8.97280216217041016 -26.3039760589599609
-19.2829456329345703 -5.35183954238891602 32.5068168640136719
27.729034423828125 4.79774713516235352 -17.18377685546875
8.49353313446044922 -18.6639461517333984 -26.6819686889648438
