ply
format ascii 1.0
element vertex 784
comment vertices
property float x
property float y
property float z
end_header
-52.834197998046875 0.88924717903137207 27.3806743621826172
49.7295036315917969 -10.3452444076538086 10.7741546630859375
56.6399955749511719 1.72597932815551758 23.5449295043945312
15.2985744476318359 3.08648443222045898 -51.2903709411621094
-57.1174468994140625 9.01879405975341797 22.6051445007324219
0.169842779636383057 13.1692361831665039 -45.8475914001464844
-52.1047592163085938 -6.07877540588378906 33.8813056945800781
-9.05084133148193359 -13.0964994430541992 13.2117033004760742
31.2133216857910156 -13.0249223709106445 0.41156613826751709
1.33468031883239746 -13.0879716873168945 4.84337663650512695
-56.8010635375976562 9.45790004730224609 -12.4390363693237305
-1.41077613830566406 -13.1178398132324219 3.62525725364685059
-52.1451072692871094 10.7826242446899414 -43.7706184387207031
-25.2674579620361328 14.1384410858154297 -33.498504638671875
9.34078884124755859 13.5530767440795898 27.3371372222900391
-42.19281005859375 13.5166778564453125 21.6446266174316406
54.7774238586425781 -2.45687580108642578 -45.1836662292480469
23.3609905242919922 -12.8685455322265625 -32.7529869079589844
-31.0662136077880859 12.6368341445922852 -51.5715904235839844
-19.1292533874511719 -13.3500728607177734 -27.6967201232910156
14.2170267105102539 -13.4395484924316406 -12.9362621307373047
-40.5162239074707031 13.5878562927246094 -25.8173294067382812
-38.2876701354980469 -11.6449785232543945 10.708949089050293
-50.3089179992675781 -9.13521385192871094 17.6186962127685547
-31.6247348785400391 -11.7813301086425781 18.4390087127685547
41.8992156982421875 10.3404779434204102 34.7233352661132812
11.0421009063720703 -13.2466707229614258 -10.1749334335327148
38.31097412109375 -12.1080589294433594 -1.6653512716293335
-53.7347450256347656 0.848096489906311035 -3.28553175926208496
-34.91748046875 -11.2615537643432617 29.1048412322998047
48.1464653015136719 -11.138824462890625 -5.67630577087402344
55.6094894409179688 -8.26848506927490234 23.2729701995849609
-33.2850494384765625 4.30503129959106445 -49.7320518493652344
-12.2248458862304688 -13.2179269790649414 12.4766254425048828
20.9876251220703125 12.8240318298339844 -33.1848602294921875
3.08350205421447754 14.0313596725463867 16.8380336761474609
49.6974525451660156 -10.9982004165649414 -30.19842529296875
-9.11501693725585938 -11.1848039627075195 40.6439933776855469
58.5137786865234375 0.238212689757347107 37.4174118041992188
49.7593994140625 -9.70099925994873047 25.3540859222412109
47.7232933044433594 9.79777050018310547 -3.91494846343994141
11.7374296188354492 -11.4910202026367188 39.827545166015625
53.1288070678710938 7.73518610000610352 44.14990234375
38.3599281311035156 -12.4397211074829102 -10.7872943878173828
25.2275867462158203 12.6235160827636719 26.3594188690185547
37.3009109497070312 -12.3652849197387695 -22.2016143798828125
-29.6758785247802734 13.4491348266601562 -47.6234321594238281
-26.7654228210449219 -13.4385156631469727 -22.3974189758300781
23.532562255859375 9.97450351715087891 -52.3339080810546875
-44.4634933471679688 -9.50972652435302734 36.7036094665527344
-54.6911468505859375 4.59482860565185547 -14.8338947296142578
45.3468666076660156 -11.5150308609008789 -15.2014760971069336
55.6536369323730469 -7.79950952529907227 -31.496917724609375
-10.1347541809082031 -13.0032386779785156 -33.2112770080566406
-45.2708549499511719 11.5825538635253906 48.085205078125
-40.7881050109863281 -13.8019800186157227 -42.2333602905273438
29.6409320831298828 12.1669321060180664 -33.3157768249511719
36.8362846374511719 11.7823190689086914 -18.4751148223876953
5.98098897933959961 -12.9298248291015625 -32.0771293640136719
-25.5059432983398438 14.367274284362793 21.2930660247802734
0.423205465078353882 -6.73798131942749023 -51.0968551635742188
13.5818405151367188 13.7309370040893555 13.2803163528442383
-37.8216285705566406 13.0709304809570312 34.8393707275390625
12.3850622177124023 -13.5677690505981445 -14.6479816436767578
14.5019063949584961 12.3368940353393555 -47.6979637145996094
-40.94598388671875 12.9727029800415039 -47.6878662109375
-40.0357513427734375 -12.0403432846069336 37.1464462280273438
-27.1194820404052734 -12.7651767730712891 36.9985389709472656
-3.58765220642089844 14.2396421432495117 -10.8808164596557617
-21.1126384735107422 -13.5038595199584961 -3.94200730323791504
-24.2377738952636719 14.0361232757568359 -39.9132423400878906
-0.742283165454864502 -12.2749013900756836 30.5012893676757812
-1.12195074558258057 14.1961765289306641 -8.592620849609375
-24.4572029113769531 -3.25351166725158691 -50.0063247680664062
-44.7202262878417969 13.0993785858154297 23.5383205413818359
11.485743522644043 13.8022041320800781 6.76434183120727539
-3.52663445472717285 12.8102397918701172 -51.0084724426269531
18.9050312042236328 -11.375706672668457 32.9331512451171875
-54.1288108825683594 -0.624093174934387207 -14.6531476974487305
24.4184513092041016 13.0455589294433594 -12.6852684020996094
58.5639114379882812 0.0641023293137550354 40.1069107055664062
54.19403076171875 -9.92091941833496094 -11.2257652282714844
-11.0337162017822266 -13.6249408721923828 -21.5898799896240234
-49.3722038269042969 10.7690439224243164 50.6922111511230469
-45.4402885437011719 -11.4728164672851562 -2.98360586166381836
-47.5239105224609375 12.162928581237793 -41.747406005859375
45.6860160827636719 10.278071403503418 21.2062950134277344
57.9950141906738281 -5.44431972503662109 2.04776310920715332
-54.9085426330566406 10.7971487045288086 16.8218593597412109
-37.2615394592285156 4.19025421142578125 -51.365997314453125
-13.8145904541015625 -8.08240509033203125 54.7396697998046875
31.5779705047607422 11.8077821731567383 -41.5430107116699219
-54.5612030029296875 11.004939079284668 21.2161178588867188
-15.4573554992675781 -6.95769214630126953 56.9668197631835938
34.5543060302734375 9.09707164764404297 52.1716728210449219
10.10382080078125 2.30290961265563965 57.3892250061035156
-24.8849830627441406 13.8683328628540039 31.8490982055664062
-29.7680015563964844 -12.75787353515625 -8.10995960235595703
11.4035320281982422 -4.66200065612792969 -51.1625823974609375
-42.3169212341308594 -12.188633918762207 -21.3098316192626953
57.9765434265136719 -6.21728372573852539 31.1740760803222656
8.59999561309814453 -8.09444427490234375 -51.3642539978027344
47.8461265563964844 1.29938483238220215 56.0628166198730469
46.5284271240234375 10.1066484451293945 -10.4755430221557617
-15.8853645324707031 14.3756723403930664 -19.727996826171875
-0.258944511413574219 -10.0503959655761719 48.9853591918945312
-26.0809745788574219 -13.643824577331543 30.0404491424560547
10.5687389373779297 -13.3114156723022461 -9.65387344360351562
57.1199913024902344 4.95384788513183594 -16.8259029388427734
56.2289047241210938 -6.09588289260864258 -39.3165283203125
-23.4516277313232422 -10.7216911315917969 40.4665565490722656
-36.0494956970214844 -4.21424293518066406 -52.0079727172851562
32.0152473449707031 11.933009147644043 -34.9047966003417969
5.66652965545654297 -10.8064174652099609 45.7060127258300781
44.9526100158691406 10.2995367050170898 -35.3687934875488281
19.6887168884277344 -12.8335838317871094 -31.1671028137207031
35.6444358825683594 9.59214019775390625 49.8524360656738281
40.7466011047363281 -12.5516500473022461 -28.9743442535400391
-26.0635280609130859 -13.3412294387817383 -13.5481758117675781
10.7337989807128906 -1.3465346097946167 -48.2257041931152344
2.17522931098937988 -13.1546459197998047 0.500661015510559082
-46.2594871520996094 -10.4358673095703125 14.4406805038452148
-57.754852294921875 6.8487401008605957 40.620880126953125
9.33425426483154297 -11.559779167175293 39.5668296813964844
26.5285110473632812 3.25985884666442871 -51.6153335571289062
-21.2500724792480469 -13.4021272659301758 0.5537148118019104
-11.3123378753662109 14.4020395278930664 -3.52904486656188965
29.5736751556396484 -13.1216850280761719 -26.0191173553466797
40.4767379760742188 -11.4258489608764648 -48.9119682312011719
17.1288242340087891 -9.63680171966552734 48.0329437255859375
45.9103546142578125 -10.8359622955322266 -48.5792922973632812
-22.5840091705322266 -9.69631767272949219 47.8741226196289062
-52.5824470520019531 -3.40851616859436035 20.1137161254882812
34.9903564453125 11.9609746932983398 10.7592916488647461
-21.4964733123779297 -13.5515232086181641 -9.61718368530273438
-10.9089698791503906 14.4597377777099609 -1.32432198524475098
22.2250118255615234 -13.0666685104370117 -37.1467323303222656
-39.2980995178222656 13.8872947692871094 17.2016868591308594
0.849009454250335693 13.9961128234863281 -18.2940044403076172
-13.8703527450561523 14.2686033248901367 25.1728401184082031
-12.1769218444824219 -13.0173530578613281 25.0350151062011719
-53.5194625854492188 1.30740976333618164 4.64626884460449219
-6.49590730667114258 -10.2840261459350586 47.3971519470214844
-56.1561660766601562 9.61640739440917969 19.8087158203125
22.9196357727050781 -12.7544269561767578 20.6847782135009766
-15.6381120681762695 13.8913192749023438 -39.70703125
-53.7203788757324219 11.1817340850830078 42.7963714599609375
-33.8967437744140625 6.30927419662475586 -49.7911453247070312
46.9738349914550781 -6.59607315063476562 53.634490966796875
46.0390167236328125 -10.353912353515625 17.2335090637207031
-12.8212423324584961 -13.1755990982055664 -33.3088798522949219
-33.3578300476074219 -12.6464500427246094 -0.0607502833008766174
57.1848907470703125 2.65157580375671387 -4.86054706573486328
-2.54778575897216797 -7.14674472808837891 56.726318359375
47.2855644226074219 9.71881389617919922 -37.4506912231445312
38.5102195739746094 11.2965478897094727 22.7190723419189453
45.6997184753417969 10.14959716796875 -24.8129730224609375
-30.6613559722900391 -6.03145027160644531 58.2078170776367188
-24.0331573486328125 13.3769102096557617 -48.9843101501464844
-6.82523632049560547 -2.76079440116882324 -51.4192047119140625
-56.5198593139648438 8.94242000579833984 11.2029838562011719
29.5212497711181641 11.8999519348144531 30.8447856903076172
-8.07082557678222656 14.3678092956542969 15.0789890289306641
33.5733871459960938 12.2149667739868164 -11.3642807006835938
8.97990512847900391 12.5767335891723633 -47.928192138671875
-24.7120075225830078 14.4824724197387695 -6.27051591873168945
32.1738548278808594 -3.65933966636657715 -46.5086860656738281
-37.0662269592285156 -14.881195068359375 -37.4216499328613281
26.6588344573974609 -12.7354145050048828 -41.0270767211914062
48.2275505065917969 9.67462444305419922 -3.97727394104003906
8.27543449401855469 -12.9832849502563477 4.47423744201660156
49.6787071228027344 8.57642364501953125 47.3734245300292969
38.6631927490234375 11.5474643707275391 -4.64275884628295898
50.0573005676269531 -5.13933420181274414 55.2197341918945312
50.0658454895019531 9.22560405731201172 17.8180732727050781
-42.5926895141601562 -11.380091667175293 -45.155517578125
58.4203453063964844 -4.06433820724487305 33.908447265625
-43.3907890319824219 -8.42392635345458984 48.9395256042480469
53.423828125 -10.1436557769775391 -7.77311038970947266
-54.7947921752929688 2.38140606880187988 -34.7225418090820312
-1.22070252895355225 -3.02962136268615723 58.1550712585449219
1.41603696346282959 -9.23200798034667969 52.4223670959472656
-41.6520729064941406 11.3784065246582031 49.9823532104492188
-40.0440444946289062 13.8519744873046875 6.37353277206420898
-6.90281486511230469 -13.8702487945556641 -25.3901863098144531
25.0211124420166016 13.0014657974243164 -4.70845174789428711
8.65631866455078125 -12.8571949005126953 -41.1362838745117188
-16.6309394836425781 -12.8143501281738281 -47.0228691101074219
50.2505912780761719 8.87491703033447266 29.1825790405273438
-27.4778518676757812 13.6895933151245117 32.8816108703613281
-17.6657657623291016 -13.1207275390625 -34.2791328430175781
-34.0460319519042969 -11.9664325714111328 14.917393684387207
36.1152267456054688 -11.5273523330688477 39.4873237609863281
-42.841583251953125 13.5418376922607422 8.87430381774902344
-54.3166694641113281 9.61010646820068359 -39.1418113708496094
10.5654840469360352 12.9829015731811523 -42.7954521179199219
24.4048118591308594 9.36009597778320312 52.8027687072753906
15.6481208801269531 13.4715433120727539 -13.4991464614868164
12.4779672622680664 -13.5690546035766602 -19.6669216156005859
-48.7577018737792969 12.4375448226928711 -6.09523677825927734
31.6472835540771484 -12.8843069076538086 1.9877694845199585
37.9257583618164062 11.4728364944458008 18.2671146392822266
29.7563571929931641 -11.6239042282104492 -51.8044471740722656
-55.9636077880859375 5.03925228118896484 46.8220977783203125
-42.787567138671875 -10.7941827774047852 17.3373851776123047
-36.0732498168945312 13.1686420440673828 35.2082901000976562
-40.0199661254882812 12.9617729187011719 35.4702491760253906
17.2623805999755859 -12.7345314025878906 21.5315189361572266
15.0006351470947266 13.6236352920532227 5.78623104095458984
-43.5886955261230469 12.4753618240356445 -48.4738006591796875
-2.39587235450744629 13.7412605285644531 31.5332202911376953
16.5356845855712891 -12.7326908111572266 27.0700531005859375
43.0139656066894531 -7.18329954147338867 52.752197265625
-41.4091300964355469 -11.1438989639282227 40.069305419921875
31.8136882781982422 -12.3064165115356445 -44.6798591613769531
51.0119705200195312 -9.75006198883056641 -47.4037017822265625
56.8156204223632812 -7.0454564094543457 42.0471153259277344
34.0389289855957031 11.9388580322265625 -26.5179405212402344
47.5246124267578125 9.71509742736816406 31.6347122192382812
39.813385009765625 11.3437061309814453 -13.9449300765991211
-26.0633811950683594 -9.68388271331787109 -52.1258125305175781
52.8752975463867188 -9.20897388458251953 -42.0785903930664062
44.8001823425292969 6.91730070114135742 57.05841064453125
8.80429553985595703 2.17417454719543457 57.5041618347167969
-53.9846649169921875 -0.0530710518360137939 -9.07442855834960938
38.6722373962402344 11.511265754699707 -6.14103269577026367
6.73037385940551758 13.8923559188842773 -8.34009170532226562
-51.6007957458496094 -6.79378318786621094 44.2156333923339844
3.06385564804077148 12.7946929931640625 -48.8133811950683594
10.5425510406494141 -12.8847646713256836 23.6272087097167969
-34.6320877075195312 13.1391334533691406 36.2081680297851562
3.4582679271697998 -13.1039056777954102 17.8586521148681641
40.6872825622558594 7.28834056854248047 56.7529869079589844
33.0931549072265625 -14.1430959701538086 -28.5689620971679688
4.75085639953613281 11.7236757278442383 45.3756065368652344
39.7326850891113281 -0.837066948413848877 -50.83551025390625
12.328709602355957 13.7762575149536133 13.9601716995239258
-57.0229644775390625 10.0714426040649414 41.9135398864746094
-41.2967948913574219 3.58804702758789062 -48.9399223327636719
32.0527572631835938 12.3184795379638672 -9.88618183135986328
16.8532009124755859 13.4258518218994141 -12.7807731628417969
-17.2114601135253906 14.5144567489624023 5.19158077239990234
-2.87357950210571289 -13.0293798446655273 20.6428966522216797
13.5571422576904297 13.7047500610351562 3.33561325073242188
12.8994388580322266 13.7918882369995117 8.62649726867675781
-49.8264274597167969 12.3385906219482422 4.08343982696533203
36.165283203125 -12.2836465835571289 -11.3249111175537109
23.3676490783691406 -13.2393360137939453 -4.35104131698608398
-36.4374809265136719 -0.888285934925079346 -55.2507095336914062
-50.7935752868652344 -8.04978275299072266 38.1428031921386719
-18.8264904022216797 -9.25589275360107422 -51.9556236267089844
-54.0325164794921875 -6.75006246566772461 -21.6152248382568359
0.520219087600708008 13.7386808395385742 -28.2707023620605469
15.7344417572021484 -11.7502927780151367 31.7972145080566406
49.0809555053710938 -2.38810372352600098 -50.4332046508789062
57.2356796264648438 3.53315043449401855 -12.9881305694580078
9.03845405578613281 13.4116382598876953 -30.3872051239013672
-58.0771751403808594 9.07436943054199219 36.6615638732910156
-12.7743339538574219 -12.8865985870361328 -42.5508842468261719
46.1350593566894531 10.2383842468261719 4.40029430389404297
-20.1111717224121094 14.5114870071411133 0.108285434544086456
-52.964385986328125 -5.00004434585571289 13.8793973922729492
-30.0099372863769531 -12.6717920303344727 -6.85477352142333984
-29.9147396087646484 -12.5517749786376953 39.7380104064941406
-34.9393119812011719 -12.2929000854492188 6.01205253601074219
17.7745857238769531 13.4396915435791016 19.1253337860107422
17.4778480529785156 13.6304893493652344 8.63309097290039062
-28.61480712890625 -5.47163248062133789 58.7190284729003906
-40.5557479858398438 -6.24981164932250977 -49.3716697692871094
-53.4307022094726562 11.1946744918823242 -0.0631162524223327637
4.39502573013305664 -12.9655294418334961 10.4851226806640625
3.16315507888793945 -12.3423194885253906 32.0943946838378906
-48.0560989379882812 -11.0934228897094727 -7.35192632675170898
-21.0929698944091797 -0.640375077724456787 58.7603836059570312
-41.5958824157714844 12.7952203750610352 36.5483055114746094
39.3567428588867188 -14.3988714218139648 -38.5239143371582031
-47.8571128845214844 12.4023847579956055 -25.7429676055908203
-46.1681060791015625 9.42734527587890625 54.2795944213867188
31.5488071441650391 3.69730043411254883 -45.488983154296875
20.1509265899658203 -12.9269475936889648 9.19719696044921875
-48.3723793029785156 -1.86238741874694824 53.1861152648925781
52.3776283264160156 8.35443878173828125 33.8945960998535156
-51.9084968566894531 10.8524894714355469 -44.3275260925292969
-55.4502029418945312 4.60102558135986328 14.0273199081420898
-41.6892051696777344 -10.886052131652832 17.5340175628662109
-19.9208869934082031 0.946416854858398438 -48.5980949401855469
11.7854118347167969 13.6424407958984375 -23.35791015625
9.08003807067871094 13.881591796875 -8.46765518188476562
55.3016319274902344 6.82562398910522461 46.0128250122070312
-52.7701606750488281 1.06711101531982422 32.9007225036621094
46.7116470336914062 10.0638532638549805 5.40341424942016602
-52.2375259399414062 5.05039215087890625 46.4513397216796875
57.0410308837890625 1.58119750022888184 7.68634700775146484
-36.8035545349121094 -12.8404388427734375 -26.8854846954345703
54.5152206420898438 7.25613880157470703 43.0779380798339844
-56.4085311889648438 10.080784797668457 32.6859550476074219
41.2496299743652344 6.93902015686035156 57.1446876525878906
28.6142330169677734 -9.61489391326904297 -51.9813041687011719
33.5263214111328125 11.4740200042724609 -42.3265037536621094
2.54589009284973145 13.1775760650634766 35.5224342346191406
-52.9875450134277344 2.80366206169128418 33.7292404174804688
-18.2792034149169922 -13.916783332824707 -13.6627483367919922
14.3296775817871094 13.25921630859375 -27.1980381011962891
-19.0391273498535156 -7.31346702575683594 56.3663520812988281
57.4133720397949219 -6.79250097274780273 -2.18449306488037109
-18.1767349243164062 -13.4804325103759766 8.29246425628662109
49.3227043151855469 -11.0291509628295898 -4.10046100616455078
-5.28411626815795898 8.824859619140625 -51.8039894104003906
22.4873332977294922 -12.5059652328491211 -43.8666152954101562
23.9976062774658203 -12.7540140151977539 -40.2817726135253906
-36.65802001953125 -12.1963644027709961 3.89396047592163086
13.7505502700805664 -10.6075315475463867 45.5141067504882812
-45.4814109802246094 12.2091255187988281 42.3653564453125
14.8131589889526367 -12.9671564102172852 10.5651149749755859
-21.22216796875 2.28052306175231934 -49.8134422302246094
58.5552101135253906 0.615083634853363037 39.6863021850585938
-47.0596046447753906 12.4187202453613281 36.7465362548828125
24.889373779296875 -12.3119287490844727 26.8975982666015625
25.30902099609375 -9.00793361663818359 -51.6310615539550781
55.4726676940917969 -7.73942136764526367 40.1952857971191406
-54.4439735412597656 3.34621930122375488 -39.677703857421875
-53.4249687194824219 -8.99670886993408203 -24.8473320007324219
-48.2645149230957031 12.2229413986206055 37.2867012023925781
57.7479438781738281 -5.0409388542175293 5.79496383666992188
41.8651924133300781 10.7505207061767578 -32.4970588684082031
10.9440097808837891 -12.9064531326293945 10.1162986755371094
38.9053955078125 -6.87230777740478516 54.2071418762207031
-21.93560791015625 -13.6491518020629883 -15.1311941146850586
7.09265565872192383 12.5872325897216797 -48.685821533203125
51.5050163269042969 -6.57380485534667969 51.650848388671875
21.1433086395263672 13.1625299453735352 -11.7357568740844727
-17.5258121490478516 14.4806442260742188 -11.1609582901000977
51.4401206970214844 -10.5786552429199219 -1.33125042915344238
16.2345294952392578 13.4315328598022461 22.5715770721435547
-34.5007858276367188 10.6544160842895508 -49.7931632995605469
16.1000080108642578 -13.4760341644287109 -28.4606590270996094
-37.7141761779785156 -2.55823659896850586 -51.783721923828125
-31.3120555877685547 -12.4192276000976562 4.25324916839599609
37.1481819152832031 -11.8862743377685547 4.58815574645996094
57.3401947021484375 -6.74101400375366211 37.4175529479980469
44.7496376037597656 10.3365535736083984 -33.5614013671875
47.4476203918457031 9.71691703796386719 -35.0950431823730469
-1.24764442443847656 -12.2743406295776367 31.9393901824951172
-30.4293632507324219 -12.3657503128051758 28.6022357940673828
-3.08104944229125977 0.651041626930236816 -50.7515869140625
0.723892152309417725 -13.2799263000488281 -7.43504190444946289
43.8877220153808594 10.5900249481201172 23.9576377868652344
-43.1108131408691406 2.87893891334533691 -48.628570556640625
8.37591457366943359 -8.91362762451171875 52.8314399719238281
-34.9895362854003906 6.59951114654541016 56.2394866943359375
-21.8700370788574219 13.0341348648071289 -51.1205291748046875
55.73016357421875 -7.65242242813110352 40.2216796875
-13.3858070373535156 5.12690591812133789 56.3452682495117188
35.6463813781738281 11.6442861557006836 22.6599578857421875
-52.2337265014648438 10.8085470199584961 -39.7333221435546875
53.8421707153320312 7.74784946441650391 -28.5987682342529297
49.3680191040039062 9.49919891357421875 10.980931282043457
-35.3357505798339844 13.8617982864379883 24.6582622528076172
16.8677196502685547 -12.8890657424926758 4.08835506439208984
53.5769157409667969 7.97017002105712891 7.60096931457519531
25.1752853393554688 -12.9611883163452148 3.47794103622436523
-24.7063980102539062 -6.95164346694946289 56.8933334350585938
-53.2284088134765625 4.42112922668457031 34.03204345703125
-22.4683322906494141 -5.41639804840087891 58.6582260131835938
-11.0378561019897461 -0.100590988993644714 -50.7714500427246094
21.0786113739013672 -9.56381607055664062 47.9834480285644531
28.3874130249023438 -12.6637849807739258 -50.3476982116699219
-49.11639404296875 12.5562324523925781 24.1172466278076172
21.5914592742919922 13.1585073471069336 -14.0466861724853516
51.9364967346191406 8.63621330261230469 4.27913856506347656
32.4795074462890625 12.1867790222167969 -22.0675029754638672
26.60015869140625 12.6714677810668945 -24.4479045867919922
-30.7964725494384766 13.8075580596923828 -41.610382080078125
12.9505901336669922 13.6020793914794922 -16.7813472747802734
38.8772926330566406 11.4616155624389648 -7.08234643936157227
29.9692287445068359 11.8875637054443359 30.2366867065429688
7.16330099105834961 -12.8926382064819336 26.0011825561523438
42.0317344665527344 10.7947607040405273 22.4812793731689453
-43.8295631408691406 -11.6091032028198242 -1.08214688301086426
8.04910755157470703 -8.11379528045654297 -51.3637962341308594
54.9980506896972656 -8.76143836975097656 -30.2890243530273438
24.5511398315429688 -7.57069158554077148 54.0269203186035156
22.2541465759277344 12.641021728515625 29.5948867797851562
39.9271087646484375 8.32038784027099609 54.5206146240234375
57.1695938110351562 0.910482168197631836 29.8657989501953125
8.07574176788330078 13.0398540496826172 -42.76922607421875
21.8487434387207031 13.1439208984375 -14.2310352325439453
-47.1006278991699219 12.9200878143310547 14.6190900802612305
10.4234066009521484 13.3524532318115234 -33.385894775390625
49.6556472778320312 -10.0941143035888672 17.3386898040771484
51.3058853149414062 -9.72343349456787109 -45.5661849975585938
-12.5217151641845703 14.5626192092895508 -13.7491903305053711
33.747711181640625 -11.9326171875 8.0212860107421875
41.3129920959472656 -12.281743049621582 -21.3110599517822266
-52.6220207214355469 -5.97808837890625 12.1667280197143555
-48.9043807983398438 -10.2587795257568359 7.24477291107177734
22.2778778076171875 -12.6334629058837891 -45.7604789733886719
-7.9323577880859375 14.3654203414916992 6.0699620246887207
-0.760202109813690186 13.0723705291748047 37.8142890930175781
-53.0759925842285156 -3.07645058631896973 9.40032196044921875
-55.1111602783203125 5.36909008026123047 -33.7384376525878906
-38.8595848083496094 7.15666437149047852 -49.9651222229003906
5.11401128768920898 -6.61590147018432617 -51.5659446716308594
22.7165145874023438 12.3990507125854492 -41.3122291564941406
-40.4480438232421875 -12.3573808670043945 -28.0496959686279297
-40.9476737976074219 -5.20700407028198242 -49.2435226440429688
-11.289759635925293 13.5421628952026367 35.2781181335449219
1.67095673084259033 -13.0878696441650391 -33.9077224731445312
58.1407852172851562 -4.8244318962097168 18.1769218444824219
48.6388587951660156 7.88686895370483398 52.44140625
-32.4219932556152344 -14.6514196395874023 -28.4624500274658203
27.6249790191650391 -9.39451503753662109 47.0901832580566406
-41.8251953125 -0.299461334943771362 -48.94964599609375
28.1289310455322266 -13.2517585754394531 -29.4946689605712891
-7.6424713134765625 14.3919124603271484 8.19617176055908203
18.7991218566894531 -7.30135107040405273 55.3864593505859375
15.8134918212890625 -9.49533939361572266 49.6522254943847656
7.10646915435791016 13.3982028961181641 30.6025733947753906
-22.4011058807373047 -2.28231287002563477 -49.6230964660644531
-38.1471138000488281 13.0150632858276367 35.1346855163574219
21.8288059234619141 13.1964759826660156 -4.11780643463134766
58.5725860595703125 -5.14347743988037109 43.5244598388671875
48.5782241821289062 -11.0461997985839844 -2.11129999160766602
-54.0777473449707031 5.13225841522216797 42.3490028381347656
-39.4837684631347656 -10.5955572128295898 30.7609348297119141
-0.69156193733215332 13.8349981307983398 28.9036827087402344
-26.1252002716064453 14.4678726196289062 -14.8681755065917969
18.44683837890625 -13.2881717681884766 -6.24294948577880859
-15.2770967483520508 -9.22175693511962891 -51.1480636596679688
13.2108325958251953 13.3093557357788086 -27.1765041351318359
-35.6287612915039062 -14.7868099212646484 -38.0847587585449219
-51.9023590087890625 8.35041236877441406 -48.1045989990234375
23.8149566650390625 -13.4280033111572266 -25.4204483032226562
29.9906234741210938 12.1973838806152344 25.1187705993652344
56.5151596069335938 -7.02473068237304688 -28.8819580078125
24.4325885772705078 12.955998420715332 8.32085037231445312
-54.21710205078125 2.58512711524963379 -6.10576295852661133
-54.9475173950195312 7.34678459167480469 -29.536468505859375
-39.2356681823730469 4.78203201293945312 -49.1727523803710938
-56.0441322326660156 7.11027956008911133 -11.9301166534423828
46.6771163940429688 -10.3198165893554688 21.7118511199951172
-16.1376266479492188 14.217717170715332 -31.8713245391845703
7.07487630844116211 11.3408670425415039 46.9528656005859375
19.8418521881103516 7.20681905746459961 -52.0617752075195312
-48.3644561767578125 11.9058151245117188 43.1341552734375
57.641754150390625 -1.5909578800201416 13.6906652450561523
32.5216293334960938 -14.3361234664916992 -33.0780525207519531
15.2824029922485352 -12.8094387054443359 -33.4773178100585938
-53.2979507446289062 -3.56083059310913086 -43.4538078308105469
-49.9602890014648438 12.1360130310058594 33.2431411743164062
51.6274032592773438 7.43387365341186523 -49.1578788757324219
18.0497493743896484 12.8430681228637695 -37.6096038818359375
-37.8452301025390625 -14.8506584167480469 -39.4578819274902344
34.6813278198242188 11.8908052444458008 -26.0658512115478516
-52.6915245056152344 8.35725688934326172 -46.8716506958007812
32.810089111328125 -12.5724096298217773 -6.00238037109375
24.2865371704101562 4.00804901123046875 57.7194175720214844
22.6860370635986328 11.7511081695556641 39.3583793640136719
43.0246467590332031 -14.4643087387084961 -41.5639724731445312
-21.1524276733398438 14.1286211013793945 -37.2957000732421875
-13.4627971649169922 13.8208274841308594 -40.16424560546875
6.49780416488647461 -12.9779186248779297 -32.8958206176757812
-15.277674674987793 13.6630353927612305 34.64300537109375
-24.0795783996582031 -0.572591602802276611 -49.8972129821777344
-8.05174160003662109 10.7331733703613281 50.9947662353515625
-53.1524124145507812 4.6425628662109375 22.3203792572021484
-3.44876670837402344 13.8769855499267578 -31.8724117279052734
-1.055625319480896 -13.0330705642700195 10.4175596237182617
-37.2370223999023438 -12.5912656784057617 -6.53697729110717773
-51.9541511535644531 -6.90874433517456055 30.0680751800537109
-34.1276130676269531 -13.5414152145385742 37.5647506713867188
33.7236442565917969 -12.414912223815918 -6.1508631706237793
32.7962722778320312 -8.01207637786865234 -51.3584480285644531
12.7581491470336914 -13.1674795150756836 -3.95121955871582031
24.2790355682373047 12.8079662322998047 -24.9195003509521484
-42.8395309448242188 -10.8882551193237305 15.0224466323852539
-17.6265182495117188 -10.5277490615844727 42.7142829895019531
-20.3245906829833984 -13.1597690582275391 -29.8904705047607422
56.6885299682617188 -6.31036090850830078 -27.6705608367919922
-49.9970855712890625 -0.214921310544013977 50.722198486328125
-24.6158199310302734 -12.300023078918457 35.263946533203125
-14.4342975616455078 7.54194545745849609 56.6877899169921875
-45.3384017944335938 9.18302249908447266 54.6518936157226562
-34.2439041137695312 1.16553390026092529 -54.5597343444824219
-0.284046173095703125 -13.5629110336303711 -29.2929496765136719
44.5012092590332031 -10.9672231674194336 -49.6065216064453125
47.3062324523925781 9.91419029235839844 1.14162111282348633
-6.15055704116821289 14.1636419296264648 -18.2142562866210938
30.3670768737792969 2.02013444900512695 -46.4246902465820312
52.5463485717773438 -10.4855003356933594 -10.5064153671264648
-14.5794610977172852 14.5613594055175781 15.0059709548950195
-42.2252044677734375 13.6205673217773438 17.9141902923583984
16.1643657684326172 -13.6171779632568359 -24.1251735687255859
-10.8059263229370117 13.0664968490600586 -50.8380775451660156
57.0561752319335938 2.32008028030395508 28.3269309997558594
29.2482624053955078 9.33589458465576172 52.1794013977050781
-21.1009864807128906 -3.37642645835876465 -51.3947639465332031
44.6622123718261719 5.5153803825378418 57.4541397094726562
42.7276268005371094 -12.0001144409179688 -22.1133213043212891
-39.3402328491210938 0.595759749412536621 -53.9414863586425781
-16.9310626983642578 14.3803367614746094 24.0812625885009766
50.6228408813476562 -7.06619548797607422 -50.5088691711425781
-52.623748779296875 -9.59287357330322266 -26.2192344665527344
-28.2400684356689453 14.3580789566040039 -10.5424880981445312
9.86796188354492188 -13.1309585571289062 18.8397617340087891
-45.8985633850097656 12.4779500961303711 37.5990486145019531
31.7158432006835938 -12.7148838043212891 14.9820270538330078
10.1880950927734375 13.7961721420288086 -1.71916663646697998
-38.6994743347167969 -13.1682615280151367 43.8103179931640625
-27.182586669921875 13.8774881362915039 30.4407424926757812
53.4018135070800781 -9.04309272766113281 22.6275749206542969
-25.9555759429931641 14.3746204376220703 -20.6769580841064453
-6.92193460464477539 14.2738256454467773 22.1879959106445312
-45.3306617736816406 -2.43869328498840332 -48.4448089599609375
3.69135046005249023 14.0703134536743164 13.659515380859375
-52.3257179260253906 -5.70368480682373047 40.7076606750488281
42.9011306762695312 -12.0829381942749023 -27.9955654144287109
-0.581866800785064697 14.0450143814086914 23.0721225738525391
17.11358642578125 -10.3411264419555664 43.6429023742675781
-54.1878318786621094 2.30307149887084961 -4.31954765319824219
-2.1127934455871582 -12.9330043792724609 -30.8715324401855469
-19.8421230316162109 -13.51434326171875 -9.75846576690673828
-8.01611137390136719 10.820561408996582 -51.854248046875
-29.2069969177246094 -7.99728775024414062 53.751007080078125
-33.5714225769042969 -2.85812997817993164 -52.3328170776367188
45.1089630126953125 -6.64896917343139648 53.9431037902832031
37.4189796447753906 -12.3742332458496094 -15.4166250228881836
-9.48889541625976562 -11.3782138824462891 39.3301162719726562
-32.8567962646484375 -12.5786428451538086 -41.863250732421875
2.02073431015014648 -12.9204196929931641 -31.1933269500732422
-30.0019969940185547 7.88557624816894531 55.9494171142578125
-24.8566741943359375 14.5376739501953125 0.389554888010025024
-23.3197765350341797 -13.1275548934936523 8.27505302429199219
55.1938934326171875 4.84912347793579102 -45.9403190612792969
24.4098148345947266 12.5790548324584961 -34.3392868041992188
-11.5564002990722656 -13.5317649841308594 -14.22119140625
3.37952518463134766 -9.47228527069091797 51.5931968688964844
-49.1133003234863281 -10.5599269866943359 1.90624022483825684
11.1560182571411133 13.7492132186889648 -0.0781246721744537354
-34.6619758605957031 14.1919708251953125 15.9076614379882812
36.2910957336425781 11.293330192565918 28.4184188842773438
47.5119171142578125 -6.29274892807006836 54.669097900390625
49.653076171875 9.1154022216796875 28.0493869781494141
-18.0301876068115234 -9.44961833953857422 49.6760101318359375
-54.3700408935546875 10.8825559616088867 6.81121015548706055
-28.5352802276611328 -11.3323183059692383 40.4457550048828125
10.234950065612793 -12.1607351303100586 32.5084686279296875
-6.88171243667602539 12.8737449645996094 -50.9410133361816406
-44.1680908203125 -6.76894950866699219 56.0728912353515625
25.5931434631347656 11.4685430526733398 -50.6990013122558594
-31.8326911926269531 -12.4873237609863281 -42.07452392578125
57.8228302001953125 3.90373563766479492 46.7042999267578125
-3.60216903686523438 -12.7653827667236328 -50.0150070190429688
-19.3949222564697266 14.261235237121582 -31.6852054595947266
-14.8582487106323242 -11.9561977386474609 30.9549655914306641
-34.6893768310546875 13.6486053466796875 -42.0313148498535156
-20.2042350769042969 -6.08382701873779297 57.8898468017578125
10.4504566192626953 -12.9592781066894531 4.66902303695678711
-50.4507942199707031 11.6509542465209961 43.5361976623535156
53.7326469421386719 7.84199142456054688 32.4212608337402344
-53.4196968078613281 5.63171243667602539 47.407073974609375
-44.4334678649902344 12.4292306900024414 40.2309951782226562
22.6772346496582031 -13.5001335144042969 -23.0486164093017578
32.9508743286132812 12.1377248764038086 -22.5746173858642578
20.7699737548828125 -4.46142053604125977 -51.2990913391113281
-28.6865367889404297 13.9166469573974609 -39.9997100830078125
-43.6484336853027344 12.5731964111328125 38.5299148559570312
20.3174037933349609 -12.5055561065673828 -51.3856124877929688
-4.20389986038208008 11.3407716751098633 -52.2041740417480469
26.5624408721923828 12.8053770065307617 -12.9179401397705078
13.2893085479736328 -12.9767522811889648 -41.1290740966796875
-53.4745712280273438 2.88918566703796387 29.8819522857666016
-29.7685813903808594 -11.7157783508300781 24.6991920471191406
-43.0364761352539062 12.8490495681762695 -45.8961830139160156
-19.9870395660400391 -13.1034183502197266 -33.1695098876953125
23.5828056335449219 12.9813423156738281 18.7366485595703125
-28.8808040618896484 14.4718036651611328 7.43610858917236328
-54.9606895446777344 3.52706241607666016 30.0807361602783203
-16.4707603454589844 14.4880666732788086 17.5748214721679688
-38.9998512268066406 13.2200078964233398 -45.3663902282714844
-44.8722877502441406 10.3525609970092773 -50.8806037902832031
52.0314903259277344 -7.82112550735473633 -49.0887374877929688
8.74892902374267578 12.961979866027832 35.1576423645019531
16.1503772735595703 -10.3914976119995117 44.5865669250488281
-47.340240478515625 -4.4165959358215332 -47.7002334594726562
18.9042758941650391 -12.8976306915283203 -34.0826492309570312
-10.4836750030517578 13.9653501510620117 -33.7878341674804688
-35.6131820678710938 11.9461154937744141 47.0010147094726562
-31.1652355194091797 2.46648097038269043 -50.1774635314941406
-8.64497852325439453 -11.7557735443115234 31.6230964660644531
-28.1618309020996094 5.53691482543945312 -49.9727592468261719
-52.3432197570800781 11.7682571411132812 24.2254352569580078
6.63747262954711914 13.8835325241088867 -6.9767146110534668
13.0417919158935547 -12.8604679107666016 -44.7429962158203125
1.29500627517700195 -9.34282302856445312 52.08544921875
-14.335118293762207 -13.055851936340332 -33.3616523742675781
-31.0895404815673828 14.0692605972290039 -30.6501846313476562
21.9098930358886719 -13.5812644958496094 -24.0735912322998047
40.9573440551757812 10.8492164611816406 26.921112060546875
-40.277374267578125 12.9910173416137695 34.4361839294433594
30.3620414733886719 -12.1278858184814453 27.0980663299560547
13.7964315414428711 13.7154254913330078 3.12627315521240234
-33.0895919799804688 -12.8084926605224609 -8.79854869842529297
5.09442663192749023 -13.109710693359375 1.77487170696258545
-44.2407913208007812 -3.76854205131530762 -48.6032600402832031
-21.6015434265136719 -13.5723133087158203 -6.1825556755065918
-12.8703126907348633 -10.090423583984375 47.0587730407714844
13.2147464752197266 10.1917457580566406 -52.7617683410644531
-26.9895267486572266 14.2934446334838867 -26.131591796875
30.2282047271728516 3.50673413276672363 -51.1456527709960938
14.4867944717407227 13.4645929336547852 23.1064910888671875
31.7820224761962891 12.1283445358276367 22.5616893768310547
-56.6371002197265625 5.57900285720825195 23.9026718139648438
44.123443603515625 9.70876216888427734 42.0793113708496094
49.6023406982421875 -10.8633718490600586 -32.0575637817382812
-21.2938709259033203 14.3789033889770508 20.0904121398925781
-51.5165977478027344 -9.93616771697998047 -3.90606069564819336
43.9414253234863281 10.4751825332641602 25.7675094604492188
-54.2707138061523438 -5.6578211784362793 -26.6017856597900391
22.5865001678466797 13.0788612365722656 17.0404567718505859
-31.2854213714599609 -3.07989358901977539 -52.4078025817871094
-42.0323982238769531 11.50830078125 49.2821617126464844
-31.6329421997070312 -11.6509723663330078 23.3673915863037109
19.2783737182617188 13.3831071853637695 4.59865522384643555
-16.8059310913085938 -9.98432064056396484 46.9167861938476562
25.7973613739013672 -12.0139245986938477 27.9718513488769531
-20.6533851623535156 -11.6775760650634766 34.6123008728027344
8.08576393127441406 13.8195047378540039 -15.813563346862793
0.698854386806488037 -13.5861673355102539 -29.1919441223144531
7.11514949798583984 13.7339000701904297 -23.9891548156738281
-18.8099269866943359 14.1164083480834961 28.8338508605957031
46.5479087829589844 -11.4500417709350586 -10.0718803405761719
-27.0815582275390625 3.05830693244934082 56.0651741027832031
-24.7101688385009766 14.5050735473632812 10.6061697006225586
35.6965904235839844 -14.0617227554321289 -39.1209564208984375
10.7854299545288086 -1.74667465686798096 -48.3744430541992188
-18.611175537109375 11.1178627014160156 50.2462348937988281
45.6898880004882812 8.10594463348388672 53.7256278991699219
25.517486572265625 12.9697561264038086 -4.95617866516113281
-14.1793146133422852 13.0785913467407227 -50.9108619689941406
41.4322013854980469 -12.8678178787231445 39.2653160095214844
19.4677810668945312 -12.5333681106567383 27.8316631317138672
-22.7846584320068359 14.235255241394043 -27.7089405059814453
1.25563549995422363 14.1721258163452148 -0.995707571506500244
-36.3922309875488281 -12.0333662033081055 8.11908245086669922
10.4333333969116211 11.9415073394775391 -51.9477195739746094
55.9308547973632812 6.00298357009887695 29.7787761688232422
47.1830368041992188 -10.6506061553955078 11.105341911315918
36.4477920532226562 -3.9887080192565918 -47.3181304931640625
19.4013500213623047 12.7879238128662109 -37.9091300964355469
-27.9199542999267578 -9.27165126800537109 49.114501953125
-28.0617485046386719 -12.7797441482543945 -4.12428998947143555
57.086639404296875 1.32921886444091797 -10.4172344207763672
-55.1256370544433594 9.15361499786376953 -31.7179737091064453
-56.650360107421875 9.93570804595947266 -4.81973409652709961
7.9893193244934082 12.7497529983520508 -46.9122772216796875
11.6652994155883789 8.33679103851318359 55.6677513122558594
-34.4259033203125 -11.887969970703125 44.8973045349121094
20.1847877502441406 -8.34591484069824219 52.7788772583007812
-16.6415424346923828 -11.0385265350341797 -51.8824501037597656
-40.5790634155273438 -9.34393692016601562 -50.1390457153320312
-52.9631919860839844 -0.786326169967651367 17.48895263671875
55.3072395324707031 -0.417133450508117676 11.0970859527587891
35.2106513977050781 -11.6093759536743164 -51.2195663452148438
44.3042030334472656 -10.4544706344604492 25.4401035308837891
37.0818367004394531 -11.4164113998413086 13.8347234725952148
33.7653274536132812 -8.16851711273193359 50.7934951782226562
40.4462623596191406 11.2290515899658203 -1.04552972316741943
30.2267494201660156 -7.97186422348022461 51.8925285339355469
-18.8001995086669922 -12.8730602264404297 -29.8562469482421875
-5.56366252899169922 14.2771844863891602 -5.08337831497192383
38.1687431335449219 -4.86772966384887695 -50.4881668090820312
-1.78251898288726807 12.7885646820068359 -50.6858596801757812
-0.400255203247070312 -13.2932729721069336 -15.0498208999633789
26.4986171722412109 -9.45982933044433594 47.2583465576171875
56.6338539123535156 5.02631378173828125 22.9711189270019531
-16.52081298828125 12.3266677856445312 44.7149620056152344
40.6265411376953125 11.2388296127319336 -16.9109134674072266
33.9308662414550781 -6.61957550048828125 -51.0624313354492188
-36.5032539367675781 13.7465248107910156 25.4399166107177734
25.9654560089111328 11.5991477966308594 38.8840675354003906
-52.5656585693359375 -2.62444329261779785 23.1853046417236328
-56.1524925231933594 4.63818836212158203 21.0121364593505859
-1.20338940620422363 14.0238199234008789 -19.1537609100341797
-14.9400291442871094 0.298272579908370972 -50.2795867919921875
-4.34278964996337891 -13.1121635437011719 7.12364721298217773
44.7042121887207031 10.5462093353271484 0.484827935695648193
17.65728759765625 12.950897216796875 -31.9122295379638672
6.89165258407592773 13.1704034805297852 -41.2262649536132812
41.5782737731933594 -11.2659587860107422 13.3773517608642578
-50.2333984375 11.4162082672119141 -43.5180740356445312
23.2609481811523438 -13.5286521911621094 -22.3850803375244141
10.7596073150634766 13.6805896759033203 24.035430908203125
46.4935836791992188 9.10570049285888672 46.3653526306152344
2.68716597557067871 -13.0077123641967773 7.31139755249023438
-54.0320243835449219 -8.76214981079101562 -33.4209632873535156
57.0729789733886719 4.56966733932495117 -11.2665081024169922
-20.2946529388427734 14.0886087417602539 28.7464923858642578
-39.3352584838867188 -4.44720792770385742 59.3419075012207031
-41.5367622375488281 3.20443606376647949 56.6524429321289062
-13.9739522933959961 14.3604650497436523 -14.1251754760742188
38.697021484375 -11.7891139984130859 6.6519932746887207
-44.3053245544433594 -9.25068092346191406 40.6004829406738281
-53.8879241943359375 -8.14654350280761719 -40.82342529296875
25.0490264892578125 7.97517013549804688 -52.1341590881347656
46.2028312683105469 8.63861274719238281 51.3268699645996094
-3.990142822265625 13.8087120056152344 -34.5865936279296875
-36.6194801330566406 14.0710916519165039 18.5247993469238281
-13.8290328979492188 -13.1309309005737305 17.6333827972412109
44.6890220642089844 10.3977108001708984 25.0017585754394531
21.9947624206542969 -4.26452207565307617 57.8400955200195312
7.07913112640380859 -10.669398307800293 -52.1452674865722656
-49.6298675537109375 11.584111213684082 -46.1952705383300781
29.83380126953125 -13.1726675033569336 -16.7163028717041016
-7.73544740676879883 12.9313488006591797 -50.0297317504882812
-26.3141956329345703 14.3207950592041016 20.7321300506591797
-7.07844686508178711 3.76062321662902832 -50.6568450927734375
29.8256568908691406 -12.4638738632202148 -44.4125442504882812
39.1098785400390625 -5.73161220550537109 55.8985214233398438
26.0527591705322266 -12.8725061416625977 13.9568300247192383
-54.9680213928222656 8.63883781433105469 -30.7650794982910156
-17.5920181274414062 -10.0887908935546875 -51.9677696228027344
29.8612308502197266 -10.6228399276733398 -52.6993865966796875
-18.2397747039794922 14.4585103988647461 22.1876983642578125
-14.6717681884765625 14.3197793960571289 -2.93166446685791016
-9.72270870208740234 -13.0255556106567383 -40.0744094848632812
56.469879150390625 3.51092171669006348 -42.9645843505859375
-8.7404632568359375 14.3059406280517578 -12.9926433563232422
-31.0511703491210938 -9.28929233551025391 -51.3838653564453125
-16.6912651062011719 13.8810920715332031 31.4178314208984375
25.1976566314697266 -12.9607915878295898 -34.6614036560058594
-34.3892250061035156 -12.801396369934082 -9.93578338623046875
-50.5782966613769531 -9.50101566314697266 10.2507781982421875
-23.3259258270263672 -10.0951204299926758 45.7836532592773438
2.25430464744567871 4.15253591537475586 57.0892601013183594
9.82504463195800781 13.6230745315551758 24.7663822174072266
-42.7181777954101562 13.5408926010131836 2.41515994071960449
50.3582725524902344 8.73179054260253906 38.48089599609375
-14.0384178161621094 4.7269902229309082 -50.1762542724609375
29.3295421600341797 12.6687355041503906 -4.37139987945556641
-40.0779075622558594 -10.8015146255493164 26.7010078430175781
4.67026424407958984 13.0567398071289062 36.4811210632324219
0.779199719429016113 14.1949043273925781 6.63884115219116211
-48.4071884155273438 5.71262788772583008 -47.1531143188476562
25.1380748748779297 12.9602317810058594 -12.5113010406494141
-35.3851127624511719 -12.662837028503418 -2.0494840145111084
46.7626533508300781 10.1010522842407227 10.4719934463500977
-24.7594470977783203 -12.8828420639038086 -39.81549072265625
2.77524042129516602 -13.1785469055175781 0.181238368153572083
29.4688282012939453 12.3046340942382812 23.3336830139160156
6.72354984283447266 13.6860141754150391 -26.9695663452148438
57.4604263305664062 -2.13702583312988281 23.7318458557128906
-37.1224517822265625 -11.0976905822753906 21.4586353302001953
16.3393707275390625 12.7632608413696289 -41.5142707824707031
4.50273704528808594 13.5694961547851562 -32.4832916259765625
10.9758853912353516 13.3006162643432617 -34.8099937438964844
-46.5908050537109375 12.749699592590332 -15.3483428955078125
-36.8291893005371094 -13.3846769332885742 43.2006301879882812
-24.9244918823242188 -9.98969364166259766 46.1059074401855469
5.81995296478271484 -13.1784267425537109 17.8648281097412109
35.0768814086914062 10.0648651123046875 45.7731513977050781
-55.5927505493164062 6.63189363479614258 -15.6782493591308594
27.3445682525634766 6.25092983245849609 -51.8496971130371094
-10.3611860275268555 -2.9891660213470459 -50.8449668884277344
38.2851409912109375 -11.636265754699707 41.5914840698242188
-40.5758934020996094 -10.8093585968017578 19.4351749420166016
-54.853759765625 4.32879734039306641 0.680644512176513672
0.247766941785812378 -13.5892906188964844 -17.0471324920654297
-22.5397243499755859 8.05120944976806641 55.9154548645019531
-45.593597412109375 13.0991830825805664 10.2264842987060547
57.2963676452636719 -6.84302854537963867 4.74346780776977539
-1.36938726902008057 -12.8359823226928711 27.0377941131591797
-14.6393909454345703 14.4609165191650391 22.8601760864257812
26.3144989013671875 7.80008172988891602 56.430389404296875
50.6908988952636719 9.07330131530761719 0.823048651218414307
-31.8525180816650391 13.9668607711791992 25.6276054382324219
38.2004852294921875 11.4207925796508789 18.5694370269775391
-54.1315956115722656 -0.756732761859893799 -39.9667701721191406
-45.5267410278320312 -8.53189468383789062 46.2413406372070312
-3.18004584312438965 13.1125497817993164 38.0607223510742188
-24.0881195068359375 -13.2746572494506836 2.64898943901062012
-21.0727615356445312 14.2923717498779297 -22.6240787506103516
2.37615180015563965 5.88017940521240234 56.8844795227050781
-52.5126571655273438 -4.90680646896362305 22.2994499206542969
