ply
format ascii 1.0
element vertex 821
comment vertices
property float x
property float y
property float z
end_header
-419.3106689453125 -54.6227798461914062 133.879989624023438
-461.623992919921875 -378.487457275390625 -750.460205078125
-658.3973388671875 -304.56634521484375 -325.325347900390625
1002.15899658203125 -20.3584232330322266 -221.213577270507812
1176.772705078125 -396.886383056640625 726.03424072265625
770.59783935546875 -381.0362548828125 482.837860107421875
831.76239013671875 -124.163009643554688 -775.337158203125
334.79150390625 -95.123626708984375 770.00860595703125
744.466552734375 -380.24932861328125 307.6416015625
-869.75909423828125 62.4358482360839844 -411.124664306640625
-870.58282470703125 106.896858215332031 356.079559326171875
636.645263671875 -334.813873291015625 752.52264404296875
994.8831787109375 -19.7239646911621094 -531.4625244140625
294.48931884765625 -377.8214111328125 579.11474609375
-436.318939208984375 -376.895050048828125 -148.636184692382812
-1003.5546875 435.3118896484375 726.74798583984375
1131.95947265625 -232.35888671875 518.15411376953125
418.287261962890625 -378.752838134765625 732.0025634765625
-1004.47967529296875 644.55224609375 579.14752197265625
1072.0770263671875 -377.960662841796875 618.712890625
1130.442138671875 -167.22344970703125 20.7777347564697266
-956.7406005859375 575.721923828125 -469.121856689453125
219.436233520507812 -50.3029022216796875 749.3404541015625
-28.8878364562988281 -376.045074462890625 -24.3240699768066406
-734.34576416015625 -374.8751220703125 374.127532958984375
-530.5045166015625 -56.2925071716308594 -95.5258941650390625
221.480850219726562 -376.82257080078125 95.4979476928710938
-731.30816650390625 -49.0697784423828125 240.058792114257812
-884.8271484375 409.050018310546875 -80.3917388916015625
988.583984375 -19.8379898071289062 -518.072021484375
534.0283203125 -258.25787353515625 761.81915283203125
-252.92254638671875 -41.2923583984375 724.85772705078125
961.78802490234375 -14.0772323608398438 -373.940032958984375
-912.1448974609375 -108.449409484863281 731.0321044921875
1029.0228271484375 -30.3173103332519531 350.148040771484375
1021.51116943359375 -380.100189208984375 -21.7310352325439453
-470.340362548828125 -376.85711669921875 -128.626983642578125
801.37603759765625 -115.875442504882812 763.51800537109375
906.5068359375 -35.2232475280761719 412.2113037109375
-408.444915771484375 -374.685394287109375 466.634002685546875
241.307357788085938 -249.878204345703125 763.88848876953125
-173.284408569335938 -52.2637367248535156 -235.345184326171875
-274.925933837890625 -377.94390869140625 -469.20404052734375
412.335235595703125 -377.163604736328125 -124.75299072265625
292.26495361328125 -351.558563232421875 757.27520751953125
927.304443359375 -32.3475265502929688 557.2921142578125
557.0849609375 -379.239044189453125 346.166229248046875
1017.5782470703125 -18.7479877471923828 -641.1292724609375
625.356201171875 -378.837554931640625 66.6430206298828125
985.78570556640625 -380.329498291015625 65.642486572265625
-656.79327392578125 -372.334747314453125 553.1800537109375
413.0540771484375 -378.7652587890625 460.100250244140625
8.08262825012207031 -83.3392562866210938 766.0902099609375
-883.94091796875 -22.5028343200683594 -650.69659423828125
-728.80670166015625 -238.240188598632812 767.31646728515625
-146.597732543945312 -51.5354843139648438 451.545257568359375
-870.2337646484375 -15.0441656112670898 -35.6746826171875
367.048370361328125 -47.0632667541503906 734.90179443359375
1084.186279296875 -25.2326602935791016 -12.5037813186645508
-586.17987060546875 -276.033233642578125 -687.427001953125
-889.8641357421875 96.119476318359375 309.212493896484375
-909.48321533203125 596.489013671875 -621.131591796875
919.79351806640625 -32.7921295166015625 351.59051513671875
291.605804443359375 -54.7246818542480469 -55.8932380676269531
-732.9832763671875 -42.3398094177246094 -378.43896484375
405.46954345703125 -49.1958732604980469 266.364898681640625
-305.027587890625 -70.8159637451171875 765.04400634765625
-207.582061767578125 -252.64337158203125 -779.69970703125
1134.29638671875 -114.565437316894531 374.18377685546875
-911.5543212890625 629.93609619140625 -144.142181396484375
1092.9007568359375 -245.58892822265625 -787.14617919921875
-878.966064453125 -41.9515762329101562 404.26483154296875
1022.14801025390625 -289.3968505859375 -801.15960693359375
-11.692204475402832 -45.7434921264648438 348.98553466796875
-409.767608642578125 -49.2578277587890625 549.66510009765625
-870.17303466796875 61.4088478088378906 608.60003662109375
92.3739395141601562 -42.8404922485351562 716.0185546875
759.0863037109375 -137.994888305664062 -775.31591796875
764.90771484375 -225.704574584960938 -776.39434814453125
-461.558319091796875 -375.884246826171875 49.3732490539550781
1034.8538818359375 -379.81158447265625 63.8120918273925781
1167.839599609375 -316.864715576171875 729.12762451171875
485.031494140625 -49.4046669006347656 517.210205078125
-100.861404418945312 -26.9894008636474609 -629.1724853515625
-952.94866943359375 488.786712646484375 246.293304443359375
-884.8837890625 410.580718994140625 250.753326416015625
840.03143310546875 -380.806732177734375 315.48541259765625
-393.766510009765625 -43.1327743530273438 -524.429443359375
1131.4783935546875 -208.38726806640625 735.6910400390625
-857.8106689453125 -33.5831146240234375 -682.68475341796875
892.8411865234375 -23.4027118682861328 -516.458251953125
-870.03717041015625 104.656867980957031 179.896240234375
-927.76751708984375 639.10015869140625 641.32049560546875
267.15289306640625 -41.1285057067871094 -628.25286865234375
762.8079833984375 -40.9841957092285156 -158.659317016601562
620.707763671875 -43.903656005859375 -337.60186767578125
-936.26849365234375 660.458740234375 -462.468048095703125
256.12591552734375 -377.226654052734375 245.779632568359375
1000.7529296875 -379.74456787109375 -90.3675384521484375
-570.27685546875 -190.026718139648438 773.22314453125
-869.11663818359375 110.029136657714844 92.5927505493164062
-473.960174560546875 -56.0781173706054688 -154.085556030273438
599.7841796875 -283.834991455078125 -797.08465576171875
-887.513671875 420.0755615234375 -692.28131103515625
-621.1707763671875 -377.309906005859375 -232.018447875976562
-163.634811401367188 -376.05938720703125 355.8988037109375
408.2550048828125 -46.4703750610351562 -399.8009033203125
-183.748886108398438 -376.346954345703125 -81.3551177978515625
784.3907470703125 -380.54510498046875 323.9189453125
647.6123046875 -380.62286376953125 547.54412841796875
699.68157958984375 -38.2909698486328125 669.657470703125
-912.6689453125 614.85137939453125 443.5814208984375
-165.748214721679688 -86.5543594360351562 764.9329833984375
-913.58636474609375 -264.67578125 630.1380615234375
360.88568115234375 -33.6940116882324219 -389.74700927734375
-583.8123779296875 -250.7353515625 760.82989501953125
1127.6829833984375 -242.253189086914062 241.695571899414062
952.54205322265625 -377.8248291015625 -630.98834228515625
-958.469970703125 -185.2979736328125 704.26629638671875
-999.916259765625 643.53692626953125 466.013214111328125
908.2821044921875 -31.2443485260009766 511.7965087890625
-128.642593383789062 -43.2620010375976562 753.26324462890625
-416.251678466796875 -51.7211570739746094 421.619842529296875
-633.50469970703125 -211.63446044921875 -676.7010498046875
-117.791038513183594 -376.632843017578125 480.441680908203125
-486.38665771484375 -53.7864112854003906 -212.762039184570312
714.19970703125 -69.280975341796875 762.16693115234375
-292.644287109375 -36.5573768615722656 -646.4189453125
1100.9549560546875 -373.68621826171875 391.2916259765625
-378.14410400390625 -333.629486083984375 -779.66937255859375
-683.12432861328125 -256.882720947265625 -777.70587158203125
825.12860107421875 -35.6272506713867188 534.88232421875
-985.30694580078125 665.56280517578125 580.58966064453125
1078.8282470703125 -32.0880393981933594 560.64324951171875
-117.408531188964844 -377.8741455078125 -498.092010498046875
-19.4494686126708984 -49.1541404724121094 296.784423828125
-623.98785400390625 -33.5368576049804688 -738.35504150390625
-893.115234375 504.336334228515625 238.229522705078125
1137.769775390625 -62.5750579833984375 -3.62570524215698242
-880.810302734375 -324.489410400390625 565.1038818359375
819.9443359375 -26.2626724243164062 -546.15301513671875
-869.55645751953125 63.9263687133789062 -391.82073974609375
977.1988525390625 -378.8311767578125 -294.7197265625
265.840545654296875 -377.10723876953125 -262.109954833984375
-900.76171875 561.78204345703125 317.96112060546875
-294.51190185546875 -51.2953567504882812 -311.120941162109375
1131.550048828125 -198.921661376953125 -329.86444091796875
190.922500610351562 -376.478302001953125 5.3518528938293457
-532.15863037109375 -372.97601318359375 518.99774169921875
-74.039306640625 -353.6956787109375 761.417724609375
-883.19586181640625 383.291839599609375 256.309051513671875
-995.44122314453125 652.00091552734375 309.75238037109375
-895.962890625 521.79150390625 439.5338134765625
-427.08258056640625 -374.714385986328125 243.018829345703125
-648.721435546875 -370.351898193359375 737.76043701171875
547.9259033203125 -377.889251708984375 -104.993072509765625
7.48255729675292969 -44.3067779541015625 607.10980224609375
-876.44720458984375 -46.2100181579589844 362.455230712890625
-909.23321533203125 597.13104248046875 -600.5728759765625
70.0251541137695312 -56.5720138549804688 -85.2381668090820312
1056.7833251953125 -24.2042827606201172 -28.7208003997802734
-907.166015625 -256.203643798828125 603.71826171875
-56.8320884704589844 -377.04107666015625 455.580108642578125
-606.88787841796875 -376.94940185546875 -111.83984375
-914.172607421875 -74.8278884887695312 503.3648681640625
821.87921142578125 -378.522369384765625 -232.003768920898438
-977.977294921875 101.590682983398438 621.13995361328125
-992.453369140625 160.1396484375 697.7086181640625
-878.22113037109375 -173.716537475585938 454.582489013671875
-665.592529296875 -265.83966064453125 -807.14007568359375
-877.40875244140625 289.55718994140625 -331.973236083984375
-718.04693603515625 -308.96795654296875 -777.561767578125
-705.572021484375 -73.1376571655273438 -771.06427001953125
-153.862289428710938 -36.1849746704101562 214.527481079101562
-327.58343505859375 -55.5434188842773438 218.33355712890625
958.44549560546875 -87.5298233032226562 771.4923095703125
-42.7629203796386719 -377.578460693359375 -443.57342529296875
1132.786376953125 -254.757431030273438 648.69854736328125
-871.08990478515625 186.539321899414062 -398.204681396484375
983.55810546875 -21.3038578033447266 -217.669265747070312
-496.561065673828125 -24.73944091796875 620.275390625
101.50689697265625 -51.764556884765625 -380.667938232421875
-738.66802978515625 -87.0922317504882812 -772.0626220703125
112.272178649902344 -53.7871589660644531 276.99267578125
755.20550537109375 -344.678985595703125 750.329345703125
-50.6329917907714844 -36.2291831970214844 -707.5423583984375
-609.4442138671875 -375.32318115234375 157.5206298828125
-871.3447265625 142.225555419921875 334.12005615234375
-937.99267578125 567.22808837890625 -157.067108154296875
-707.5345458984375 -374.52435302734375 376.5579833984375
-983.891357421875 501.22637939453125 463.1578369140625
-178.132919311523438 -377.414947509765625 -360.70849609375
699.6461181640625 -45.2250862121582031 197.107452392578125
-35.4270401000976562 -50.58807373046875 148.357559204101562
-684.2589111328125 -112.324226379394531 -768.70391845703125
-627.28704833984375 -34.6968040466308594 -646.47607421875
1142.652099609375 -131.296783447265625 674.72479248046875
-890.82489013671875 342.101165771484375 -672.71307373046875
896.1810302734375 -377.841949462890625 -694.82415771484375
-880.18292236328125 307.81512451171875 681.33563232421875
-628.40655517578125 -190.229339599609375 -753.4996337890625
-166.229232788085938 -39.5338172912597656 -564.53106689453125
-15.9348831176757812 -32.4884681701660156 -637.31494140625
-910.23321533203125 -113.562271118164062 516.9271240234375
308.637176513671875 -83.2184677124023438 768.5084228515625
-585.98583984375 -55.7542762756347656 -120.093185424804688
691.00384521484375 -378.3363037109375 -160.79730224609375
376.6175537109375 -229.390518188476562 -780.954345703125
-724.9605712890625 -46.7602767944335938 -227.087432861328125
1137.6839599609375 -121.351409912109375 434.08074951171875
-869.73663330078125 160.28546142578125 -271.128570556640625
972.16949462890625 -30.1886978149414062 415.57843017578125
-683.24810791015625 -213.108123779296875 -214.7703857421875
1108.8345947265625 -29.1206741333007812 205.406646728515625
-858.64923095703125 -42.9444618225097656 525.7374267578125
-160.542556762695312 -376.312103271484375 480.04437255859375
-485.31011962890625 -54.9594306945800781 72.9427337646484375
-733.8453369140625 -85.6967849731445312 -70.1109085083007812
117.793144226074219 -51.0614433288574219 -184.945541381835938
-620.16802978515625 -36.796875 -590.892822265625
-885.44818115234375 413.7781982421875 342.338623046875
85.6743698120117188 -378.571044921875 -778.643310546875
-996.5474853515625 390.068756103515625 681.73297119140625
651.5943603515625 -377.351104736328125 -463.071380615234375
1039.23193359375 -375.149139404296875 -531.619873046875
541.47259521484375 -378.816070556640625 261.09527587890625
707.16741943359375 -25.9857826232910156 -664.38189697265625
-443.92718505859375 -377.817138671875 -385.851715087890625
-67.3733444213867188 -323.756072998046875 762.9320068359375
279.538330078125 -376.88946533203125 -184.000946044921875
-870.2086181640625 -0.110627822577953339 -282.784515380859375
561.41912841796875 -227.651092529296875 763.06732177734375
-589.59539794921875 -45.5849876403808594 550.1669921875
-540.32275390625 -46.4339942932128906 365.673675537109375
-23.0758895874023438 -38.9531593322753906 -538.753662109375
1150.6280517578125 -242.964797973632812 773.92236328125
416.22796630859375 -40.1102256774902344 -574.0599365234375
1131.956298828125 -61.0613670349121094 -51.8820991516113281
342.55908203125 -376.904632568359375 -160.049423217773438
544.91607666015625 -340.568695068359375 -794.81695556640625
1129.2816162109375 -236.45660400390625 95.9802703857421875
565.062744140625 -379.491485595703125 398.8682861328125
-732.09783935546875 -375.95166015625 183.362319946289062
-155.472274780273438 -52.7651824951171875 425.31097412109375
318.202789306640625 -50.7718276977539062 148.760879516601562
-892.78509521484375 492.466583251953125 354.514068603515625
439.7418212890625 -269.701934814453125 -793.78021240234375
-843.085205078125 -115.906044006347656 302.22900390625
-992.8184814453125 549.30706787109375 524.70501708984375
-905.63031005859375 499.563720703125 -12.3346652984619141
1117.1912841796875 -309.180633544921875 598.72247314453125
-846.1849365234375 -35.1202545166015625 723.1466064453125
-648.00030517578125 -226.601821899414062 -776.9197998046875
1117.8359375 -294.840179443359375 256.191009521484375
-734.26611328125 -303.471099853515625 -790.99261474609375
-938.5 506.952178955078125 -581.8577880859375
-77.0456085205078125 -28.5279407501220703 407.180328369140625
888.2039794921875 -26.0467357635498047 -411.700653076171875
-477.305084228515625 -49.4195785522460938 520.38946533203125
-660.2022705078125 -271.96429443359375 -348.635040283203125
-973.4779052734375 357.5125732421875 -764.6796875
-622.6700439453125 -51.1761360168457031 764.318603515625
493.008758544921875 -196.471954345703125 764.57763671875
-340.319915771484375 -378.97509765625 -717.50128173828125
1109.9398193359375 -365.19696044921875 -86.2740478515625
-14.5429277420043945 -47.5567512512207031 519.96514892578125
-368.812957763671875 -36.4605216979980469 -694.29400634765625
-357.291900634765625 -376.299591064453125 -17.8319950103759766
344.514862060546875 -378.19366455078125 -734.8603515625
359.06634521484375 -377.16314697265625 -243.522064208984375
-82.0243377685546875 -45.9578514099121094 -401.594390869140625
-690.257568359375 -82.5499343872070312 -619.4432373046875
574.6876220703125 -38.2874870300292969 -407.4547119140625
-886.58740234375 439.045166015625 539.7071533203125
-385.36065673828125 -374.869964599609375 247.31976318359375
919.41558837890625 -264.468902587890625 -797.9993896484375
482.430511474609375 -51.1117668151855469 49.6389846801757812
621.9095458984375 -290.88580322265625 -797.2615966796875
546.614501953125 -33.061248779296875 -676.3955078125
6.47908782958984375 -376.566925048828125 -181.830276489257812
-13.4020767211914062 -82.5280990600585938 -772.3804931640625
-302.096221923828125 -38.0518646240234375 -493.796051025390625
-729.375 -326.366241455078125 75.3280181884765625
-606.0758056640625 -338.541717529296875 -772.70684814453125
-71.564849853515625 -241.188217163085938 -780.16162109375
1130.1112060546875 -109.26904296875 -170.516250610351562
-612.46502685546875 -376.629180908203125 -27.0104789733886719
-645.5518798828125 -50.2810249328613281 8.51602458953857422
985.037841796875 -379.84271240234375 -53.3306617736816406
1137.7132568359375 -155.676040649414062 -100.181060791015625
-903.51446533203125 492.998443603515625 -22.3716754913330078
-657.95501708984375 -289.281982421875 -348.20721435546875
-393.8739013671875 -375.367095947265625 174.069747924804688
774.48748779296875 -26.2165031433105469 -649.305908203125
-32.9424095153808594 -376.9942626953125 293.436309814453125
-403.17108154296875 -56.3736228942871094 194.238327026367188
1049.9288330078125 -18.5330314636230469 -470.26251220703125
858.77642822265625 -37.8355445861816406 434.72760009765625
-564.15423583984375 -51.3355064392089844 94.2276382446289062
257.425079345703125 -39.9902229309082031 573.92095947265625
-885.7066650390625 437.132659912109375 -637.533447265625
862.93310546875 -24.8845844268798828 -536.09002685546875
1008.90570068359375 -382.796234130859375 654.9271240234375
-669.18408203125 -141.405441284179688 -486.3519287109375
515.42864990234375 -376.90191650390625 -378.70245361328125
-457.39605712890625 -234.852066040039062 -776.44207763671875
609.95367431640625 -373.853668212890625 749.14935302734375
979.04083251953125 -18.1595554351806641 113.485237121582031
1143.0089111328125 -179.358642578125 -631.30804443359375
-284.48577880859375 -58.6547050476074219 220.829620361328125
-585.24627685546875 -44.3739128112792969 283.58526611328125
-803.5701904296875 -41.2112770080566406 -240.811752319335938
-678.92449951171875 -273.290557861328125 -183.995208740234375
-974.166748046875 174.71759033203125 574.36932373046875
481.218475341796875 -380.0687255859375 703.28729248046875
-884.19818115234375 391.666900634765625 36.6301193237304688
169.249404907226562 -377.044189453125 -296.182525634765625
589.77362060546875 -38.85797119140625 639.6307373046875
822.64434814453125 -377.780242919921875 -536.68011474609375
-843.320068359375 -301.561920166015625 771.6180419921875
673.27557373046875 -378.926025390625 12.5154857635498047
-952.97216796875 283.9530029296875 385.19940185546875
-1007.8944091796875 545.76116943359375 756.30426025390625
-704.720458984375 -43.1085472106933594 577.427978515625
557.8203125 -377.746002197265625 -164.45965576171875
895.57257080078125 -37.0827064514160156 270.37542724609375
-153.728713989257812 -354.1513671875 762.80926513671875
382.014801025390625 -47.9823799133300781 546.50335693359375
-999.014892578125 662.04962158203125 425.542205810546875
-24.8976345062255859 -377.2139892578125 421.174285888671875
896.95697021484375 -380.117645263671875 93.2756805419921875
866.96710205078125 -379.07952880859375 -131.134979248046875
76.6322784423828125 -377.573455810546875 480.160675048828125
-626.63006591796875 -373.810546875 345.298919677734375
-442.287872314453125 -53.6350212097167969 495.1021728515625
532.18060302734375 -376.84130859375 -391.8062744140625
-903.621337890625 588.44415283203125 -549.03570556640625
207.427688598632812 -46.7945404052734375 303.24615478515625
-966.28326416015625 -223.2371826171875 775.0594482421875
-415.6513671875 -39.1896896362304688 -588.39739990234375
1091.8597412109375 -21.3346519470214844 -532.7481689453125
21.3824081420898438 -46.1732444763183594 203.334335327148438
848.205322265625 -379.457550048828125 -25.4550056457519531
-899.521728515625 546.00360107421875 -608.60711669921875
285.201995849609375 -51.3893356323242188 -261.79736328125
-878.86376953125 314.963470458984375 -319.6077880859375
-694.66766357421875 -68.7432174682617188 -587.37884521484375
-564.68780517578125 -377.96820068359375 -389.1597900390625
-921.93536376953125 646.1304931640625 -481.74688720703125
1036.0955810546875 -375.237213134765625 -730.2301025390625
-400.639617919921875 -169.897598266601562 -772.31427001953125
161.780960083007812 -52.8106002807617188 -261.3863525390625
1117.349365234375 -275.48944091796875 -20.4098796844482422
-491.415557861328125 -374.201812744140625 507.6383056640625
-170.307647705078125 -357.109832763671875 -785.03375244140625
-801.84075927734375 -35.7392196655273438 581.1807861328125
386.82366943359375 -377.650177001953125 95.369537353515625
621.73602294921875 -379.3724365234375 269.61834716796875
-506.4931640625 -378.069488525390625 -432.7120361328125
358.447265625 -285.71978759765625 760.083740234375
-183.5203857421875 -376.752532958984375 656.1636962890625
-153.927017211914062 -164.627960205078125 774.2078857421875
779.30401611328125 -32.7197341918945312 284.4395751953125
4.85969066619873047 -49.3026123046875 761.1185302734375
1131.9835205078125 -206.026779174804688 -565.7618408203125
-898.769287109375 564.288818359375 -588.32379150390625
-421.0655517578125 -376.4747314453125 -44.0234642028808594
-195.622329711914062 -55.4251937866210938 13.3905706405639648
717.6600341796875 -34.8161773681640625 -464.15234375
-673.316650390625 -217.576797485351562 -293.923675537109375
783.71685791015625 -377.68231201171875 -485.29852294921875
-648.470947265625 -373.3875732421875 423.1590576171875
378.001983642578125 -377.0269775390625 -182.832077026367188
-871.6998291015625 61.6247596740722656 675.5245361328125
-980.882568359375 218.706924438476562 -770.81378173828125
250.547286987304688 -377.232269287109375 292.349090576171875
257.961639404296875 -39.8657646179199219 576.08349609375
329.016021728515625 -377.9036865234375 -648.77569580078125
399.876434326171875 -40.1765670776367188 -597.57708740234375
-967.78387451171875 58.6782379150390625 588.78448486328125
1047.593994140625 -19.3700523376464844 -207.450729370117188
852.6884765625 -38.2666091918945312 425.597686767578125
-698.45513916015625 -52.58258056640625 -123.135658264160156
656.1121826171875 -31.1013832092285156 -669.80615234375
641.125244140625 -379.70233154296875 326.278350830078125
309.007598876953125 -41.3918991088867188 -603.45697021484375
684.70184326171875 -76.7586135864257812 -774.99114990234375
1.56407570838928223 -47.3395805358886719 -2.27624273300170898
-891.74505615234375 480.80767822265625 599.30694580078125
-934.560791015625 545.43798828125 134.850448608398438
1132.9609375 -73.0035018920898438 685.60650634765625
-871.33013916015625 169.676742553710938 448.28619384765625
-780.6370849609375 -43.0210914611816406 -244.649261474609375
-796.81524658203125 -39.4612541198730469 563.7086181640625
998.81671142578125 -38.1129989624023438 721.0670166015625
-491.548492431640625 -51.2941703796386719 425.57666015625
-899.70721435546875 375.6641845703125 -730.01190185546875
752.36053466796875 -377.5400390625 -413.219207763671875
714.84906005859375 -377.917755126953125 -285.19146728515625
471.332794189453125 -40.8199310302734375 -529.89276123046875
-755.37652587890625 -50.4453010559082031 -29.7650527954101562
-990.19891357421875 474.768707275390625 552.2730712890625
-724.0106201171875 -52.4002151489257812 -111.4156494140625
1114.75341796875 -318.191925048828125 -699.390380859375
-665.00799560546875 -44.0747146606445312 544.625732421875
831.30010986328125 -381.86102294921875 618.42181396484375
-869.052734375 132.706954956054688 -285.49627685546875
316.20611572265625 -378.035186767578125 -679.54052734375
1130.3955078125 -254.836639404296875 754.10504150390625
-793.6806640625 -353.160888671875 303.886932373046875
-880.13812255859375 329.43670654296875 330.0731201171875
990.13116455078125 -382.2734375 537.78936767578125
-640.41455078125 -278.736785888671875 769.6087646484375
64.3184661865234375 -53.3890380859375 252.037841796875
-170.401077270507812 -43.1508522033691406 -517.84320068359375
-514.5196533203125 -27.8943386077880859 624.33782958984375
248.355789184570312 -377.3585205078125 434.043701171875
-893.04437255859375 498.04998779296875 545.17572021484375
836.2691650390625 -34.5758590698242188 -68.7119979858398438
-673.73095703125 -199.877334594726562 -773.58544921875
-101.558601379394531 -48.7611198425292969 -242.217178344726562
-608.27972412109375 -41.1849288940429688 641.83642578125
-967.50897216796875 258.215667724609375 460.500640869140625
1144.21728515625 -194.036483764648438 767.66949462890625
220.871612548828125 -53.4948654174804688 -134.080718994140625
-126.359764099121094 -44.9605560302734375 -342.819610595703125
-963.90277099609375 245.88580322265625 446.87823486328125
-418.2188720703125 -55.38714599609375 16.2015323638916016
-869.88568115234375 138.901123046875 -407.83392333984375
1134.7454833984375 -93.525238037109375 -418.887725830078125
-288.895355224609375 -35.8480072021484375 468.630218505859375
-906.2886962890625 438.6409912109375 -741.36956787109375
399.210357666015625 -46.55078125 752.4144287109375
1130.98779296875 -231.6492919921875 -93.9496994018554688
403.634124755859375 -52.3883743286132812 462.873443603515625
1011.466064453125 -381.80401611328125 402.87774658203125
970.90386962890625 -382.493865966796875 609.74969482421875
55.3223686218261719 -236.995758056640625 771.394775390625
806.3875732421875 -35.1561508178710938 -286.84283447265625
572.00042724609375 -377.8203125 -659.46649169921875
-888.45709228515625 479.172607421875 -451.4482421875
-416.404388427734375 -378.2431640625 -504.699951171875
-408.5443115234375 -57.0173988342285156 341.78680419921875
271.427734375 -377.209869384765625 161.945648193359375
580.80804443359375 -377.03387451171875 -394.098480224609375
284.441802978515625 -168.243515014648438 771.94451904296875
-905.56787109375 -11.2235422134399414 432.5433349609375
-825.358642578125 -36.8951339721679688 582.71807861328125
-966.5433349609375 593.325439453125 -553.1689453125
884.8997802734375 -382.099700927734375 613.45660400390625
822.0865478515625 -379.164581298828125 -74.1561508178710938
-868.869873046875 92.15399169921875 -63.5521240234375
653.46148681640625 -377.659912109375 -293.798309326171875
-883.02435302734375 378.588897705078125 640.78558349609375
-901.8104248046875 573.065185546875 274.711944580078125
-690.56365966796875 -36.4529228210449219 670.712890625
-958.85162353515625 530.67095947265625 776.328857421875
281.4637451171875 -221.851181030273438 -780.66241455078125
1112.573974609375 -257.06085205078125 -312.383544921875
858.23345947265625 -381.273651123046875 420.0166015625
-887.68438720703125 139.340927124023438 742.1015625
1175.2537841796875 -373.170318603515625 733.748291015625
730.25762939453125 -29.0501632690429688 -495.920562744140625
1025.243896484375 -376.655364990234375 -753.17919921875
-79.0886611938476562 -74.8541488647460938 -776.38983154296875
272.63043212890625 -56.6577415466308594 -76.4288177490234375
-814.59033203125 -47.2110748291015625 88.1301803588867188
318.254638671875 -377.95562744140625 -658.4046630859375
-923.337646484375 -187.000167846679688 744.82354736328125
-941.28936767578125 85.692962646484375 776.607177734375
-364.936065673828125 -56.0622596740722656 -39.9239654541015625
-870.18145751953125 -0.658432304859161377 -243.807205200195312
-888.33087158203125 485.324493408203125 -194.476394653320312
494.6968994140625 -49.5541496276855469 510.8043212890625
889.44561767578125 -25.6929492950439453 -723.01434326171875
827.04449462890625 -24.5914077758789062 -666.434326171875
62.2519607543945312 -377.1297607421875 354.382965087890625
-346.71246337890625 -55.4060211181640625 418.543975830078125
686.4522705078125 -377.61444091796875 -552.420654296875
-870.9644775390625 139.617431640625 574.59002685546875
-846.64605712890625 -39.7596473693847656 564.56805419921875
-695.1954345703125 -50.01922607421875 1.99760329723358154
380.0194091796875 -49.7553482055664062 510.266571044921875
252.207244873046875 -53.7944869995117188 -136.59112548828125
-720.2164306640625 -195.217971801757812 -53.9191627502441406
-889.8817138671875 364.406982421875 -711.01678466796875
-887.92132568359375 343.093292236328125 -704.09954833984375
406.968719482421875 -40.323486328125 169.461639404296875
-643.66241455078125 -31.8268032073974609 -694.7806396484375
-216.656829833984375 -376.14691162109375 580.9359130859375
34.3686408996582031 -53.500457763671875 -251.347427368164062
1071.3153076171875 -27.2782268524169922 105.712944030761719
-912.5040283203125 412.424652099609375 -717.1700439453125
883.84326171875 -20.6499385833740234 -676.08648681640625
-970.99786376953125 638.4210205078125 -134.50860595703125
49.1395034790039062 -55.2894477844238281 -134.793533325195312
1026.6884765625 -262.853302001953125 -796.45550537109375
-597.3116455078125 -54.9106788635253906 -107.452713012695312
65.5008392333984375 -376.117767333984375 73.1118011474609375
372.377044677734375 -378.1429443359375 -737.58355712890625
-629.69879150390625 -239.485137939453125 767.99365234375
-43.7587738037109375 -55.9096145629882812 -38.2603225708007812
580.089599609375 -34.8630867004394531 -385.760284423828125
54.3881568908691406 -377.898681640625 574.86492919921875
949.0380859375 -31.3571243286132812 555.0435791015625
793.956298828125 -377.74847412109375 -535.7685546875
-592.91900634765625 -359.26641845703125 -773.364501953125
-378.298095703125 -57.7807731628417969 361.483673095703125
465.474517822265625 -40.6821784973144531 -531.67071533203125
-875.03277587890625 -24.4489021301269531 -534.36004638671875
780.68804931640625 -25.0537948608398438 -587.95574951171875
-788.18609619140625 -99.811614990234375 -771.323974609375
-894.9654541015625 528.1395263671875 -88.4335098266601562
-983.89093017578125 426.762054443359375 -766.77227783203125
-240.790695190429688 -377.93951416015625 -478.254425048828125
-248.184417724609375 -375.3177490234375 331.255157470703125
-871.0125732421875 148.559097290039062 -596.7823486328125
-971.913330078125 647.66583251953125 152.495773315429688
-277.406524658203125 -376.327972412109375 -48.5627288818359375
-864.41156005859375 -52.0185203552246094 -73.8011474609375
-707.940185546875 -251.667221069335938 -62.1654052734375
114.706207275390625 -51.9948959350585938 91.9506378173828125
-97.6442413330078125 -371.526885986328125 -784.02154541015625
-995.86126708984375 254.308258056640625 723.8812255859375
-981.5244140625 668.9058837890625 -620.7958984375
-38.8730201721191406 -377.86639404296875 -519.5048828125
-869.85528564453125 -64.5902481079101562 746.0855712890625
950.16668701171875 -25.0934562683105469 -66.213531494140625
-895.0155029296875 452.06719970703125 -356.905120849609375
-951.35595703125 105.747451782226562 500.755462646484375
-555.65362548828125 -327.82061767578125 -614.719482421875
969.8074951171875 -14.1636428833007812 -422.426361083984375
1134.41943359375 -126.666709899902344 357.45184326171875
-974.71832275390625 125.803596496582031 -770.462890625
321.44647216796875 -283.338470458984375 -793.1781005859375
1116.703857421875 -358.7435302734375 127.781448364257812
-524.83087158203125 -373.990692138671875 274.29107666015625
-880.680419921875 345.761962890625 -436.283935546875
-613.02008056640625 -68.0239791870117188 -772.79949951171875
-6.1201481819152832 -45.2391510009765625 389.592071533203125
-969.50830078125 368.51171875 -764.34130859375
-874.1124267578125 223.932510375976562 -623.51263427734375
712.05242919921875 -368.2908935546875 747.92645263671875
-0.0747513324022293091 -376.18572998046875 -83.5449981689453125
-168.38568115234375 -378.92230224609375 -773.79840087890625
219.725753784179688 -376.870330810546875 118.637374877929688
-337.201934814453125 -375.226104736328125 700.66162109375
646.85528564453125 -378.10711669921875 -177.773727416992188
-912.27288818359375 -51.1432838439941406 -733.4437255859375
697.04290771484375 -45.8993339538574219 251.701126098632812
983.917724609375 -28.9788169860839844 230.331924438476562
834.60540771484375 -37.2358322143554688 721.87615966796875
-666.47119140625 -47.8813362121582031 427.385955810546875
-982.11016845703125 365.668121337890625 542.722412109375
178.487655639648438 -43.4534950256347656 286.455535888671875
-886.2293701171875 425.5521240234375 -35.1692123413085938
-856.63543701171875 -29.2853565216064453 -483.184783935546875
-249.916046142578125 -52.5235519409179688 502.487884521484375
157.219253540039062 -377.52215576171875 487.6905517578125
755.90789794921875 -379.985076904296875 203.686294555664062
-423.975616455078125 -43.7993583679199219 -518.84161376953125
-950.0645751953125 136.630050659179688 475.66607666015625
224.837814331054688 -54.3613090515136719 -90.9068756103515625
-492.39599609375 -351.141510009765625 -742.169677734375
-995.92242431640625 350.6234130859375 696.3359375
-280.774688720703125 -377.231597900390625 -282.409088134765625
126.015266418457031 -44.8388748168945312 -484.9879150390625
-891.2215576171875 507.5015869140625 -624.73748779296875
-154.83062744140625 -56.1184310913085938 5.72397708892822266
-869.45684814453125 -16.1505374908447266 81.4164505004882812
-641.2667236328125 -371.248565673828125 650.67877197265625
-905.3856201171875 442.621002197265625 -526.85614013671875
445.985198974609375 -378.955718994140625 453.449859619140625
646.006591796875 -166.589324951171875 764.245849609375
-910.29193115234375 521.94287109375 737.0328369140625
993.17388916015625 -19.9290866851806641 -565.71661376953125
829.0238037109375 -380.94122314453125 368.76409912109375
547.92352294921875 -50.0454864501953125 441.95989990234375
-881.11627197265625 345.89886474609375 435.639068603515625
690.64117431640625 -45.2238922119140625 489.675628662109375
977.80133056640625 -382.80047607421875 686.83984375
135.87457275390625 -45.8633193969726562 486.41363525390625
-104.785812377929688 -224.609603881835938 -780.94140625
-496.052001953125 -373.97259521484375 685.12176513671875
-869.88958740234375 59.9079742431640625 499.937835693359375
-354.750762939453125 -378.70196533203125 -642.26776123046875
-873.13958740234375 223.821456909179688 84.6992340087890625
731.5216064453125 -40.6397361755371094 574.57720947265625
-936.356689453125 141.195816040039062 428.418121337890625
734.63458251953125 -37.1362648010253906 716.3857421875
296.608489990234375 -260.052764892578125 760.64495849609375
904.1356201171875 -382.38885498046875 668.7474365234375
-846.10845947265625 -33.1490325927734375 611.99530029296875
-982.67376708984375 522.1668701171875 408.202606201171875
-889.27880859375 485.10064697265625 -482.6173095703125
404.021453857421875 -42.1646308898925781 178.195053100585938
-594.20062255859375 -359.773406982421875 -382.2491455078125
810.97088623046875 -27.7951030731201172 -536.84515380859375
1089.533203125 -25.3928813934326172 -25.1194992065429688
1133.7144775390625 -202.367721557617188 153.30029296875
-597.85076904296875 -370.380584716796875 692.4393310546875
-873.61199951171875 210.20111083984375 677.9193115234375
744.6563720703125 -380.488739013671875 379.058258056640625
939.7640380859375 -35.21978759765625 263.00970458984375
-877.63360595703125 294.10986328125 -379.907958984375
456.4525146484375 -378.64703369140625 362.544158935546875
-254.674652099609375 -376.673980712890625 -145.10150146484375
-842.368896484375 -123.241744995117188 758.76531982421875
-870.4796142578125 108.610122680664062 370.948638916015625
-557.67431640625 -377.13916015625 -175.815948486328125
640.6983642578125 -379.04364013671875 104.042404174804688
630.87957763671875 -381.067291259765625 664.967041015625
-665.076904296875 -36.4067192077636719 659.67779541015625
-421.107330322265625 -55.5455741882324219 -207.384811401367188
-886.041748046875 424.463623046875 187.201995849609375
-1002.5858154296875 147.988372802734375 763.301025390625
148.080032348632812 -52.1423873901367188 -205.415878295898438
991.24151611328125 -26.2333641052246094 464.413055419921875
893.32568359375 -31.30224609375 313.924285888671875
-15.8938360214233398 -40.7706069946289062 325.409698486328125
-327.97711181640625 -44.0952301025390625 673.8348388671875
200.967453002929688 -377.259552001953125 -433.5830078125
-722.62847900390625 -319.015228271484375 -777.53936767578125
1138.3984375 -48.4691505432128906 -575.61474609375
-532.08343505859375 -88.1264190673828125 773.10223388671875
-224.273834228515625 -376.91009521484375 -215.530059814453125
1099.69580078125 -35.9713668823242188 486.95263671875
-411.16888427734375 -377.58416748046875 -335.118743896484375
-955.29351806640625 610.6368408203125 -47.0929641723632812
-909.618408203125 624.51617431640625 -342.76611328125
55.6004409790039062 -377.521881103515625 -458.2379150390625
539.45904541015625 -379.461761474609375 430.195068359375
1116.93359375 -253.855087280273438 -282.33966064453125
1031.7032470703125 -379.29736328125 -107.637290954589844
-131.4765625 -378.71600341796875 -712.54473876953125
215.9388427734375 -47.0064201354980469 592.7586669921875
895.5736083984375 -23.37921142578125 -553.4847412109375
-272.64129638671875 -54.8502120971679688 134.349807739257812
-629.05206298828125 -243.776123046875 765.85394287109375
-645.50103759765625 -165.944168090820312 -747.09246826171875
-785.6361083984375 -43.5840682983398438 340.8717041015625
-235.89501953125 -374.8238525390625 702.362548828125
-883.70733642578125 397.53704833984375 -131.92474365234375
-256.933563232421875 -375.6016845703125 481.36785888671875
-568.52783203125 -53.5959968566894531 46.1817169189453125
379.5550537109375 -35.6378173828125 -680.284423828125
-247.600982666015625 -377.979736328125 -486.667022705078125
-894.42926025390625 535.9730224609375 -250.082977294921875
-961.82843017578125 -21.6505870819091797 622.8154296875
-886.2314453125 430.20379638671875 469.806427001953125
-890.1427001953125 -34.178375244140625 -655.06121826171875
472.582000732421875 -376.700775146484375 -772.31072998046875
-900.0103759765625 562.86846923828125 -70.7677230834960938
-888.6075439453125 460.022857666015625 558.2257080078125
1098.128173828125 -35.7811241149902344 566.416259765625
878.45220947265625 -39.2384757995605469 335.6473388671875
261.31036376953125 -52.761749267578125 280.983184814453125
-338.74383544921875 -375.191192626953125 705.90325927734375
-891.78375244140625 340.58184814453125 732.0306396484375
124.307426452636719 -53.6827239990234375 487.37347412109375
-957.43487548828125 229.034225463867188 436.807403564453125
422.382080078125 -51.3869514465332031 356.9107666015625
-419.28802490234375 -36.5121269226074219 -643.2130126953125
571.906982421875 -378.0509033203125 -90.8529739379882812
-944.0509033203125 666.59228515625 -245.0272216796875
-872.08349609375 51.9043159484863281 -629.758056640625
-683.00927734375 -53.2144432067871094 -90.3191986083984375
-868.9609375 34.3638229370117188 134.610015869140625
-150.932037353515625 -378.045379638671875 -532.56195068359375
420.6533203125 -82.6422882080078125 772.1978759765625
226.638626098632812 -43.3263664245605469 729.0467529296875
251.385330200195312 -39.08538818359375 -630.147216796875
-915.54248046875 516.39141845703125 -72.3379364013671875
1082.78857421875 -370.994293212890625 33.7201271057128906
82.3846664428710938 -376.2764892578125 119.940742492675781
-79.3115158081054688 -48.8316497802734375 471.654327392578125
442.592193603515625 -50.1884613037109375 202.328369140625
31.5078277587890625 -50.8899116516113281 -383.985626220703125
-731.75714111328125 -375.183258056640625 326.24822998046875
258.1710205078125 -50.1581077575683594 500.094940185546875
-100.719032287597656 -54.3248023986816406 -123.249542236328125
-641.0704345703125 -207.035293579101562 -630.76513671875
1128.0074462890625 -300.37890625 670.47369384765625
-565.5020751953125 -49.3787803649902344 -424.04083251953125
1117.8497314453125 -284.561798095703125 437.66192626953125
452.777069091796875 -377.8233642578125 32.2877655029296875
690.96136474609375 -377.863739013671875 -277.134613037109375
-688.978271484375 -131.95013427734375 788.0489501953125
-927.98858642578125 -90.0848236083984375 558.2069091796875
-376.704071044921875 -378.221435546875 -510.910888671875
1133.869384765625 -196.574188232421875 -605.46392822265625
-905.16192626953125 303.70220947265625 -711.0772705078125
-869.070068359375 76.9250640869140625 -346.22705078125
1054.4173583984375 -377.3758544921875 31.2455577850341797
-307.3798828125 -49.0639762878417969 512.13592529296875
-194.268096923828125 -376.08404541015625 -9.90342521667480469
1127.797119140625 -243.828781127929688 473.855010986328125
-629.37628173828125 -203.137802124023438 782.87054443359375
105.785469055175781 -376.286590576171875 102.848762512207031
1114.04150390625 -285.689666748046875 -489.92822265625
424.632293701171875 -378.13641357421875 -779.01318359375
850.5848388671875 -380.324676513671875 185.781784057617188
-606.06866455078125 -39.3746528625488281 678.31591796875
455.66571044921875 -198.439163208007812 -782.8328857421875
143.78973388671875 -377.24102783203125 397.6119384765625
485.467926025390625 -376.82269287109375 -403.667205810546875
778.24456787109375 -378.474700927734375 -204.732086181640625
-375.09356689453125 -375.272064208984375 634.3043212890625
-939.3629150390625 143.187713623046875 436.751373291015625
-303.31195068359375 -46.2268447875976562 615.5626220703125
-145.653152465820312 -378.52130126953125 -657.7435302734375
-966.13897705078125 672.60955810546875 -378.236419677734375
1078.00439453125 -373.98406982421875 -326.1265869140625
542.53765869140625 -39.7722129821777344 666.27667236328125
680.81103515625 -326.928741455078125 752.09613037109375
-529.35137939453125 -372.270172119140625 678.52154541015625
-445.35955810546875 -111.558006286621094 -770.7628173828125
-883.12017822265625 -306.063079833984375 560.0560302734375
732.42401123046875 -28.408233642578125 -504.50665283203125
-539.5196533203125 -43.6169281005859375 -481.760101318359375
948.71917724609375 -378.5919189453125 -328.2362060546875
-736.49810791015625 -55.3888473510742188 769.0709228515625
74.5279541015625 -377.562408447265625 476.728729248046875
-188.39654541015625 -53.0564308166503906 -209.889389038085938
-6.43723011016845703 -55.3874435424804688 -772.4384765625
728.70684814453125 -42.7463836669921875 -74.3308334350585938
-196.277023315429688 -43.9729690551757812 624.58184814453125
550.934814453125 -50.7842750549316406 305.41680908203125
264.0687255859375 -377.067138671875 -402.3681640625
-342.621673583984375 -376.48828125 -70.9539947509765625
-340.96221923828125 -48.3103828430175781 -416.62005615234375
278.168914794921875 -45.6593666076660156 658.7152099609375
-361.02825927734375 -37.3250198364257812 655.5802001953125
-339.814056396484375 -35.8089332580566406 -710.36676025390625
-362.468994140625 -374.587646484375 292.245330810546875
-585.75006103515625 -376.7470703125 -65.598846435546875
806.6807861328125 -24.7324810028076172 -677.9014892578125
-529.066162109375 -53.0009536743164062 148.877532958984375
-708.9534912109375 -259.0126953125 -53.2162513732910156
662.87176513671875 -378.0631103515625 -730.7720947265625
748.69287109375 -74.8614044189453125 762.07562255859375
-984.46856689453125 -272.989837646484375 772.5662841796875
578.4603271484375 -43.6459693908691406 447.31463623046875
-729.617431640625 -47.2759208679199219 487.699737548828125
908.40618896484375 -30.00494384765625 -193.931503295898438
-872.146728515625 2.22264981269836426 665.2335205078125
487.45709228515625 -45.6137199401855469 -250.577865600585938
-870.53851318359375 -47.9206619262695312 -743.5340576171875
-618.35174560546875 -139.294647216796875 778.93072509765625
310.36669921875 -377.0638427734375 -223.707351684570312
155.193679809570312 -377.6651611328125 529.65069580078125
-756.3955078125 -375.002166748046875 389.582305908203125
802.63153076171875 -38.9481544494628906 511.446136474609375
1131.083251953125 -185.81207275390625 -89.5417709350585938
1087.4949951171875 -83.79095458984375 761.1900634765625
-582.3302001953125 -300.81011962890625 -773.4906005859375
899.12286376953125 -373.80303955078125 742.46258544921875
506.402099609375 -35.3041801452636719 -639.06005859375
1142.77294921875 -131.809967041015625 -235.584152221679688
-877.70306396484375 263.2952880859375 -629.96722412109375
-414.433868408203125 -374.12841796875 317.0775146484375
-698.403076171875 -209.218185424804688 775.75457763671875
-671.88287353515625 -375.693084716796875 193.716400146484375
-29.4359340667724609 -377.632232666015625 624.82763671875
-513.788818359375 -377.583343505859375 -304.2733154296875
999.98040771484375 -18.4703254699707031 -649.3048095703125
1114.6248779296875 -39.3442535400390625 487.732177734375
667.78851318359375 -44.5796890258789062 513.24945068359375
999.6712646484375 -379.016754150390625 -264.95660400390625
-911.5113525390625 628.03741455078125 105.701988220214844
1116.85009765625 -355.45111083984375 602.55291748046875
-586.46453857421875 -50.0942726135253906 464.783172607421875
-678.51580810546875 -85.4557418823242188 767.75439453125
-98.1546096801757812 -378.511077880859375 -669.26312255859375
-946.6156005859375 -185.179031372070312 -767.73907470703125
1075.65283203125 -34.9489364624023438 672.17327880859375
-215.139251708984375 -82.2747268676757812 -771.74298095703125
-869.65576171875 32.3080863952636719 648.839599609375
526.56439208984375 -53.792572021484375 437.74969482421875
-870.61712646484375 107.343986511230469 597.76708984375
-166.106613159179688 -376.148284912109375 251.962478637695312
1103.33935546875 -359.324615478515625 738.7554931640625
259.85394287109375 -36.6094589233398438 86.3157501220703125
-250.061325073242188 -376.50164794921875 -101.8232421875
671.22308349609375 -337.017486572265625 751.8970947265625
786.10736083984375 -23.6757717132568359 -669.0335693359375
1125.957275390625 -186.164352416992188 -261.554229736328125
652.96844482421875 -303.886627197265625 -797.3408203125
197.895034790039062 -378.1297607421875 668.82928466796875
-878.326904296875 304.592498779296875 233.036361694335938
-879.6590576171875 322.904266357421875 370.229217529296875
-410.724029541015625 -375.44879150390625 706.87493896484375
248.827804565429688 -377.040863037109375 132.504608154296875
-550.0577392578125 -49.8744773864746094 -347.56353759765625
-654.6729736328125 -373.459747314453125 -136.733306884765625
-10.2776050567626953 -52.89581298828125 764.3299560546875
1131.056640625 -225.186416625976562 41.6056404113769531
288.298583984375 -377.851318359375 602.791748046875
-508.6173095703125 -41.9549560546875 714.158935546875
-863.58660888671875 -317.560516357421875 771.7139892578125
-183.96234130859375 -320.12335205078125 -786.56640625
-222.990982055664062 -33.0639724731445312 437.550933837890625
-918.48077392578125 -367.28509521484375 715.3577880859375
1053.0084228515625 -100.570930480957031 769.10009765625
617.00811767578125 -378.09332275390625 -756.50189208984375
-876.408447265625 275.4730224609375 553.9366455078125
-908.61798095703125 220.057586669921875 285.624725341796875
633.53704833984375 -44.24224853515625 442.6319580078125
689.22711181640625 -381.062469482421875 592.38812255859375
-643.66143798828125 -52.8273162841796875 -143.479385375976562
-964.89129638671875 593.1370849609375 -507.1312255859375
-397.318572998046875 -56.8590202331542969 -48.6301422119140625
-441.381378173828125 -54.9824485778808594 -267.0841064453125
493.00390625 -366.705169677734375 -792.6422119140625
-899.489501953125 177.764251708984375 -719.73236083984375
-502.59088134765625 -376.386962890625 -1.35187661647796631
-860.51483154296875 -35.2941703796386719 -558.0469970703125
591.01654052734375 -41.8790168762207031 195.466934204101562
-598.05413818359375 -376.678070068359375 -44.0036239624023438
-518.31622314453125 -47.6333160400390625 210.016143798828125
-515.04364013671875 -34.6935005187988281 513.77392578125
