ply
format ascii 1.0
element vertex 785
comment vertices
property float x
property float y
property float z
end_header
2.44401216506958008 -16.3994045257568359 69.6307601928710938
-8.60361576080322266 56.4295310974121094 1.95324409008026123
-9.13369655609130859 -15.5923900604248047 -13.7723827362060547
2.86608099937438965 9.28030490875244141 -71.3617095947265625
8.8665924072265625 -73.953338623046875 -26.1285076141357422
10.3617162704467773 59.1683425903320312 -51.7392578125
-7.254913330078125 -93.6125106811523438 -57.1745414733886719
9.621917724609375 -16.2313270568847656 -17.6888599395751953
-8.94256210327148438 85.3554458618164062 -30.6943740844726562
8.31928539276123047 47.8742485046386719 -69.9603729248046875
-6.64044427871704102 -77.6032791137695312 32.0650978088378906
7.2146763801574707 26.6920375823974609 -70.826873779296875
9.48601818084716797 -51.7622299194335938 -21.5174236297607422
7.13861751556396484 100.204093933105469 -50.7840919494628906
8.41262149810791016 -76.7019882202148438 -55.6856002807617188
9.98095321655273438 -29.7641582489013672 -23.7373504638671875
-5.36871099472045898 54.0384407043457031 57.8190994262695312
-8.49068832397460938 -49.6696090698242188 -48.3307991027832031
9.68360614776611328 74.6064682006835938 -39.8951797485351562
7.33087968826293945 97.9924087524414062 1.3952181339263916
9.40723609924316406 77.3350906372070312 -30.1350288391113281
-7.93257665634155273 -36.894927978515625 15.8337345123291016
-9.04362678527832031 77.6990737915039062 -34.9072227478027344
1.36496829986572266 20.4913787841796875 -71.3048171997070312
3.53543782234191895 38.4136772155761719 67.83184814453125
6.4132990837097168 83.2789077758789062 38.0669097900390625
9.86816692352294922 21.2574405670166016 -55.9361991882324219
8.79316902160644531 -18.6863574981689453 -67.2314071655273438
-9.5780792236328125 44.5884857177734375 -26.9004898071289062
-6.46510934829711914 -99.5435943603515625 28.0610542297363281
-8.50521659851074219 -42.3719062805175781 -61.5930557250976562
-6.15056562423706055 -61.2659759521484375 45.3083419799804688
-7.11620426177978516 -21.8756504058837891 30.4440822601318359
-7.95807790756225586 -49.4190216064453125 11.6305112838745117
-5.72838592529296875 28.62933349609375 51.7427978515625
-9.67896175384521484 27.0239963531494141 -31.4085922241210938
10.1434640884399414 14.7021055221557617 -53.5680503845214844
8.64031505584716797 -73.6994171142578125 51.1338119506835938
-9.29154872894287109 7.0397343635559082 -54.7970771789550781
-4.9339909553527832 2.42239522933959961 61.4570846557617188
-6.12611818313598633 -104.290985107421875 -67.349029541015625
-8.74892711639404297 96.2192840576171875 -25.2111854553222656
-9.20307731628417969 -14.1865711212158203 -50.5150375366210938
-2.06130504608154297 -95.5868377685546875 -72.6198272705078125
-9.36177253723144531 29.1349086761474609 -55.9324760437011719
-7.99549674987792969 -66.0081634521484375 -41.8070869445800781
-9.11859035491943359 -6.34674263000488281 -10.5932836532592773
-5.65232038497924805 -107.487503051757812 -53.8509407043457031
-5.63992929458618164 92.9588699340820312 58.7171554565429688
-9.5237579345703125 27.3509922027587891 -46.4963951110839844
9.34227657318115234 -19.8080062866210938 -7.65225410461425781
9.56314754486083984 -4.31867694854736328 -11.2603139877319336
-8.14557075500488281 18.5869770050048828 14.6032800674438477
9.06441402435302734 84.649383544921875 -53.0124931335449219
5.29939794540405273 -103.182762145996094 38.1248092651367188
8.92934036254882812 -69.8296966552734375 -28.8318080902099609
-8.15970611572265625 -52.8187789916992188 -71.1885757446289062
-9.28517723083496094 65.5830154418945312 -15.9881248474121094
9.74013519287109375 -34.3438186645507812 -31.47637939453125
-5.54689311981201172 63.4623336791992188 54.6692962646484375
-7.01731252670288086 -57.08514404296875 31.3057117462158203
-0.237899646162986755 21.8658447265625 -71.403350830078125
-9.21347999572753906 -11.8985147476196289 -51.2874488830566406
6.66620397567749023 16.7137737274169922 54.6547050476074219
8.37586307525634766 -22.7211017608642578 26.7278003692626953
4.9078526496887207 -103.943511962890625 16.7330780029296875
8.79302883148193359 88.0883712768554688 -44.7922821044921875
8.56461048126220703 -77.8612518310546875 -40.7458572387695312
9.07014560699462891 -78.391876220703125 -9.99899864196777344
1.39782023429870605 65.8670806884765625 -70.6022872924804688
2.72217226028442383 102.36279296875 -30.6734600067138672
9.28861045837402344 -67.6927490234375 -11.3803567886352539
-8.28985500335693359 -56.9414787292480469 -45.6634941101074219
9.240814208984375 -85.848663330078125 8.44519138336181641
5.48044681549072266 3.45037627220153809 -71.2196273803710938
7.49539613723754883 32.0284156799316406 39.6745147705078125
7.34304141998291016 -2.66728544235229492 49.3439292907714844
8.96834278106689453 -20.7509899139404297 5.68491411209106445
-8.68377685546875 -32.5077095031738281 -61.8902969360351562
-7.96520519256591797 -65.1534347534179688 0.182214438915252686
-8.88718605041503906 77.1398696899414062 -44.2393989562988281
9.17281913757324219 -1.46758866310119629 2.84940886497497559
9.01231861114501953 -79.102081298828125 -12.2023029327392578
-9.21753215789794922 48.0637359619140625 -52.6007003784179688
8.81054019927978516 69.7918472290039062 3.41760373115539551
-7.69161891937255859 -73.1487655639648438 -53.0340232849121094
-7.49900293350219727 -87.8809356689453125 -14.2801103591918945
-7.00579357147216797 -99.8361968994140625 -2.22646307945251465
10.3225917816162109 58.8375015258789062 -36.499664306640625
-8.75385093688964844 89.4550399780273438 -14.6806764602661133
-8.11513519287109375 74.6608123779296875 3.83026337623596191
-5.75449705123901367 32.4656562805175781 -71.6666336059570312
-9.16883087158203125 -25.2699184417724609 -34.469879150390625
9.68798828125 -38.8376388549804688 -28.4553146362304688
10.5374298095703125 25.7580738067626953 -49.4631195068359375
-5.48975038528442383 93.6009979248046875 -70.8040771484375
3.72137117385864258 -55.4608955383300781 69.90301513671875
-1.87625777721405029 102.091934204101562 -20.9165897369384766
9.55713272094726562 -33.0748786926269531 -6.82361173629760742
-4.66622591018676758 101.887771606445312 59.792877197265625
7.24895954132080078 79.373382568359375 27.320953369140625
-8.18498802185058594 -60.5736770629882812 -5.20187711715698242
-8.74987888336181641 72.833404541015625 -61.5011024475097656
-9.260223388671875 70.1575164794921875 -30.4584445953369141
9.83638286590576172 12.5876197814941406 -56.5493927001953125
3.37003040313720703 -103.619773864746094 41.6657333374023438
8.57050228118896484 71.7817916870117188 -68.5088348388671875
8.89823246002197266 -87.5325546264648438 -8.52985763549804688
-1.89191544055938721 102.010673522949219 -62.9566574096679688
9.63963603973388672 -87.2635116577148438 39.5577888488769531
6.80998516082763672 16.9612293243408203 52.7193756103515625
-9.45927619934082031 -1.86880230903625488 -44.6386642456054688
-5.78824329376220703 94.9447708129882812 54.7749786376953125
-4.59684467315673828 102.088302612304688 -6.22990798950195312
-8.74802303314208984 98.3004684448242188 -38.4070663452148438
-6.22877883911132812 86.6766128540039062 34.0374603271484375
-7.07214117050170898 31.2048168182373047 31.1565113067626953
3.34946227073669434 88.85687255859375 65.0465240478515625
-0.286580979824066162 -105.031105041503906 32.0599861145019531
-7.48913145065307617 -82.9871597290039062 0.0163274724036455154
3.95552563667297363 -45.9048309326171875 -71.8327560424804688
-8.56358432769775391 61.1153564453125 1.37147343158721924
10.0361909866333008 -16.8732795715332031 -38.0205955505371094
-6.45492887496948242 61.0615921020507812 -71.1457672119140625
6.80731487274169922 7.71131801605224609 54.6423912048339844
6.57199478149414062 57.9030036926269531 45.9784622192382812
9.45294380187988281 -29.5456905364990234 -58.3519287109375
6.95100069046020508 -36.7201461791992188 64.2521820068359375
-7.50469350814819336 -80.638092041015625 -60.421905517578125
8.67717933654785156 28.7879810333251953 -66.9531478881835938
-8.55542659759521484 55.9299697875976562 2.87668728828430176
-1.42503130435943604 -107.666549682617188 -43.0186653137207031
-5.31641340255737305 59.6013908386230469 -71.1056365966796875
-0.200357541441917419 -78.9294281005859375 68.9736175537109375
-4.43381977081298828 -97.2454910278320312 61.3734397888183594
10.364436149597168 43.812408447265625 -21.7229385375976562
-6.65580368041992188 91.8619384765625 23.2882270812988281
4.65387582778930664 5.4957575798034668 67.8873672485351562
3.94057965278625488 88.2076950073242188 62.3900222778320312
-6.70015478134155273 -85.9043197631835938 28.7630634307861328
7.37385082244873047 -1.05468070507049561 47.1774063110351562
6.66571760177612305 -7.36522769927978516 59.6602134704589844
6.31136608123779297 100.660987854003906 -66.0194244384765625
9.61501502990722656 -39.2827949523925781 -32.5263214111328125
8.24461746215820312 -92.6461334228515625 62.5537643432617188
-7.69804096221923828 -59.5950546264648438 13.545741081237793
7.26849031448364258 -27.4938449859619141 56.8727378845214844
-6.67291069030761719 91.4196319580078125 -70.9253921508789062
9.18993663787841797 3.40647172927856445 -62.9903526306152344
-3.03164005279541016 102.0404052734375 -11.5816287994384766
-8.78052902221679688 67.7652816772460938 -68.705780029296875
-8.34825801849365234 2.17471909523010254 10.0333929061889648
9.21065807342529297 -18.8217315673828125 -3.55972075462341309
10.1285200119018555 59.9072456359863281 -28.7937088012695312
-6.33135128021240234 9.41873359680175781 43.5234222412109375
10.2410144805908203 39.1874923706054688 -17.119476318359375
7.99560642242431641 -62.2772598266601562 58.6757469177246094
8.67658233642578125 52.1174736022949219 12.9736824035644531
-8.60943508148193359 51.5834465026855469 2.65639615058898926
9.71445941925048828 -43.4609375 -19.7242202758789062
-1.11808478832244873 -17.2571220397949219 68.9901199340820312
-7.18473672866821289 -97.0908432006835938 -25.6857776641845703
-8.50021839141845703 -38.1920967102050781 0.342343330383300781
-0.373970359563827515 51.0353584289550781 -71.104248046875
9.03777599334716797 -40.8222122192382812 -64.347686767578125
8.79220390319824219 -101.590835571289062 21.3738193511962891
-6.29863786697387695 63.3297462463378906 34.9725914001464844
8.6280059814453125 -36.2306480407714844 -68.8886795043945312
5.45204019546508789 -89.0461807250976562 69.0239715576171875
-8.74771690368652344 -36.0274314880371094 -8.53645610809326172
0.740839540958404541 -107.595512390136719 -58.0953865051269531
-9.52376747131347656 45.3098411560058594 -37.3515777587890625
6.4905848503112793 -69.0057144165039062 68.62799072265625
9.35703468322753906 -87.1114273071289062 16.2384967803955078
-9.00359535217285156 -8.62035560607910156 -8.22180557250976562
10.5548877716064453 28.5694732666015625 -23.5659942626953125
8.67960739135742188 34.8906173706054688 17.5981769561767578
-7.65777158737182617 20.2912120819091797 22.5826301574707031
-9.08383750915527344 36.2002067565917969 -69.0700149536132812
-5.79820728302001953 -76.0667877197265625 48.557891845703125
7.8902888298034668 33.1103744506835938 33.2188911437988281
-4.11849784851074219 35.2219314575195312 66.4243392944335938
-9.46508407592773438 -6.83982038497924805 -30.3673572540283203
4.65373754501342773 63.6645088195800781 62.6444549560546875
8.82541179656982422 64.1360015869140625 6.41412639617919922
-7.25456380844116211 -92.6390609741210938 -45.4152069091796875
8.25011634826660156 -67.7019882202148438 55.3000907897949219
-6.87288284301757812 93.906005859375 19.2318458557128906
6.10874176025390625 93.4141921997070312 34.8992156982421875
-8.52631282806396484 -7.77035856246948242 4.1501917839050293
-4.67904138565063477 -102.291282653808594 60.3175888061523438
8.30866241455078125 -6.38829612731933594 26.9127311706542969
8.78067779541015625 -73.006317138671875 47.2147712707519531
10.2151346206665039 2.18892621994018555 -52.0305366516113281
9.51999187469482422 -29.9522132873535156 -8.09071159362792969
9.56601047515869141 72.2257537841796875 -24.9410190582275391
9.62831306457519531 -67.6417617797851562 7.43655538558959961
-8.96359920501708984 40.0299644470214844 -2.30721735954284668
-9.68451976776123047 39.6881866455078125 -23.7852592468261719
-8.58539009094238281 -2.31564855575561523 3.5748894214630127
-9.22877693176269531 97.8152999877929688 -69.97625732421875
-8.72594547271728516 -33.0083274841308594 -58.98785400390625
-8.93403148651123047 -25.2499675750732422 -9.55329036712646484
-5.31146526336669922 17.8404979705810547 57.170257568359375
8.42102622985839844 -70.815460205078125 54.7923088073730469
8.93682289123535156 -61.2659225463867188 -43.2016944885253906
9.04879665374755859 -61.0968017578125 -35.4980430603027344
9.92673587799072266 -58.0343971252441406 15.7826881408691406
-9.12133026123046875 -6.71141624450683594 -58.5412788391113281
9.30012702941894531 -80.0618896484375 4.89212989807128906
-6.64593982696533203 31.0347404479980469 37.5745162963867188
-4.49768257141113281 20.8417987823486328 -71.6902618408203125
7.00740575790405273 -48.8942794799804688 -71.6318206787109375
8.91899204254150391 -96.186309814453125 52.055145263671875
10.0729541778564453 -11.1592731475830078 -30.5773067474365234
3.79625415802001953 92.1433181762695312 62.3956222534179688
-6.48540782928466797 -60.8011970520019531 40.38623046875
3.72873497009277344 102.323158264160156 -27.250701904296875
-9.10873126983642578 52.7319068908691406 -6.7691035270690918
-7.1776585578918457 -99.9088516235351562 -20.7238502502441406
9.4785919189453125 -45.5383377075195312 -31.71173095703125
9.15203189849853516 58.1693840026855469 2.8038787841796875
7.88852167129516602 -10.5009298324584961 39.4695167541503906
8.73553085327148438 12.6488161087036133 17.9670238494873047
-7.47975921630859375 -14.7272129058837891 24.389190673828125
8.79541206359863281 -61.1416816711425781 -53.8802490234375
8.49411678314208984 -47.1393394470214844 41.2681999206542969
9.8548431396484375 57.8758544921875 -56.765411376953125
-5.1467432975769043 -103.229705810546875 -70.6889801025390625
-8.34267330169677734 44.58062744140625 8.38607978820800781
4.94982767105102539 76.4437026977539062 57.7266616821289062
8.11840057373046875 -82.8962936401367188 -69.462249755859375
7.73860549926757812 -57.8116340637207031 60.7963829040527344
-7.06082820892333984 93.055206298828125 15.5007495880126953
3.62525224685668945 36.5282974243164062 67.6685562133789062
-5.97901105880737305 101.939109802246094 -33.0407752990722656
-8.7310333251953125 -37.7563591003417969 -54.1603469848632812
-2.72524523735046387 102.546340942382812 54.6921653747558594
5.69042348861694336 64.2510910034179688 54.0121078491210938
-7.63817930221557617 -85.2032699584960938 -20.0537681579589844
8.67463588714599609 40.2573738098144531 17.1928539276123047
8.52282238006591797 -95.668365478515625 -16.0886020660400391
7.8475947380065918 -41.7620887756347656 52.6408309936523438
9.35975170135498047 -68.3471908569335938 -6.81480598449707031
-2.58566975593566895 -10.7535638809204102 68.0656509399414062
-8.45499801635742188 25.8268413543701172 8.15446758270263672
8.76918125152587891 -88.6402359008789062 -14.1312761306762695
7.85361528396606445 -98.6028594970703125 -60.5742874145507812
-6.38795566558837891 32.3928260803222656 41.4025764465332031
-8.78177356719970703 77.9870758056640625 -65.6374588012695312
-7.23269033432006836 -94.7415618896484375 -38.8907127380371094
10.9671974182128906 26.529327392578125 -36.310760498046875
6.62815284729003906 98.0617752075195312 22.0008106231689453
-9.26556396484375 50.5031089782714844 -47.8395729064941406
-8.15677833557128906 9.32804203033447266 15.0853118896484375
-9.07654571533203125 66.301513671875 -9.34236526489257812
-7.5215611457824707 -79.976776123046875 -61.6842079162597656
8.48856830596923828 -29.5459251403808594 -70.4702911376953125
-6.32581520080566406 0.93217623233795166 43.6245460510253906
8.93010139465332031 -35.8611640930175781 14.6838111877441406
-6.9635167121887207 -8.16700267791748047 33.4281463623046875
-8.08075809478759766 -26.5478439331054688 12.4753198623657227
9.10323143005371094 69.7341232299804688 -4.02434253692626953
-2.4383847713470459 102.220932006835938 22.706024169921875
10.4183626174926758 18.0963935852050781 -24.2449741363525391
7.00416374206542969 70.484405517578125 36.1460838317871094
8.80647182464599609 -11.6429719924926758 14.299407958984375
8.85465145111083984 -15.164149284362793 11.2110738754272461
-7.23359346389770508 -77.63714599609375 16.8204078674316406
-8.80184555053710938 85.8951034545898438 -62.9373855590820312
8.05137348175048828 25.8255443572998047 32.3468208312988281
-8.25171470642089844 -32.570465087890625 8.94876480102539062
-8.14661979675292969 -10.2350378036499023 11.8977851867675781
8.780029296875 -85.7423248291015625 -16.8118629455566406
-4.903045654296875 -84.7880935668945312 58.6949844360351562
-7.73919010162353516 -74.3567276000976562 -36.4944305419921875
-9.01201534271240234 77.5891647338867188 -13.2138872146606445
0.960144639015197754 31.8623847961425781 -71.2464675903320312
-7.87276887893676758 -73.5361251831054688 -30.8792533874511719
-8.08501148223876953 -69.7051315307617188 -13.5558071136474609
7.21905899047851562 66.5560531616210938 34.6606979370117188
8.43628501892089844 75.3662109375 8.88491439819335938
7.20443153381347656 42.0208473205566406 41.8197517395019531
8.16588783264160156 80.3127593994140625 7.55604791641235352
8.32063770294189453 -29.1935787200927734 29.9264907836914062
9.52267646789550781 72.2764053344726562 -22.6299343109130859
-9.549560546875 26.0836563110351562 -45.3087577819824219
-7.2912144660949707 -95.4813385009765625 -18.1389827728271484
-9.44383811950683594 60.541748046875 -25.1453380584716797
-8.17653083801269531 41.941375732421875 11.6172351837158203
-8.97659778594970703 -35.3474464416503906 -35.9150466918945312
-7.62773561477661133 -84.278167724609375 -14.7545042037963867
-8.17330360412597656 -52.2728347778320312 -71.112274169921875
8.49509620666503906 5.36276006698608398 21.7918014526367188
8.26577281951904297 -78.3895797729492188 -65.0091171264648438
-6.08022832870483398 61.7013282775878906 -71.094268798828125
8.34798622131347656 -76.2363357543945312 -62.3941802978515625
9.65906524658203125 -26.9534950256347656 -48.3001861572265625
-8.94197463989257812 84.5198211669921875 -32.6130142211914062
6.58498144149780273 63.2505302429199219 44.3051834106445312
-8.88176441192626953 61.3950729370117188 -4.43720436096191406
6.82728862762451172 11.1932802200317383 53.8242340087890625
5.48099040985107422 102.0360107421875 -1.43682730197906494
8.99479007720947266 -46.6837692260742188 -63.4798088073730469
-8.64370250701904297 90.83453369140625 -12.0501813888549805
-8.80082035064697266 -45.0953598022460938 -22.0906963348388672
-7.19733715057373047 -98.3573379516601562 -34.1788749694824219
-1.29292356967926025 -54.37457275390625 68.994903564453125
9.15353775024414062 -74.827362060546875 -9.82398319244384766
-3.12701654434204102 17.3079586029052734 67.7393798828125
7.33030033111572266 50.5170974731445312 -70.4209671020507812
-8.82936191558837891 79.7584152221679688 -43.0787887573242188
-6.17483615875244141 95.1218719482421875 40.9417991638183594
-5.87222909927368164 32.1271591186523438 -71.6765670776367188
10.2311992645263672 -3.76164674758911133 -31.5777359008789062
-9.14911651611328125 27.4813861846923828 -7.85763454437255859
9.00289535522460938 -66.7580413818359375 -28.9865703582763672
-8.29007434844970703 -62.6320075988769531 -28.7587966918945312
8.20567035675048828 15.6927433013916016 29.5454635620117188
-8.95307159423828125 23.7782154083251953 -2.94517946243286133
-7.58755731582641602 31.3565521240234375 22.8946304321289062
6.75442409515380859 13.7854280471801758 54.1664505004882812
-9.16343116760253906 -17.1008358001708984 -15.2259120941162109
-7.95818376541137695 -10.970393180847168 15.5341978073120117
9.54286861419677734 -86.3777236938476562 40.5884246826171875
-8.77028274536132812 79.4233016967773438 -62.1071434020996094
2.52349853515625 98.0429458618164062 -70.3135528564453125
9.86410045623779297 -62.2363471984863281 14.0330305099487305
10.7810373306274414 39.0905494689941406 -32.9756278991699219
-5.01923084259033203 -31.6769733428955078 58.6582183837890625
-9.39974880218505859 51.2738800048828125 -16.0087242126464844
8.50258350372314453 -23.809112548828125 -70.23455810546875
-9.61803817749023438 19.7219696044921875 -26.7447643280029297
2.80675888061523438 -103.34130859375 53.5464744567871094
-4.37399625778198242 102.02813720703125 -39.0462379455566406
7.2846522331237793 30.115692138671875 43.2997817993164062
10.7902050018310547 37.0112190246582031 -47.4274940490722656
-5.27466392517089844 36.1007232666015625 57.860260009765625
9.6060791015625 -83.9256744384765625 27.0726222991943359
3.6761324405670166 98.5421066284179688 61.7160377502441406
7.66719675064086914 -28.7664546966552734 49.1670494079589844
-2.04254984855651855 -105.124320983886719 41.0469131469726562
9.20745563507080078 -7.15927314758300781 -0.44911685585975647
9.33264541625976562 -55.4608268737792969 -25.3431930541992188
9.31433296203613281 -39.0632705688476562 6.7161402702331543
-9.25567436218261719 21.5667133331298828 -62.3475799560546875
-7.85923385620117188 -69.13043212890625 -41.0336036682128906
-8.73636627197265625 92.4374465942382812 -48.8657264709472656
5.25893068313598633 59.9730415344238281 -70.24249267578125
-7.5515141487121582 -80.0313720703125 -63.7255592346191406
-8.84019756317138672 28.5752277374267578 0.148164093494415283
9.96388530731201172 -18.8115768432617188 -40.1495285034179688
6.45528268814086914 -105.071311950683594 -36.9066810607910156
-5.36825084686279297 -103.71856689453125 53.0569114685058594
-7.1146998405456543 -102.611351013183594 -14.9629783630371094
-7.35042524337768555 -21.3959903717041016 26.1162261962890625
10.1269311904907227 5.61058664321899414 -54.030517578125
-6.9978938102722168 -85.5479049682617188 17.0881423950195312
7.12270355224609375 99.0442123413085938 7.40741825103759766
10.2471590042114258 40.7064132690429688 -52.6903419494628906
-7.00809860229492188 -105.333183288574219 -29.1108570098876953
-9.28187942504882812 20.4565906524658203 -11.1676540374755859
9.50621795654296875 -20.4552230834960938 -10.9058294296264648
6.97943210601806641 -15.8891277313232422 58.6354408264160156
10.7905254364013672 37.2301559448242188 -32.7631034851074219
-6.52841424942016602 101.800552368164062 -31.7725067138671875
3.16994571685791016 -104.708442687988281 9.63988590240478516
-2.35356640815734863 31.8747730255126953 68.4631729125976562
-9.65154647827148438 16.2067241668701172 -28.4498844146728516
10.6488637924194336 11.5596523284912109 -37.7594337463378906
8.64707088470458984 -72.3691253662109375 -44.8102684020996094
5.67399215698242188 80.6981658935546875 48.600799560546875
-5.89906215667724609 85.8043441772460938 43.9854545593261719
8.93760490417480469 -50.5024909973144531 -60.7582206726074219
10.8085880279541016 19.5356292724609375 -38.0737876892089844
-3.79542136192321777 7.34612178802490234 -71.8124618530273438
-7.98628664016723633 -72.9242019653320312 -18.9302005767822266
8.74608707427978516 58.7540206909179688 10.4413070678710938
9.71337413787841797 41.8977165222167969 -5.98398780822753906
-8.63434600830078125 99.3316802978515625 -25.4600963592529297
-5.2441554069519043 -36.1237983703613281 56.0936279296875
9.65817356109619141 -12.3867301940917969 -58.7000808715820312
8.20668315887451172 9.39214801788330078 28.8431339263916016
9.81978702545166016 -4.07180118560791016 -20.3141269683837891
9.93251132965087891 -47.7148361206054688 2.03979921340942383
9.30868625640869141 -60.2939529418945312 -19.8021183013916016
-9.22987174987792969 11.353550910949707 -58.8487052917480469
-1.99429678916931152 102.088394165039062 -14.4971237182617188
4.85111331939697266 94.7024765014648438 51.4835433959960938
9.88163471221923828 -4.81404685974121094 -22.1538639068603516
7.95389413833618164 -103.736549377441406 -24.4666213989257812
4.7142186164855957 -50.3097152709960938 69.2675247192382812
7.96342849731445312 83.396820068359375 9.68650913238525391
-2.94513463973999023 -92.8386077880859375 65.0723342895507812
-9.10454082489013672 33.0550346374511719 -68.395294189453125
-5.91125631332397461 -92.05029296875 46.143646240234375
6.76107215881347656 37.7643089294433594 48.5723686218261719
-7.444671630859375 -85.4877777099609375 -32.471710205078125
-7.42315006256103516 100.692756652832031 10.2924175262451172
8.321441650390625 87.219268798828125 -68.5932540893554688
8.49665641784667969 54.4276351928710938 18.0940418243408203
8.47685050964355469 -14.7192583084106445 24.4710884094238281
7.67833852767944336 55.5335311889648438 31.6015663146972656
8.44230079650878906 -87.6756591796875 -30.6650600433349609
-4.92197275161743164 -39.4294395446777344 59.1501731872558594
-7.68155288696289062 27.3260574340820312 21.7925052642822266
8.24580860137939453 -39.7011909484863281 41.2639961242675781
-1.77395641803741455 -46.1384010314941406 68.6260528564453125
9.11684989929199219 -54.4802513122558594 31.3212146759033203
4.11866903305053711 -78.7336654663085938 69.4796829223632812
8.89748668670654297 -66.2118301391601562 -37.38623046875
8.71749496459960938 -79.9254837036132812 -25.9174308776855469
10.5076837539672852 43.3772735595703125 -26.8241443634033203
-5.45291900634765625 83.1032485961914062 61.017364501953125
4.83231353759765625 -104.50518798828125 1.94590282440185547
8.94128704071044922 -100.561378479003906 23.8706207275390625
9.32830142974853516 -80.0129928588867188 6.41423749923706055
8.65517520904541016 1.65483200550079346 16.9799690246582031
7.35596036911010742 -2.85144329071044922 49.19390869140625
-9.16589546203613281 2.53052806854248047 -58.7214279174804688
4.49506711959838867 21.0089530944824219 67.31707763671875
9.42403793334960938 -13.108154296875 -9.05333805084228516
-7.71435356140136719 101.074638366699219 -45.9061088562011719
8.99359798431396484 -30.8213596343994141 10.6963367462158203
-8.83583641052246094 -40.8802413940429688 -42.7030754089355469
4.73104572296142578 -104.961074829101562 -18.5610809326171875
10.8700551986694336 21.4146919250488281 -37.1171989440917969
-8.13255691528320312 -47.64892578125 6.61822938919067383
8.29546546936035156 71.8183059692382812 13.9533348083496094
-8.70990943908691406 -16.8599300384521484 -1.91304981708526611
-5.67398834228515625 97.7057418823242188 61.7400741577148438
9.15683650970458984 74.3756790161132812 -10.9100942611694336
6.49028253555297852 98.4474868774414062 24.2050075531005859
-8.30688381195068359 -50.5296058654785156 -0.34317326545715332
-1.07899177074432373 20.4772357940673828 69.013427734375
7.0086970329284668 6.28047561645507812 52.2302703857421875
-8.54345035552978516 -52.8844566345214844 -37.18548583984375
8.58584690093994141 83.2049636840820312 -3.29593634605407715
-9.27929878234863281 53.1246757507324219 -44.2638969421386719
-7.07294702529907227 -43.3761749267578125 31.2454967498779297
6.94139719009399414 100.851936340332031 -40.3564605712890625
2.02454876899719238 -84.7615203857421875 -72.3458251953125
6.46543455123901367 56.8537025451660156 47.4894256591796875
-2.85473227500915527 101.979164123535156 -64.8373260498046875
9.85950851440429688 -29.4484825134277344 -30.6173419952392578
-5.99535655975341797 -60.5518531799316406 47.3323135375976562
0.596511483192443848 -106.086448669433594 -66.8955764770507812
-8.70996475219726562 85.260833740234375 -55.3663978576660156
-6.62594890594482422 -21.6919078826904297 38.2632713317871094
-8.0306854248046875 -70.8520050048828125 -12.2085151672363281
-6.12002897262573242 95.4556121826171875 43.244293212890625
-8.66762256622314453 99.665313720703125 -56.6748809814453125
7.15769052505493164 -20.7995643615722656 57.0768890380859375
8.63342094421386719 38.9739761352539062 18.9146575927734375
10.9116334915161133 23.0636806488037109 -36.4445686340332031
-9.58839893341064453 5.80797815322875977 -28.1121292114257812
-8.844818115234375 79.9525375366210938 -41.8654441833496094
10.3939609527587891 11.3799543380737305 -24.5616664886474609
-9.10605716705322266 62.2153511047363281 -45.4418449401855469
-5.26117849349975586 53.5702552795410156 60.749053955078125
1.45935380458831787 -101.104782104492188 68.7374725341796875
8.68349933624267578 -102.413803100585938 8.02297782897949219
-5.23715543746948242 52.4565391540527344 61.4012069702148438
7.70109033584594727 95.4291229248046875 -55.9680900573730469
-8.43649005889892578 81.8910064697265625 -3.87879776954650879
8.44225025177001953 -95.964263916015625 60.2065162658691406
4.3939361572265625 -71.766204833984375 -72.1202926635742188
1.85315871238708496 18.7602462768554688 69.2029647827148438
8.35211658477783203 -27.7032756805419922 28.2610034942626953
-4.58624696731567383 10.933253288269043 -71.8237152099609375
-9.28769874572753906 27.0033473968505859 -60.7975807189941406
6.77018928527832031 94.8303375244140625 22.2006664276123047
10.2174930572509766 4.35262918472290039 -53.1861953735351562
-9.19707298278808594 -20.5851383209228516 -40.0334243774414062
8.26400375366210938 24.5742721557617188 28.6183223724365234
-8.50608253479003906 -23.3554229736328125 2.53812432289123535
8.88129138946533203 -84.400787353515625 -12.956334114074707
-7.41859102249145508 -73.057373046875 13.6943445205688477
-6.7641148567199707 67.378875732421875 25.5891208648681641
-7.21894550323486328 -94.7361984252929688 -37.0792770385742188
10.1868820190429688 63.5374221801757812 -39.72869873046875
8.82624149322509766 -63.692901611328125 -46.8707771301269531
9.37706089019775391 -60.7818260192871094 -15.4113168716430664
-8.23845958709716797 -3.75773048400878906 11.140167236328125
6.15111732482910156 95.7863082885742188 31.76702880859375
5.16407966613769531 62.5238571166992188 59.0197563171386719
9.10273933410644531 -32.4078369140625 -64.2566146850585938
-9.10717105865478516 12.5463838577270508 -6.61573886871337891
-5.66216468811035156 87.8525314331054688 55.4511604309082031
6.73044061660766602 29.6685886383056641 50.7557525634765625
-6.50411558151245117 -47.1485404968261719 40.2245635986328125
8.00565433502197266 71.824249267578125 19.3804855346679688
-6.17593050003051758 -21.2703628540039062 44.6089973449707031
-9.07957363128662109 57.6517906188964844 -51.4837493896484375
7.79214620590209961 22.0472526550292969 37.4753608703613281
7.01137828826904297 97.0976791381835938 14.2153415679931641
10.486536979675293 34.3987007141113281 -22.9099063873291016
9.19871997833251953 -26.2973823547363281 -1.43793010711669922
10.5168743133544922 25.9557914733886719 -21.9629688262939453
7.83771991729736328 97.8531341552734375 -32.2829933166503906
8.16830825805664062 11.1599941253662109 30.029327392578125
9.12982463836669922 -4.83968925476074219 3.47276711463928223
9.11371612548828125 -78.2694091796875 41.4328498840332031
-8.06118869781494141 -63.6723594665527344 -44.0417060852050781
8.75954055786132812 -55.934417724609375 41.16204833984375
-5.97869205474853516 -0.511046350002288818 48.2753448486328125
10.3225851058959961 62.208099365234375 -48.9599571228027344
8.97611904144287109 -16.1761245727539062 5.42325448989868164
-6.63499259948730469 56.2437095642089844 30.8064537048339844
8.62214279174804688 12.9687576293945312 21.2976646423339844
-8.83151340484619141 -43.1624374389648438 -24.2082405090332031
-9.26578521728515625 73.3837356567382812 -24.2907524108886719
-8.19094371795654297 -67.5860061645507812 -21.6362228393554688
-5.49458599090576172 -49.7233505249023438 53.1144523620605469
-5.45679664611816406 -56.7250823974609375 53.4973945617675781
-3.64034247398376465 -108.278900146484375 -37.8318023681640625
-7.19750404357910156 -98.5399703979492188 -34.6532554626464844
-7.40837955474853516 -51.4821586608886719 23.7088413238525391
8.35356235504150391 -87.7505035400390625 -37.5178298950195312
7.68895196914672852 99.0425033569335938 -48.3555793762207031
8.9698028564453125 -5.01110601425170898 -65.3658905029296875
-8.7666168212890625 -13.3390073776245117 -3.04713273048400879
8.54951286315917969 0.0129477940499782562 20.1368293762207031
-2.41946291923522949 102.147293090820312 11.5126428604125977
-4.37317705154418945 -106.756752014160156 -63.8703231811523438
10.4640769958496094 3.26265335083007812 -38.4152297973632812
9.21207046508789062 -22.9106731414794922 -2.81083297729492188
-9.24596977233886719 -14.4328670501708984 -45.0546035766601562
8.09022712707519531 -86.9169845581054688 -63.8312950134277344
-9.65127372741699219 27.8044834136962891 -27.1721324920654297
9.56689643859863281 -54.6619949340820312 22.4392318725585938
-8.77325057983398438 79.0975341796875 -67.476715087890625
0.935467779636383057 25.2541751861572266 -71.3147811889648438
-3.77499270439147949 83.9178237915039062 67.3601531982421875
-0.656551659107208252 102.143165588378906 -47.5540428161621094
-8.91997241973876953 -35.1491355895996094 -44.5213699340820312
-8.66561985015869141 -34.5102424621582031 -61.1723670959472656
8.04452228546142578 -40.8007659912109375 46.1327095031738281
-6.39606571197509766 21.9747161865234375 42.1914253234863281
8.26127529144287109 23.0530242919921875 28.8691616058349609
-9.56356143951416016 44.076141357421875 -27.934967041015625
-8.01539802551269531 11.0069789886474609 17.6036434173583984
-0.794421255588531494 -49.2586898803710938 -72.15533447265625
8.35421085357666016 -9.09409427642822266 26.9185848236083984
10.1591243743896484 5.7657628059387207 -53.7216644287109375
8.92423820495605469 -26.4383220672607422 -66.1433563232421875
-8.84789752960205078 -42.1969337463378906 -36.9181480407714844
8.13033103942871094 -82.0563201904296875 -69.9745101928710938
-8.73250007629394531 80.0931854248046875 -50.2840423583984375
9.11740207672119141 -70.8950347900390625 -16.3712177276611328
1.56861329078674316 102.392524719238281 -52.1702880859375
-5.72026252746582031 84.2175979614257812 51.0819511413574219
-7.49443721771240234 -65.9790267944335938 16.4816722869873047
8.99746417999267578 83.5100326538085938 -25.6070880889892578
-5.38383102416992188 -50.515869140625 54.3077964782714844
8.54571151733398438 -9.55495071411132812 -69.4509506225585938
7.5778193473815918 77.3766326904296875 23.8438644409179688
-7.89802265167236328 -45.3153762817382812 15.1905755996704102
-6.16658926010131836 78.6615066528320312 34.4871788024902344
-7.82852935791015625 -70.321014404296875 -40.5086784362792969
5.37830686569213867 87.49676513671875 49.7718276977539062
8.62855720520019531 85.7531661987304688 -10.7097091674804688
-4.93954992294311523 102.12872314453125 -3.81264781951904297
9.90655899047851562 61.6726837158203125 -22.1938629150390625
-6.77157735824584961 101.110626220703125 27.7140350341796875
-9.21463108062744141 27.2173576354980469 -10.1373624801635742
6.72760915756225586 1.17248928546905518 57.2553596496582031
-7.44193506240844727 17.3003807067871094 26.2490634918212891
-4.84525394439697266 -6.48376989364624023 61.6591339111328125
-4.31152009963989258 21.6621780395507812 65.8895797729492188
-9.02111721038818359 -36.2023277282714844 -26.1700572967529297
-7.27363967895507812 64.099609375 19.059417724609375
-9.49542617797851562 36.911346435546875 -44.0355339050292969
8.6535186767578125 -79.7553863525390625 50.6754798889160156
8.76636314392089844 6.58644819259643555 14.8788328170776367
-7.49062442779541016 -80.5759963989257812 -40.6901397705078125
-0.838886022567749023 -51.7108535766601562 -72.2277297973632812
9.54034423828125 -76.8684768676757812 14.3518667221069336
-6.8178563117980957 -77.3885726928710938 29.20538330078125
8.07313919067382812 -30.1419715881347656 37.8097152709960938
-5.31181001663208008 -77.1590194702148438 55.0016860961914062
-7.05828952789306641 -21.4182186126708984 31.7813396453857422
-9.41864681243896484 17.4214515686035156 -15.587336540222168
9.88008308410644531 -16.5925483703613281 -26.1570453643798828
-9.22989940643310547 38.99981689453125 -59.3510360717773438
7.8852686882019043 92.666290283203125 -5.87056827545166016
8.29731845855712891 -102.249214172363281 37.0396919250488281
9.11099720001220703 -67.7861557006835938 -20.7196369171142578
4.87048959732055664 54.6327972412109375 -70.4777755737304688
8.11895465850830078 -92.451629638671875 -44.6083602905273438
8.25317001342773438 17.6057586669921875 28.9176864624023438
9.46503448486328125 -30.7383003234863281 -55.7256126403808594
-8.46746063232421875 -47.6365585327148438 -55.676239013671875
0.734327733516693115 -105.845390319824219 -1.59790050983428955
-6.0172271728515625 42.4457817077636719 45.5166015625
9.54172325134277344 76.799072265625 -38.54345703125
-9.22201633453369141 14.6001310348510742 -9.30644321441650391
9.58476829528808594 45.647186279296875 -2.48941850662231445
-7.95405244827270508 -28.034515380859375 15.5388631820678711
5.2024688720703125 65.1017379760742188 -70.3354110717773438
-9.46437835693359375 46.1321144104003906 -40.669769287109375
8.81450557708740234 -38.5800857543945312 23.1344985961914062
9.71718215942382812 -81.0519790649414062 30.4373798370361328
-8.85338783264160156 88.2532272338867188 -17.2937602996826172
-8.96950721740722656 -17.7541141510009766 -61.7372589111328125
-6.08860111236572266 75.78155517578125 36.7845573425292969
-7.44892501831054688 8.34853649139404297 27.3173789978027344
-7.52026748657226562 -19.9219627380371094 23.6868209838867188
-9.18969440460205078 64.1362380981445312 -41.1025733947753906
8.24046993255615234 -39.9910659790039062 41.5033035278320312
-0.885883331298828125 102.228073120117188 -12.1646289825439453
-1.33056950569152832 -4.75479364395141602 68.9216079711914062
-7.39521980285644531 -92.4792251586914062 -16.2942924499511719
0.0706981271505355835 78.8805160522460938 69.036651611328125
-8.36096477508544922 87.1925735473632812 -4.30344629287719727
-8.40957164764404297 -56.5217361450195312 -38.2568016052246094
8.31766891479492188 83.3701629638671875 2.96479201316833496
6.5415806770324707 92.2321624755859375 29.8202705383300781
-7.43860292434692383 -90.8410491943359375 -71.0901870727539062
7.99841928482055664 -21.1241645812988281 38.4168357849121094
8.71072864532470703 35.3711814880371094 -66.5376739501953125
5.62976408004760742 69.6210708618164062 53.2594947814941406
-8.88025760650634766 -8.50829505920410156 -70.1460494995117188
-8.89113235473632812 68.183746337890625 -6.10499954223632812
9.72402477264404297 50.44879150390625 -7.31519222259521484
1.18263614177703857 38.2523841857910156 -71.0911102294921875
-8.16169929504394531 -63.5236167907714844 -8.22950935363769531
-7.14246988296508789 -98.226470947265625 -7.86470317840576172
4.28578376770019531 28.3530597686767578 -71.0704574584960938
9.24558258056640625 57.8563919067382812 -1.45821452140808105
7.42959260940551758 65.2925796508789062 31.9640407562255859
-9.64771556854248047 32.0252532958984375 -36.4939765930175781
3.8829042911529541 -104.932952880859375 -5.53488779067993164
-7.14749813079833984 84.619659423828125 14.391209602355957
-7.85239601135253906 -57.9482536315917969 9.50835418701171875
0.618380606174468994 70.2414093017578125 -70.5120697021484375
-7.44148445129394531 -14.8257837295532227 24.8241634368896484
3.01539206504821777 -5.74496650695800781 69.3196792602539062
9.47899723052978516 -56.1600379943847656 24.3440799713134766
6.04503917694091797 11.0949993133544922 62.5400276184082031
7.93810558319091797 95.4710159301757812 -46.079193115234375
-0.042138468474149704 -104.219764709472656 50.9267387390136719
8.56952667236328125 -24.9103851318359375 -69.5929641723632812
9.27902889251708984 -75.4030227661132812 35.8507881164550781
-8.96709728240966797 -33.6247787475585938 -19.3798484802246094
9.7813262939453125 -18.4330558776855469 -23.3865165710449219
-3.7555549144744873 -107.205947875976562 -62.7690620422363281
9.47247791290283203 -69.1234054565429688 31.4739036560058594
-8.38132190704345703 31.1638774871826172 -71.7559051513671875
-8.02614498138427734 96.7479324340820312 -0.535422146320343018
-7.67182016372680664 -44.8285369873046875 19.7706527709960938
-9.52980613708496094 22.5174102783203125 -24.1275005340576172
-8.08387374877929688 -70.4262542724609375 -17.3100166320800781
10.2816228866577148 -1.9000319242477417 -42.7645378112792969
-8.19062423706054688 -61.7697677612304688 -40.3926162719726562
-2.55212569236755371 -55.8177337646484375 -72.4341583251953125
9.37131881713867188 -33.9352912902832031 -57.3446578979492188
9.16367721557617188 -93.1920318603515625 12.1317825317382812
3.88567018508911133 -49.3306083679199219 -71.8712539672851562
10.7813854217529297 20.6412563323974609 -32.8562774658203125
7.80174016952514648 -100.486747741699219 -54.9983787536621094
9.87788486480712891 55.4909324645996094 -15.4063997268676758
10.0062942504882812 7.16197347640991211 -18.0062885284423828
9.30525016784667969 68.9906845092773438 -62.34356689453125
9.75251293182373047 -52.377960205078125 14.3533000946044922
-5.21493959426879883 70.1177291870117188 -71.0826644897460938
9.13897895812988281 83.9203872680664062 -52.3543968200683594
9.99725818634033203 -5.87089824676513672 -54.0322952270507812
10.3912162780761719 11.6905689239501953 -24.336395263671875
8.82525730133056641 59.70867919921875 8.39188861846923828
-8.67863559722900391 -49.5251350402832031 -27.8713035583496094
5.37063169479370117 30.6302852630615234 -70.9781341552734375
4.19116306304931641 89.5833892822265625 60.2303543090820312
-8.70322704315185547 -34.2894058227539062 -59.139801025390625
-8.38100147247314453 47.137939453125 7.32839488983154297
-9.41942501068115234 9.42832756042480469 -16.920654296875
-7.30316257476806641 35.0390663146972656 26.8833160400390625
-6.22960090637207031 -102.732292175292969 34.9946098327636719
8.94561004638671875 -54.4787673950195312 35.2386856079101562
8.71640110015869141 -61.2780914306640625 -59.9872245788574219
9.04587459564208984 -0.774553298950195312 6.85008955001831055
-7.21590280532836914 -96.1709060668945312 -45.2644996643066406
10.5685224533081055 20.4974765777587891 -26.8304119110107422
9.31533241271972656 77.2824478149414062 -23.5857677459716797
-5.19838285446166992 21.3039150238037109 58.8530464172363281
-9.17238903045654297 -22.8433837890625 -38.0545310974121094
-1.44163370132446289 25.4483375549316406 -71.4695281982421875
8.54465007781982422 24.3243942260742188 24.1341800689697266
-8.57867908477783203 -40.7977676391601562 -59.3963661193847656
4.72762107849121094 77.5716934204101562 -70.4633712768554688
4.72381591796875 42.0631179809570312 65.1240921020507812
2.88791584968566895 7.41086769104003906 69.1478500366210938
-5.27804231643676758 -86.5742721557617188 54.0035476684570312
1.96208441257476807 74.4725112915039062 68.3990402221679688
10.717071533203125 24.1949062347412109 -28.6531887054443359
-6.53365898132324219 3.94632792472839355 40.8034477233886719
-4.41721010208129883 -97.8122100830078125 61.5281524658203125
9.31690597534179688 61.2163963317871094 -2.00568079948425293
-8.31426906585693359 51.7061347961425781 7.6551203727722168
-5.51628017425537109 64.2684097290039062 55.39434814453125
8.97385025024414062 -78.5543289184570312 -14.7397937774658203
-4.70815515518188477 -35.1369590759277344 61.6409797668457031
0.923831582069396973 55.4533843994140625 -70.66473388671875
8.85822296142578125 31.3917369842529297 -65.1680679321289062
-5.74866390228271484 -47.886871337890625 50.1645278930664062
8.54404354095458984 -92.689483642578125 -18.0344181060791016
0.0203236974775791168 -29.9970741271972656 69.49310302734375
-9.45096206665039062 -6.60354042053222656 -38.960357666015625
-6.1316676139831543 -104.9373779296875 25.814727783203125
-7.51749658584594727 -81.065643310546875 -43.8282737731933594
9.92395401000976562 21.0006160736083984 -9.56475353240966797
9.11940383911132812 43.3320770263671875 -63.3846206665039062
7.89327335357666016 -97.7484817504882812 -58.2883529663085938
7.83672809600830078 -100.504783630371094 -59.35418701171875
-9.3647918701171875 54.4540557861328125 -14.5924081802368164
8.46200752258300781 -69.0428009033203125 -67.9686203002929688
8.67265224456787109 -66.7710494995117188 48.0809555053710938
9.39884281158447266 -90.3530426025390625 23.3458671569824219
-9.26770687103271484 1.46770238876342773 -54.5631980895996094
-9.29710769653320312 20.2953319549560547 -59.6505165100097656
-9.15121078491210938 76.8540725708007812 -17.5268898010253906
8.04725456237792969 92.19183349609375 -64.5327911376953125
8.42608356475830078 50.17681884765625 19.7295989990234375
-5.30245018005371094 58.0695953369140625 59.8546905517578125
-3.04403829574584961 42.8565673828125 67.836395263671875
-8.35058212280273438 82.448822021484375 -2.70112800598144531
9.08379268646240234 -59.6054763793945312 -35.5931777954101562
-9.28870964050292969 -1.49401819705963135 -15.2341299057006836
9.81901359558105469 -69.1949996948242188 20.6080741882324219
-4.61507129669189453 -16.8145122528076172 -72.1036911010742188
8.77576828002929688 -58.1465110778808594 41.8704147338867188
8.35226631164550781 70.5924530029296875 13.493199348449707
-8.22621536254882812 34.3645248413085938 12.3392534255981445
7.29960918426513672 88.0629043579101562 21.7784252166748047
6.50952625274658203 -45.0225067138671875 66.9474105834960938
-7.32776689529418945 -58.3405189514160156 24.1884384155273438
8.93051815032958984 -34.7401046752929688 13.3619852066040039
-7.20268392562866211 -98.3964920043945312 -23.4438247680664062
-7.36075305938720703 -73.5222930908203125 15.6055870056152344
10.4476289749145508 27.61029052734375 -21.0449485778808594
10.7063589096069336 43.0495338439941406 -33.0844917297363281
9.55491542816162109 -43.4815750122070312 -29.9529266357421875
-6.81500387191772461 82.0415573120117188 -71.055389404296875
9.43041133880615234 -12.8508901596069336 -9.66072368621826172
7.62146663665771484 100.103370666503906 -45.8796653747558594
-9.10116481781005859 -23.415435791015625 -46.3508033752441406
10.8437118530273438 32.7860374450683594 -46.8248329162597656
-6.27524852752685547 24.1407718658447266 43.970550537109375
-8.34602737426757812 -42.2477378845214844 4.96810674667358398
6.36339426040649414 72.1852874755859375 44.3298873901367188
9.28343868255615234 -79.1180191040039062 2.60080742835998535
-6.44159698486328125 -68.1036529541015625 40.2447853088378906
8.35585594177246094 38.9172439575195312 -68.93194580078125
9.83457565307617188 35.0844993591308594 -2.93009543418884277
9.93938541412353516 58.3383369445800781 -19.8790531158447266
2.88040685653686523 -106.295555114746094 -37.3204078674316406
-6.15904426574707031 80.4107894897460938 34.6752815246582031
9.87195682525634766 65.4342041015625 -25.8924388885498047
-8.96718215942382812 -9.14467048645019531 -66.32952880859375
-3.76166605949401855 102.010749816894531 -55.7572822570800781
8.71228694915771484 -64.12835693359375 -55.2732009887695312
-6.88982963562011719 -79.7389144897460938 24.8782157897949219
-7.21513605117797852 -33.158660888671875 29.5462112426757812
7.49693965911865234 16.4790496826171875 42.7177238464355469
6.92028093338012695 38.589080810546875 46.2709693908691406
-3.91670751571655273 -30.4710216522216797 65.834014892578125
-9.04295825958251953 -30.1722164154052734 -37.3238983154296875
-8.24214267730712891 -43.4884681701660156 5.65913915634155273
-7.1622014045715332 -80.2528228759765625 16.6589736938476562
-5.99504661560058594 -100.364631652832031 -70.7012252807617188
9.34556102752685547 32.8959617614746094 5.28783464431762695
-7.25310277938842773 -95.6512908935546875 -9.66576194763183594
9.92828178405761719 69.3110809326171875 -56.0547370910644531
-7.08372592926025391 -77.4415206909179688 22.48602294921875
-8.71085453033447266 -41.6772003173828125 -11.2098598480224609
-8.89731502532958984 88.8019027709960938 -26.2284450531005859
-7.2321019172668457 -94.109222412109375 -47.4149017333984375
7.49394321441650391 -17.8763160705566406 49.5908164978027344
-8.91942119598388672 62.0671577453613281 -57.1707038879394531
8.01555824279785156 88.807464599609375 2.22039198875427246
8.1730194091796875 -85.8726425170898438 -58.1872100830078125
9.65060138702392578 -55.1086654663085938 -7.77864980697631836
9.45865535736083984 -69.1566085815429688 -0.221070796251296997
10.3637781143188477 15.0314521789550781 -23.8925514221191406
-7.03724575042724609 -104.262413024902344 -10.2665004730224609
