ply
format ascii 1.0
element vertex 782
comment vertices
property float x
property float y
property float z
end_header
-0.842450499534606934 -0.959292292594909668 12.7202796936035156
28.3557529449462891 2.27534222602844238 -10.9078483581542969
28.9101963043212891 10.0807590484619141 -9.11485767364501953
16.0779056549072266 -12.3815107345581055 19.542633056640625
13.3292398452758789 14.6175909042358398 19.1010589599609375
13.5133581161499023 14.4638004302978516 30.5797691345214844
-10.3013410568237305 -9.80517578125 12.8273172378540039
-33.4841423034667969 1.27579987049102783 3.0711052417755127
-23.8983535766601562 7.13668727874755859 -25.7043037414550781
-23.753021240234375 -12.371891975402832 -11.8629770278930664
-12.3359212875366211 11.570063591003418 0.318499445915222168
26.3252315521240234 8.67772769927978516 -17.7553730010986328
-19.7618675231933594 2.96982598304748535 27.3422451019287109
2.28298521041870117 -9.62299060821533203 -13.7917938232421875
-30.1848125457763672 12.8731517791748047 4.4202876091003418
0.950011491775512695 -2.79574871063232422 13.5107669830322266
-7.73165082931518555 6.69787120819091797 -9.17184543609619141
9.65238571166992188 -11.1555929183959961 16.1717758178710938
-2.03260970115661621 -11.6641740798950195 -26.2216453552246094
16.7859878540039062 -12.2769145965576172 9.77538681030273438
18.5262775421142578 -12.3392038345336914 3.66612744331359863
-28.9299201965332031 -10.8611822128295898 4.44945621490478516
16.924591064453125 -12.5197296142578125 15.9495429992675781
-6.79362392425537109 -11.0503330230712891 -19.0085430145263672
-30.1260967254638672 12.7865457534790039 15.1974859237670898
-24.53515625 -5.51190710067749023 19.7880363464355469
-9.10427665710449219 5.86062526702880859 5.85707855224609375
27.8818798065185547 2.5051724910736084 16.4139213562011719
-31.4715728759765625 -6.87372016906738281 -8.08600616455078125
-1.59717226028442383 1.77170169353485107 -11.3974504470825195
-9.37709808349609375 13.1511754989624023 17.2133922576904297
-3.13120031356811523 8.16613674163818359 -9.86919212341308594
-12.0361671447753906 -11.0283365249633789 -17.7643337249755859
-10.7521944046020508 13.3293418884277344 -24.9537525177001953
10.3753414154052734 -8.43296718597412109 -4.32357692718505859
-1.91956818103790283 11.2029619216918945 -18.6093425750732422
-14.3875274658203125 1.32307767868041992 30.0963096618652344
-7.19642543792724609 11.6263675689697266 -15.9713783264160156
-29.8088417053222656 -6.39639663696289062 -14.4095258712768555
-25.2447891235351562 5.42916154861450195 -24.2981185913085938
-8.93693733215332031 11.3183488845825195 -14.2906894683837891
-16.6854438781738281 3.2833702564239502 29.3576717376708984
25.3629379272460938 12.6681451797485352 5.82952260971069336
-10.2298555374145508 -3.57526683807373047 30.7578601837158203
-28.9539966583251953 -11.1799602508544922 -4.57896518707275391
21.3529548645019531 -12.3922004699707031 -4.92480325698852539
8.94396591186523438 -4.42829322814941406 30.1242256164550781
-4.08254766464233398 -11.1689767837524414 28.5446147918701172
-6.19247865676879883 -8.11965370178222656 30.2018890380859375
9.33734607696533203 10.1428918838500977 -21.4435157775878906
-16.6076221466064453 13.9810705184936523 -25.9890613555908203
8.76127910614013672 -7.53331375122070312 29.6506576538085938
24.2355327606201172 14.3373355865478516 20.8165969848632812
-22.652252197265625 12.0140523910522461 -27.7765731811523438
24.4537944793701172 11.3173685073852539 -1.97046148777008057
20.31744384765625 -10.3969345092773438 -15.8267669677734375
-12.3163423538208008 13.0693035125732422 34.2796630859375
1.57448887825012207 4.94121503829956055 33.8567924499511719
-0.493660509586334229 11.9156665802001953 -34.4839439392089844
-22.6799030303955078 -11.357574462890625 -18.3369274139404297
-2.79486870765686035 8.59920310974121094 -13.1528139114379883
-21.925872802734375 13.5894708633422852 -13.5646305084228516
-7.79258632659912109 4.00906229019165039 -32.9494590759277344
-11.1669416427612305 7.08358287811279297 -2.33958673477172852
-20.4118709564208984 -11.6436405181884766 1.0629427433013916
-16.9742355346679688 -11.2668094635009766 -17.7462005615234375
-10.9977293014526367 -5.47249269485473633 -30.2625160217285156
-29.2033653259277344 6.47400569915771484 17.0230388641357422
-13.1618061065673828 12.9413785934448242 -19.0473041534423828
15.3259334564208984 -0.34088549017906189 -26.5468788146972656
-13.393986701965332 11.1747274398803711 -10.4285097122192383
-30.4096870422363281 -10.1471691131591797 -7.42318344116210938
22.450531005859375 10.6370086669921875 -7.19376277923583984
19.8838615417480469 -4.26658868789672852 -21.1882667541503906
-3.93097591400146484 -7.90853786468505859 30.5143909454345703
-33.7848281860351562 6.69516324996948242 -8.64190483093261719
13.151402473449707 -10.6250400543212891 25.4922561645507812
25.3039588928222656 -0.28255733847618103 -15.3984622955322266
28.7879657745361328 11.4561004638671875 0.262173980474472046
-33.5129432678222656 -0.346839159727096558 -3.47205567359924316
-4.0897979736328125 3.39787650108337402 10.9573154449462891
24.7825050354003906 -10.1214275360107422 -8.26869678497314453
21.5758342742919922 -2.5911562442779541 -20.2593955993652344
-24.9488315582275391 13.818425178527832 -8.1596527099609375
-8.24285030364990234 -12.073817253112793 26.0360031127929688
-2.52671313285827637 -11.5674934387207031 19.2090549468994141
-25.5260524749755859 13.0728216171264648 -6.51461505889892578
-18.9743251800537109 -12.7246427536010742 13.8431854248046875
-4.47394275665283203 -0.908134400844573975 11.8130941390991211
6.41242218017578125 10.5206584930419922 -4.40693807601928711
-15.0614776611328125 11.9350557327270508 0.790571451187133789
-15.6012611389160156 13.7047853469848633 -29.2331371307373047
-15.1892986297607422 11.728179931640625 -8.03452587127685547
-25.3671989440917969 8.57551670074462891 -23.9146671295166016
-31.3190116882324219 13.4157495498657227 -18.6873893737792969
-15.7374582290649414 -7.84868574142456055 -1.1496436595916748
9.21772384643554688 -10.5608701705932617 -9.44805240631103516
11.5150775909423828 -12.7621698379516602 -12.6270484924316406
28.6351833343505859 12.9486236572265625 8.54990291595458984
-9.68086719512939453 5.51338672637939453 32.0562400817871094
-12.9934492111206055 12.7164993286132812 -31.5819797515869141
18.3243427276611328 12.2607660293579102 10.2194156646728516
5.48539209365844727 11.6774730682373047 -17.6417427062988281
27.7481441497802734 -4.46203088760375977 -6.47216176986694336
-5.16081619262695312 13.5054254531860352 12.2889490127563477
10.2140579223632812 -10.8541450500488281 26.8421211242675781
-2.68477249145507812 12.9382829666137695 12.1201915740966797
30.2883148193359375 0.152165219187736511 5.62823343276977539
27.4040374755859375 3.53983068466186523 -13.1795129776000977
17.0436668395996094 5.16857147216796875 -26.9717655181884766
-18.4909915924072266 -10.815485954284668 -8.05224704742431641
5.61646270751953125 -7.62814569473266602 13.9584321975708008
11.8390111923217773 -12.3544387817382812 18.0008792877197266
-17.0276622772216797 -4.08153438568115234 -28.1668167114257812
22.6358776092529297 14.4846181869506836 18.9521274566650391
14.9658012390136719 -8.44799995422363281 -23.3678798675537109
10.1627702713012695 -3.2906036376953125 -28.6199741363525391
7.94121170043945312 -10.9127521514892578 -25.9712467193603516
-10.5194635391235352 4.26026010513305664 31.9511890411376953
24.9071865081787109 0.750959873199462891 20.6881198883056641
-27.4543590545654297 12.8500404357910156 -5.62546634674072266
-22.5196990966796875 -12.4681110382080078 10.9126014709472656
31.5578231811523438 12.5852298736572266 14.321406364440918
9.53176498413085938 -3.69695639610290527 -2.23555421829223633
1.49688541889190674 6.207977294921875 -32.9109840393066406
17.1732635498046875 14.4716415405273438 27.4022712707519531
-25.6943626403808594 -6.34607362747192383 17.9875888824462891
-5.53966522216796875 9.85585117340087891 8.30230903625488281
7.60321521759033203 12.2130117416381836 -30.6898117065429688
-0.16124272346496582 -12.3130474090576172 20.6176700592041016
29.4306888580322266 -3.66362428665161133 3.88062405586242676
-3.51062321662902832 14.2610816955566406 27.7598648071289062
-16.014129638671875 -1.70857119560241699 -29.4442844390869141
9.40757465362548828 10.1698589324951172 -3.87558078765869141
2.90223884582519531 -7.18677520751953125 -29.6595478057861328
-6.97503376007080078 -4.63624000549316406 11.2491970062255859
30.9725914001464844 5.2310028076171875 -1.73681032657623291
4.78733730316162109 13.8117542266845703 12.5334568023681641
12.3306674957275391 11.4097557067871094 -27.4930400848388672
-29.7787570953369141 13.2677574157714844 6.87227344512939453
5.42589426040649414 -7.88423633575439453 -28.6476917266845703
-15.6032304763793945 -8.41503143310546875 26.6166248321533203
-0.834121108055114746 -8.73532962799072266 16.2713851928710938
0.0884821340441703796 -5.00532150268554688 31.8767147064208984
13.4451313018798828 10.0963811874389648 -11.8676996231079102
11.5868053436279297 -12.5500907897949219 -12.5761938095092773
0.907243013381958008 -11.8329315185546875 -26.5115585327148438
21.1876068115234375 -11.754206657409668 16.719512939453125
-22.16162109375 13.7833709716796875 22.2997570037841797
-25.8645057678222656 -1.59185004234313965 19.6735267639160156
-26.4180049896240234 13.3595457077026367 15.3795003890991211
-27.2794456481933594 1.7089545726776123 18.8093433380126953
-9.36993980407714844 6.04301214218139648 -32.7996635437011719
16.5448169708251953 -11.2717962265014648 -19.1878643035888672
-11.6060428619384766 13.5709714889526367 33.4977264404296875
13.4803428649902344 10.5266695022583008 -14.5467300415039062
-27.4432430267333984 5.41903400421142578 19.6363143920898438
-32.1660728454589844 13.0592069625854492 -17.6548194885253906
-6.56752586364746094 14.2576141357421875 27.8692607879638672
-5.61355924606323242 14.3149805068969727 32.2176094055175781
-6.4033818244934082 11.6067523956298828 -34.6364707946777344
-13.7262945175170898 5.13325977325439453 -31.4133090972900391
-10.899226188659668 13.1517162322998047 -29.7137489318847656
28.5409202575683594 -1.40206432342529297 13.1919984817504883
-22.0432167053222656 -11.9906110763549805 4.03496313095092773
-7.35489845275878906 -12.9698057174682617 22.2346229553222656
3.2463831901550293 10.4117813110351562 -10.7333269119262695
-3.59926843643188477 6.23314809799194336 -33.5462570190429688
9.42525959014892578 3.98285412788391113 -30.6888885498046875
16.6163597106933594 -12.4107723236083984 11.7648382186889648
28.4077415466308594 -4.77886247634887695 -2.89448261260986328
-15.7046327590942383 -12.545318603515625 18.9223766326904297
-3.32653164863586426 10.3886117935180664 -34.3201560974121094
30.5130615234375 10.5913152694702148 -2.58052992820739746
-10.3883552551269531 13.4819545745849609 -25.4129276275634766
25.6348552703857422 -8.61820030212402344 14.7597866058349609
21.2092552185058594 9.80067062377929688 -18.2676525115966797
0.504831254482269287 -3.38537812232971191 -11.4163961410522461
-32.601226806640625 -2.61787319183349609 -10.8497886657714844
24.0667648315429688 12.4054088592529297 5.00281000137329102
-15.84869384765625 -2.48972582817077637 -29.3697357177734375
10.1186695098876953 -9.60138511657714844 -6.48871278762817383
9.44626426696777344 1.23446476459503174 30.4306888580322266
-22.0269088745117188 13.9936161041259766 -19.9496002197265625
1.32033967971801758 1.16543614864349365 -10.4671707153320312
-24.0940189361572266 12.9864473342895508 4.04909420013427734
-32.7120819091796875 9.55840492248535156 -14.1483736038208008
10.6722431182861328 -12.0422353744506836 -22.4823322296142578
9.28701210021972656 -4.86131429672241211 -3.69431400299072266
16.8744678497314453 10.1706275939941406 -15.7073545455932617
-11.1422443389892578 -8.54463005065917969 9.52275562286376953
-25.0241851806640625 7.97016763687133789 -24.2541866302490234
-21.4230976104736328 -11.1898460388183594 -18.5704612731933594
-15.3448657989501953 -8.25890541076660156 26.9431018829345703
-18.2447166442871094 12.0158882141113281 7.82818460464477539
-12.1235933303833008 13.2154359817504883 -21.0278072357177734
21.8379287719726562 -7.04774093627929688 -16.70623779296875
-4.2048039436340332 1.83421444892883301 33.0113029479980469
28.5019187927246094 2.47829484939575195 15.5094709396362305
18.2772865295410156 -12.3739891052246094 1.38412642478942871
0.893460869789123535 13.3621110916137695 13.8391218185424805
-31.4463958740234375 12.5823936462402344 14.4813451766967773
4.86782264709472656 10.9479360580444336 -33.1863365173339844
-33.1014785766601562 -2.45903944969177246 1.82995116710662842
-4.36127328872680664 1.99341773986816406 33.078399658203125
17.1313400268554688 -9.37444591522216797 24.3768672943115234
3.62947201728820801 12.6780767440795898 -32.4256858825683594
21.7604560852050781 10.554194450378418 -8.85481166839599609
8.13610935211181641 -8.08593368530273438 -8.15214824676513672
-21.3314113616943359 -12.1139450073242188 2.07417559623718262
-1.8222118616104126 -11.7879705429077148 19.6855926513671875
8.3970947265625 3.42197775840759277 6.70594644546508789
28.2220706939697266 10.9373092651367188 -3.95055389404296875
-26.2179813385009766 0.746813654899597168 20.0587177276611328
13.8671150207519531 -12.4862861633300781 -9.66455650329589844
-8.17761325836181641 13.3284730911254883 13.5392923355102539
-35.2192039489746094 11.3898410797119141 -7.9000544548034668
13.6269235610961914 -12.5545558929443359 -18.6512241363525391
9.66400909423828125 -5.79357290267944336 -2.65923547744750977
-31.713226318359375 12.4782266616821289 13.7732868194580078
24.0579547882080078 11.4414005279541016 -0.625882327556610107
-22.3045234680175781 -11.8701057434082031 -8.40054035186767578
-5.48475837707519531 3.99687504768371582 10.0570230484008789
-9.68131065368652344 12.5787220001220703 -18.0406513214111328
-22.6624183654785156 14.1619443893432617 -23.1630592346191406
-26.2581710815429688 -12.0805368423461914 -2.38802576065063477
-1.82616615295410156 11.0806131362915039 9.983978271484375
16.2063026428222656 -9.45643043518066406 24.9680328369140625
-9.85534477233886719 12.1211891174316406 9.37265396118164062
-14.40216064453125 -2.04171967506408691 29.1253700256347656
-7.94688606262207031 13.4938211441040039 19.2096176147460938
13.405644416809082 -8.53049373626708984 -24.6642284393310547
30.5524921417236328 5.18879795074462891 -4.37506723403930664
0.20512564480304718 14.0851144790649414 19.2024002075195312
6.29150867462158203 -12.7373189926147461 -18.3549575805664062
5.86350154876708984 4.67994594573974609 -31.4734401702880859
7.06765985488891602 11.116119384765625 33.6431884765625
-29.8711967468261719 -1.61225247383117676 -16.4890956878662109
29.4299659729003906 -2.06804680824279785 6.77581357955932617
-15.2021112442016602 13.0480146408081055 -18.6751327514648438
-10.8285312652587891 0.930628001689910889 31.4908256530761719
-16.8169116973876953 13.4345426559448242 19.6810111999511719
29.2990970611572266 -3.68371772766113281 5.45541143417358398
12.208979606628418 10.3414783477783203 -10.5616359710693359
-12.857762336730957 -7.72953367233276367 28.0414810180664062
29.2479171752929688 -3.52933549880981445 0.272721290588378906
30.8763694763183594 12.8795642852783203 10.0966682434082031
-21.3777828216552734 14.0726642608642578 -21.7847690582275391
10.1642866134643555 10.4309358596801758 -31.2725028991699219
23.2782249450683594 -8.86092472076416016 -13.0034017562866211
-6.31973600387573242 2.85130095481872559 32.9447250366210938
-21.0824394226074219 14.0393915176391602 -21.8479156494140625
25.4413318634033203 3.38623142242431641 20.8900985717773438
-23.2056503295898438 -7.57049417495727539 20.5808219909667969
-28.6823883056640625 12.7521858215332031 0.216211333870887756
-10.9502773284912109 12.1466445922851562 -15.4448394775390625
16.5104141235351562 -5.24607086181640625 -23.7535610198974609
-23.4315052032470703 4.10791254043579102 23.8856754302978516
6.15804195404052734 5.18023443222045898 -31.5064334869384766
23.7978630065917969 13.9153604507446289 15.7444601058959961
-7.61940574645996094 -11.6708097457885742 27.0497055053710938
8.95818519592285156 11.5473394393920898 -17.3720531463623047
26.8184299468994141 10.1905183792114258 20.7234687805175781
14.909367561340332 -5.44867801666259766 27.4969558715820312
-13.1793527603149414 13.5295925140380859 -21.6419429779052734
28.0738334655761719 4.79434823989868164 16.4488945007324219
-12.5550193786621094 -1.71056866645812988 2.66091632843017578
-14.6749448776245117 -12.2858657836914062 14.7377119064331055
-3.82313323020935059 13.696563720703125 -33.4481163024902344
-8.117462158203125 -6.72960472106933594 10.8509559631347656
-33.162811279296875 -2.80740880966186523 -4.3412623405456543
-26.0416240692138672 9.53235340118408203 22.4257450103759766
3.78644657135009766 12.2598180770874023 7.76074647903442383
-18.9009628295898438 11.9958906173706055 3.70744562149047852
8.0343780517578125 -6.70188093185424805 -28.4166526794433594
24.8382282257080078 12.7322549819946289 8.16339588165283203
9.72630882263183594 14.4976644515991211 31.0792808532714844
12.5237197875976562 13.7227516174316406 32.6002120971679688
-27.0977306365966797 -1.77963244915008545 -20.6084518432617188
-27.2015895843505859 -11.6344757080078125 -10.7181549072265625
-3.12453389167785645 -2.60109829902648926 -31.8040962219238281
8.06967353820800781 12.1658954620361328 5.54062461853027344
11.4736404418945312 -12.4444351196289062 18.4473915100097656
-5.13141632080078125 12.5736989974975586 8.54662227630615234
-20.8953933715820312 12.5447721481323242 10.9934988021850586
22.8023166656494141 -5.52587461471557617 -16.7225742340087891
-22.5650444030761719 -12.456151008605957 2.1967160701751709
24.1785545349121094 14.0176372528076172 23.2362785339355469
-29.0303287506103516 1.11788403987884521 -18.7706947326660156
11.1082801818847656 -1.03152596950531006 -28.7155113220214844
-9.53416061401367188 -10.4994020462036133 13.8914337158203125
-1.45398128032684326 -1.54669356346130371 -31.8333568572998047
-26.4404716491699219 10.1782426834106445 -23.4668464660644531
-22.1164741516113281 12.6706247329711914 8.95270252227783203
-28.0925884246826172 -11.6321868896484375 -1.22511100769042969
16.1299858093261719 3.59958219528198242 -26.7514686584472656
17.3896293640136719 6.94403409957885742 27.9136199951171875
4.09184360504150391 12.1823291778564453 7.58362483978271484
5.81100130081176758 -12.2666110992431641 25.5959014892578125
-11.0402774810791016 9.99564552307128906 -33.0963935852050781
-24.0346717834472656 -1.66008627414703369 22.0022354125976562
-33.137939453125 12.8874111175537109 -1.22046875953674316
-6.71596527099609375 -1.20403087139129639 10.3416814804077148
1.69819223880767822 -7.25234889984130859 30.8718490600585938
15.893890380859375 1.82043862342834473 27.6992225646972656
-20.6608810424804688 -3.36574602127075195 -26.494293212890625
-16.4376697540283203 13.0693016052246094 -19.2279567718505859
12.1974477767944336 -11.0268888473510742 24.9096832275390625
19.4989585876464844 1.77430510520935059 25.5034332275390625
-3.07332849502563477 14.1433439254760742 26.9331626892089844
-21.0538978576660156 7.55891275405883789 26.8861312866210938
9.93704509735107422 -0.854300022125244141 4.99865341186523438
-25.2169818878173828 -11.9204826354980469 8.83089923858642578
-27.4040679931640625 12.7463645935058594 -5.24525833129882812
-14.4562520980834961 9.29772663116455078 31.4683799743652344
-21.2293300628662109 13.2026891708374023 -27.7406005859375
22.7828540802001953 10.79229736328125 -4.39424276351928711
-6.01097679138183594 -2.22081851959228516 -31.7284221649169922
-10.4986743927001953 -10.8402299880981445 26.9413642883300781
-19.0154628753662109 -12.0454206466674805 -17.2357063293457031
12.7440052032470703 11.0455455780029297 -15.5481271743774414
-23.5948696136474609 14.2044563293457031 -8.03574466705322266
3.15200138092041016 -0.53223186731338501 32.1948165893554688
4.53372478485107422 -12.4284553527832031 23.0477275848388672
-5.40609884262084961 -11.934107780456543 -24.7776947021484375
29.5720710754394531 0.326472431421279907 7.5666651725769043
-8.13846492767333984 -6.5653076171875 -30.5393810272216797
-3.6160438060760498 13.1240129470825195 12.1767168045043945
-14.0496835708618164 3.69584417343139648 30.5055999755859375
-2.04546356201171875 8.50730991363525391 -10.4932489395141602
25.2311801910400391 -8.34442901611328125 -9.73347282409667969
-6.74532032012939453 13.5649728775024414 -30.8031272888183594
-30.4592075347900391 -6.43896913528442383 7.90885686874389648
28.3352909088134766 10.300541877746582 -8.56007575988769531
-10.5908632278442383 13.7174692153930664 19.1326198577880859
26.3192710876464844 -10.813899040222168 7.59539079666137695
29.2167987823486328 2.64873790740966797 -8.35360336303710938
-14.4172573089599609 -11.7661514282226562 -20.0292606353759766
30.9189643859863281 3.79759812355041504 4.01460742950439453
-5.14123868942260742 -11.5019979476928711 -26.2551670074462891
-20.0938529968261719 13.7458133697509766 18.9207611083984375
-33.8657608032226562 5.74933576583862305 5.18721199035644531
-12.5012388229370117 2.56513166427612305 -2.94011473655700684
-0.915912210941314697 14.2573299407958984 26.7892799377441406
-19.0395641326904297 14.3022689819335938 -23.3625411987304688
-27.158447265625 -8.87619400024414062 -17.1944313049316406
8.43315601348876953 -12.2060604095458984 -23.7511100769042969
-27.6291961669921875 -7.5557246208190918 13.5155134201049805
-7.31471872329711914 4.01058197021484375 -10.1885795593261719
-31.734649658203125 -0.966172218322753906 -12.2496013641357422
-17.429046630859375 13.8331384658813477 -22.9680099487304688
-33.1169853210449219 1.23810374736785889 -5.39171886444091797
20.2208213806152344 -9.70584392547607422 -17.0308895111083984
-24.1923637390136719 12.2741279602050781 -26.7369346618652344
-0.86890864372253418 11.0900459289550781 10.1130619049072266
24.5751514434814453 -6.48624229431152344 -12.9438610076904297
27.8741531372070312 -8.48477840423583984 8.41735172271728516
-12.0857009887695312 6.89550113677978516 -32.4255332946777344
-14.1245155334472656 -5.63974809646606445 -29.2272319793701172
-9.60041618347167969 -0.797336816787719727 -31.5877056121826172
-25.4503688812255859 -12.0620765686035156 6.34248065948486328
22.0971107482910156 -8.11347103118896484 -15.8525934219360352
19.2615203857421875 -12.2480707168579102 16.3709869384765625
13.3748779296875 -10.7923135757446289 11.3209972381591797
6.90687894821166992 -1.01855361461639404 10.6039714813232422
4.34467411041259766 13.3903388977050781 8.89559841156005859
20.4583511352539062 14.3983116149902344 21.9734401702880859
-1.06027281284332275 2.67979168891906738 -10.707371711730957
-21.0068416595458984 -8.62562179565429688 -23.4321670532226562
-18.3161773681640625 -12.7592201232910156 13.4296989440917969
-6.22509479522705078 -5.10876750946044922 11.7836151123046875
-20.8721694946289062 12.2637491226196289 4.23902130126953125
-3.63761353492736816 13.414097785949707 15.8654356002807617
9.75686073303222656 0.19501243531703949 4.89265775680541992
-9.96480369567871094 11.8649196624755859 7.71152114868164062
-9.70071887969970703 7.36756420135498047 -7.20437288284301758
2.97363805770874023 13.603602409362793 36.3639106750488281
13.4618368148803711 -12.5409364700317383 17.164825439453125
-30.3839302062988281 12.7684268951416016 -3.87124204635620117
8.40914440155029297 -5.48886823654174805 30.0821094512939453
28.7019691467285156 12.7020940780639648 19.9637813568115234
11.8475160598754883 -11.1414756774902344 25.2731475830078125
-24.7622528076171875 5.14219856262207031 -24.7475414276123047
26.3813037872314453 -5.84370517730712891 -9.67500114440917969
2.77088403701782227 13.739898681640625 21.3507308959960938
-13.9499835968017578 -11.7685604095458984 -22.2996139526367188
4.2980952262878418 13.7226266860961914 13.0516996383666992
17.4282855987548828 14.1838388442993164 29.4967975616455078
-5.61275720596313477 -6.20372772216796875 -30.8777236938476562
-12.6034822463989258 10.9290904998779297 -8.48853778839111328
-29.0515785217285156 -11.082646369934082 -4.37540197372436523
2.84132194519042969 13.7370796203613281 21.4208774566650391
-15.9922065734863281 12.0340375900268555 12.5186910629272461
-16.9393405914306641 -10.5955991744995117 -23.5473175048828125
-18.4479522705078125 3.98664259910583496 28.1353130340576172
13.2483835220336914 14.5385894775390625 30.1328010559082031
-16.47601318359375 13.1015987396240234 17.07501220703125
2.11525487899780273 11.8116741180419922 -22.0695667266845703
-30.3088436126708984 -8.31358432769775391 -11.4210538864135742
0.324483960866928101 12.4526395797729492 -26.7082729339599609
10.2571687698364258 -2.42886853218078613 5.08160638809204102
-14.3665857315063477 -1.84647834300994873 -30.1986770629882812
20.9840373992919922 -7.77855730056762695 -17.6285629272460938
-24.7474994659423828 13.7611150741577148 -17.7909317016601562
-30.2236785888671875 12.4411954879760742 17.8476295471191406
12.1419429779052734 10.2701435089111328 -21.8680191040039062
19.5308895111083984 6.18585538864135742 26.3810539245605469
28.1706409454345703 -6.90043020248413086 8.49190807342529297
9.20417976379394531 13.4130477905273438 33.9254570007324219
22.7880764007568359 2.02318406105041504 23.1438217163085938
-17.6321010589599609 13.0152425765991211 15.7183589935302734
-11.6227207183837891 13.4684486389160156 -22.0534477233886719
15.8042068481445312 -3.57898259162902832 -25.0281734466552734
20.8633747100830078 -0.781072676181793213 -21.5100498199462891
7.80791234970092773 12.0386724472045898 -31.6787624359130859
-28.7916679382324219 -7.75153923034667969 11.1254959106445312
-6.86179399490356445 13.6650657653808594 13.3184976577758789
12.410090446472168 14.6926794052124023 26.4493064880371094
1.48278272151947021 -11.4453163146972656 28.1913242340087891
19.3735065460205078 -2.81352686882019043 -22.3201847076416016
4.82519435882568359 14.1829748153686523 25.3796749114990234
-24.8773193359375 13.8254423141479492 -8.22221946716308594
14.1441478729248047 -11.4575824737548828 12.2069873809814453
19.5876140594482422 6.52150058746337891 -25.6985645294189453
21.0492477416992188 10.3130588531494141 -8.92966747283935547
-16.5377578735351562 -8.75022602081298828 -4.50877189636230469
31.0082187652587891 4.85794878005981445 6.29975748062133789
-13.1220245361328125 11.1767501831054688 -32.8289375305175781
-31.8493175506591797 0.00454233633354306221 7.80033016204833984
-2.27995991706848145 12.4051408767700195 -25.802642822265625
4.20432281494140625 14.6519947052001953 30.5201950073242188
12.2333717346191406 0.0400731936097145081 -28.3908729553222656
-20.1872901916503906 12.8994255065917969 -5.71936464309692383
31.0149459838867188 12.2712717056274414 15.3073034286499023
9.45463085174560547 3.28245806694030762 1.62800490856170654
-24.7504978179931641 14.0774326324462891 -17.6826992034912109
11.3969459533691406 11.742121696472168 -29.9560508728027344
-11.2412538528442383 -8.46201515197753906 9.41442203521728516
-13.1497020721435547 -3.38108110427856445 -30.2849597930908203
-27.1376762390136719 11.3992719650268555 22.3387870788574219
-8.83213138580322266 6.07324743270874023 -8.52686309814453125
32.9391555786132812 8.64110755920410156 3.87151193618774414
12.6298980712890625 9.22613716125488281 30.4463253021240234
19.4470291137695312 -12.4950981140136719 -1.68044900894165039
-28.8467426300048828 -1.60478305816650391 14.0882711410522461
-19.1433391571044922 -3.7939753532409668 -27.2916889190673828
10.4305000305175781 3.35520124435424805 -30.177947998046875
-5.58205413818359375 -10.2648468017578125 -17.45989990234375
-10.6297159194946289 8.92730236053466797 -2.91604757308959961
27.7061061859130859 3.63878488540649414 17.1378993988037109
-27.9727516174316406 12.6231365203857422 21.2988662719726562
-32.8652229309082031 2.50701999664306641 -9.88489341735839844
7.4208531379699707 -10.5475683212280273 28.3635902404785156
8.14018535614013672 10.3995952606201172 -8.55437850952148438
-17.2467746734619141 -12.8356790542602539 17.8016719818115234
-1.91667759418487549 8.50593090057373047 -12.6857967376708984
27.5454158782958984 -9.66030597686767578 4.43120241165161133
-13.9230585098266602 4.37504863739013672 30.6680088043212891
-1.95473945140838623 13.2623062133789062 14.104496955871582
-16.2851486206054688 13.6250581741333008 -28.4856739044189453
-20.4108009338378906 -11.8128042221069336 1.66888713836669922
10.1172370910644531 -12.6325902938842773 22.5947589874267578
-8.17850971221923828 11.4134674072265625 4.75695466995239258
-14.1968803405761719 13.32861328125 -24.1951007843017578
-4.87981462478637695 -9.34659194946289062 29.834381103515625
12.5643253326416016 -7.60198736190795898 -25.6998081207275391
15.155853271484375 14.1235713958740234 13.4677038192749023
15.5517368316650391 -1.87844038009643555 27.7739315032958984
9.2104644775390625 12.3661479949951172 33.57757568359375
0.33859550952911377 14.8073806762695312 31.9845371246337891
-30.099273681640625 6.24196529388427734 15.2183923721313477
-18.7811126708984375 -8.51038169860839844 24.2979812622070312
-20.287139892578125 13.3584280014038086 -18.3780288696289062
12.8815994262695312 3.01248645782470703 29.5310401916503906
-8.59727668762207031 13.1756219863891602 -28.947021484375
-32.2400398254394531 -3.61795330047607422 -9.08989906311035156
-18.3443965911865234 13.3660507202148438 27.2981815338134766
10.1847858428955078 -7.51966238021850586 -3.1963503360748291
21.7545986175537109 11.6529216766357422 4.29115390777587891
-10.4547739028930664 -2.04398393630981445 -31.1202011108398438
13.3619794845581055 -11.2569513320922852 24.5757293701171875
15.0394716262817383 -11.6747465133666992 -2.86524820327758789
-9.32863521575927734 -12.6307077407836914 23.9924335479736328
31.2323246002197266 5.89914178848266602 -1.48628497123718262
0.57419663667678833 -8.00530719757080078 -29.812347412109375
7.02180624008178711 -7.80356740951538086 -28.2930107116699219
-34.2557945251464844 11.997314453125 -11.7735404968261719
-24.8523635864257812 14.0828161239624023 -7.2324070930480957
-5.44522809982299805 12.0748891830444336 -34.6238288879394531
8.64239883422851562 -11.4377956390380859 26.4129905700683594
-21.6057357788085938 5.20271968841552734 25.6385364532470703
10.5998468399047852 -11.9518461227416992 23.2542896270751953
-15.5241374969482422 8.21695804595947266 30.5750274658203125
-14.7443380355834961 11.8269491195678711 -11.3644018173217773
-20.8126049041748047 11.833348274230957 -2.41100788116455078
-7.24677515029907227 -4.04353952407836914 -30.6240386962890625
-21.6236801147460938 11.8888702392578125 -1.1587752103805542
-21.8021221160888672 13.2054872512817383 28.4698715209960938
7.58865118026733398 2.60539102554321289 -30.8040637969970703
-34.1913528442382812 12.9237298965454102 -0.449030965566635132
30.6246585845947266 6.04537343978881836 10.8885831832885742
24.9291400909423828 14.3038616180419922 20.6952991485595703
-12.3935718536376953 2.38408350944519043 -3.98493456840515137
1.92263352870941162 6.55753755569458008 -8.89956855773925781
-19.1492958068847656 -11.8934974670410156 19.1971950531005859
-23.8911838531494141 4.82342624664306641 23.4717445373535156
2.53477144241333008 -12.4428863525390625 -20.68731689453125
30.6334133148193359 2.89433693885803223 2.07723617553710938
1.91063117980957031 -3.25331401824951172 13.0636968612670898
-14.6151008605957031 -2.00899195671081543 -29.9503459930419922
-13.3344841003417969 -3.60722804069519043 29.2984485626220703
-33.1314201354980469 1.51653051376342773 -8.23989105224609375
-30.8342685699462891 12.7011966705322266 -4.46400594711303711
7.67712879180908203 7.82808589935302734 -2.43876314163208008
3.42107844352722168 12.6067962646484375 -31.3468456268310547
-25.7466163635253906 9.36912822723388672 -23.6482563018798828
-10.9317159652709961 10.5108728408813477 -9.85192012786865234
-22.8164596557617188 -4.22435188293457031 22.6982040405273438
-0.564203619956970215 11.1906557083129883 10.0984840393066406
5.71937227249145508 12.7820186614990234 6.53006982803344727
6.83518028259277344 -9.14999294281005859 -27.8266181945800781
20.3568096160888672 12.3897237777709961 10.4288129806518555
7.24676275253295898 9.38466262817382812 5.75150966644287109
9.4738922119140625 4.2418208122253418 -30.6036090850830078
10.5089082717895508 11.3994407653808594 -25.8352470397949219
-16.4137783050537109 10.3014535903930664 31.1801719665527344
31.4661579132080078 10.7394208908081055 -0.621154725551605225
-23.8759193420410156 12.9923801422119141 13.0876789093017578
11.1944541931152344 10.2325220108032227 -12.3568658828735352
15.6437005996704102 10.5647525787353516 -1.45001578330993652
-13.7258682250976562 0.104215532541275024 -30.6149749755859375
-16.6464633941650391 -12.872955322265625 16.3272666931152344
-0.191100552678108215 -4.13906097412109375 13.5189104080200195
-27.9008541107177734 6.66692876815795898 19.1873893737792969
10.7487583160400391 -8.66942691802978516 -26.2720203399658203
10.2975978851318359 -12.1822576522827148 17.3578834533691406
-8.19199752807617188 13.2786788940429688 13.0642766952514648
-10.5802145004272461 -10.9343032836914062 -24.6363754272460938
-10.276118278503418 13.3709783554077148 -24.5483875274658203
-12.2407827377319336 -0.462096720933914185 -30.9965457916259766
14.588043212890625 -10.1094694137573242 3.90565633773803711
-28.662322998046875 -5.31760501861572266 -17.2744064331054688
-32.8910942077636719 -4.88895225524902344 -1.64918422698974609
-20.5362491607666016 -10.9955577850341797 20.5704288482666016
-19.6432170867919922 14.314030647277832 -24.7437629699707031
5.86133289337158203 -11.7120285034179688 27.0498504638671875
-12.6908349990844727 13.188446044921875 -22.0444850921630859
-33.737335205078125 0.441556602716445923 0.121030315756797791
-12.653564453125 0.63050466775894165 1.78869235515594482
-26.9645042419433594 13.0310497283935547 5.9133758544921875
-20.6958541870117188 -7.82123231887817383 -24.2339382171630859
-17.7806549072265625 -9.45924568176269531 -7.53571796417236328
-0.650317847728729248 -11.9008693695068359 27.8184890747070312
28.7810077667236328 13.3119354248046875 19.8893966674804688
1.02144849300384521 12.1944246292114258 -24.6307353973388672
9.89097690582275391 14.8679971694946289 23.3515853881835938
6.11846780776977539 -8.03271198272705078 13.4315700531005859
-21.4824047088623047 4.36023616790771484 25.9227848052978516
-14.9817314147949219 -6.5804600715637207 -5.27130460739135742
2.42510151863098145 -3.40814638137817383 12.9614982604980469
7.57295799255371094 -12.6551036834716797 21.0599937438964844
-10.1113824844360352 12.6731853485107422 15.1240987777709961
-30.5563297271728516 -7.39211845397949219 -11.8498992919921875
-9.66712570190429688 -6.33107662200927734 9.59270572662353516
30.5904483795166016 5.3698582649230957 10.6641521453857422
-2.01207828521728516 4.76238203048706055 -33.4043655395507812
-26.7305736541748047 -12.2287836074829102 -0.619547069072723389
-32.5418624877929688 2.29642677307128906 -10.5831451416015625
18.9826545715332031 10.195526123046875 -19.2388153076171875
-32.3333168029785156 -6.57483243942260742 -4.15541887283325195
-19.2608718872070312 13.0557098388671875 28.3039569854736328
-22.7604274749755859 13.5282230377197266 -17.0924510955810547
-22.0240707397460938 -11.777155876159668 -3.68958663940429688
-16.9185543060302734 13.5168237686157227 -28.9460277557373047
4.1939692497253418 13.7274103164672852 14.5314922332763672
-21.6610507965087891 13.6825895309448242 -23.3046112060546875
-26.7566108703613281 -11.5778980255126953 -4.39232158660888672
-31.3307418823242188 0.76496809720993042 -13.889775276184082
0.657488048076629639 12.9695014953613281 -29.2882213592529297
27.6885204315185547 -5.61731672286987305 -5.47436285018920898
0.588876307010650635 -11.9391822814941406 -26.5437602996826172
12.2629880905151367 -6.06991195678710938 -26.5178489685058594
5.565338134765625 -4.8178563117980957 -29.7889156341552734
29.8876361846923828 0.0712081789970397949 1.64615607261657715
-16.4464607238769531 13.1270828247070312 24.0151023864746094
-12.5120630264282227 13.6353435516357422 22.0671234130859375
-24.551422119140625 14.4386892318725586 -21.3280849456787109
6.44099855422973633 3.6170649528503418 31.6579189300537109
9.29356193542480469 11.2048101425170898 -14.2054643630981445
26.0018081665039062 -11.0336475372314453 9.04986476898193359
24.8517532348632812 10.2784872055053711 -11.9510812759399414
18.2769680023193359 10.2610015869140625 -21.8752937316894531
10.2637205123901367 -8.59980106353759766 -4.55761051177978516
-16.3468074798583984 -10.8434534072875977 -14.9903564453125
11.1283273696899414 -10.9849433898925781 -7.73714494705200195
-23.3229579925537109 10.0990018844604492 25.900604248046875
10.0317316055297852 11.4715909957885742 3.77616596221923828
21.8953571319580078 -0.850621044635772705 23.4558906555175781
27.6745090484619141 -0.956803202629089355 15.7985343933105469
-21.07403564453125 14.3919620513916016 -24.7341842651367188
-9.68638896942138672 7.93633317947387695 32.3752632141113281
-25.6820850372314453 -12.3595685958862305 -2.69825863838195801
13.9062128067016602 10.9389925003051758 3.9212486743927002
-14.1566238403320312 12.91290283203125 17.1358871459960938
32.0219039916992188 12.1547651290893555 13.1564884185791016
13.0903797149658203 -11.4125690460205078 24.5421218872070312
-27.8317947387695312 12.9265604019165039 21.8773765563964844
3.55393338203430176 -4.57378482818603516 31.6371879577636719
19.3633480072021484 10.3741350173950195 -6.2408442497253418
28.5335769653320312 -6.31640625 8.07036781311035156
18.5960121154785156 10.8662357330322266 2.60177516937255859
-23.7894210815429688 -11.696406364440918 12.731999397277832
-9.527801513671875 13.5071859359741211 -27.67120361328125
23.5524063110351562 -12.2322378158569336 1.26478719711303711
-21.9160003662109375 -11.8951339721679688 -1.34883439540863037
-18.7297554016113281 11.82196044921875 -2.18423295021057129
9.43039894104003906 -4.21069192886352539 -28.7811298370361328
28.7143459320068359 12.3015804290771484 2.96133756637573242
27.5840892791748047 -2.81371450424194336 15.1335639953613281
0.167718008160591125 9.36892032623291016 -12.7420148849487305
0.427037477493286133 12.7139253616333008 -33.6934089660644531
21.3280811309814453 11.0388584136962891 26.5495548248291016
-24.3184223175048828 -10.8434133529663086 15.0706911087036133
16.7345523834228516 -12.2254362106323242 8.94886684417724609
5.57843780517578125 -8.51965427398681641 -11.0436515808105469
-13.1198797225952148 12.0364418029785156 11.8714828491210938
25.7845191955566406 7.45721244812011719 21.1168079376220703
16.0012874603271484 5.59814310073852539 28.4998722076416016
-0.00646781409159302711 13.8262119293212891 22.404296875
-19.6559066772460938 -0.280975759029388428 -27.7123031616210938
12.8654012680053711 -12.8857717514038086 -14.6956462860107422
25.7531585693359375 10.5832796096801758 -9.80899524688720703
4.9441676139831543 13.6656045913696289 10.7991485595703125
-24.4663753509521484 -11.887181282043457 -13.777430534362793
11.7279129028320312 10.8557186126708984 -14.0219831466674805
29.0906848907470703 5.6294550895690918 -11.3054771423339844
-23.3157463073730469 12.3250055313110352 -27.3220233917236328
-26.3877239227294922 10.62530517578125 22.6374988555908203
12.6272106170654297 3.79194903373718262 29.5600681304931641
15.3862705230712891 13.8432836532592773 31.2345829010009766
-28.7564506530761719 13.3586969375610352 7.58204269409179688
-10.795292854309082 -4.6391596794128418 6.98222923278808594
-36.10430908203125 11.5347576141357422 -2.36313533782958984
9.04283905029296875 -9.62963485717773438 28.1881237030029297
5.88193655014038086 13.4513969421386719 19.0843963623046875
9.96361160278320312 13.9287548065185547 16.5907669067382812
-0.533789932727813721 -11.7994279861450195 -19.5086612701416016
24.6351566314697266 10.8225173950195312 -8.80383586883544922
10.0989646911621094 0.100144356489181519 -29.3545551300048828
-24.7966632843017578 -10.5040187835693359 -18.0191802978515625
-29.3268680572509766 11.2389631271362305 18.9938335418701172
8.04930496215820312 9.12438201904296875 3.50231170654296875
10.3236455917358398 -0.255717933177947998 30.2221126556396484
1.61872971057891846 2.56313395500183105 33.4104576110839844
-11.7474737167358398 11.9808330535888672 8.28395748138427734
21.0171623229980469 -10.8953027725219727 -13.7899370193481445
-27.6480045318603516 -8.29578113555908203 -16.7729091644287109
20.9584426879882812 6.22317266464233398 -24.5601158142089844
-21.0028877258300781 -11.0894851684570312 -4.87476301193237305
-15.9044694900512695 -12.5717401504516602 18.9748039245605469
-3.60414314270019531 0.950385987758636475 -11.4851417541503906
-30.8448905944824219 0.265848368406295776 10.400294303894043
-11.6780099868774414 1.32998347282409668 -6.83234310150146484
21.7174873352050781 14.2927055358886719 17.404937744140625
13.8345060348510742 -9.90362739562988281 -0.386124551296234131
-34.9314193725585938 9.05896472930908203 -2.12386584281921387
9.40565299987792969 -12.7123594284057617 -19.2547035217285156
5.91486787796020508 -10.3556203842163086 17.2355060577392578
8.24902915954589844 11.4540243148803711 -24.7746028900146484
11.6831455230712891 11.5169954299926758 -17.8568515777587891
4.42204856872558594 10.4768238067626953 8.70930194854736328
-26.92626953125 13.4343891143798828 13.1430215835571289
-15.8323287963867188 3.20376825332641602 29.6322593688964844
-3.03309202194213867 13.933502197265625 18.705078125
27.8549594879150391 5.38335037231445312 16.8732719421386719
27.5616340637207031 -7.55166959762573242 10.8896865844726562
16.4557590484619141 10.0021467208862305 -15.0015382766723633
-8.79646110534667969 3.22551918029785156 -32.248992919921875
24.8968906402587891 -5.56424999237060547 18.7676963806152344
18.4495086669921875 10.0542726516723633 -12.4728374481201172
-15.0023212432861328 -6.79437875747680664 27.5214405059814453
-18.3911209106445312 13.727564811706543 19.5748748779296875
1.96134436130523682 -0.829046308994293213 -31.5227584838867188
-25.2656879425048828 -11.412175178527832 -15.1605167388916016
17.1498851776123047 -4.60233354568481445 -23.6643028259277344
-7.70297145843505859 -12.7128534317016602 22.0160083770751953
21.3255481719970703 -12.3757228851318359 -5.68432044982910156
4.0688023567199707 11.6133661270141602 -22.0246543884277344
10.941960334777832 -6.237060546875 6.385345458984375
25.3423671722412109 -6.82815170288085938 -11.1772842407226562
-27.1471061706542969 -11.8873796463012695 -5.82336521148681641
5.99338579177856445 -11.0335283279418945 17.3622207641601562
-1.0716327428817749 14.0944013595581055 25.8198719024658203
-22.6494712829589844 -3.56773900985717773 22.8120079040527344
-21.6283550262451172 12.211064338684082 3.56982922554016113
18.3046321868896484 -12.5429954528808594 -6.24455118179321289
3.40237855911254883 -9.56306648254394531 -13.0270614624023438
-1.14906799793243408 -11.5413846969604492 -26.8017063140869141
32.2272911071777344 7.6982417106628418 -4.75498437881469727
-14.7199239730834961 13.2447147369384766 -29.7933082580566406
-14.4294347763061523 -11.6625165939331055 -19.3255195617675781
5.16292619705200195 -2.55930280685424805 -30.4204864501953125
-11.0038681030273438 -12.5466365814208984 17.1187744140625
0.728017628192901611 13.0478305816650391 -32.240966796875
-14.0422611236572266 -8.75818634033203125 6.61336183547973633
-9.51278400421142578 10.0289392471313477 -11.6325998306274414
0.54645693302154541 9.61623573303222656 10.6217002868652344
-34.1566696166992188 8.63572311401367188 -7.76025009155273438
-16.1300754547119141 11.705958366394043 31.6578426361083984
-17.1989898681640625 6.3411412239074707 29.2898654937744141
3.36228084564208984 13.7417726516723633 24.2858848571777344
-23.7863616943359375 13.2768192291259766 21.0660057067871094
19.7217445373535156 -12.3350839614868164 10.7348136901855469
-16.4915351867675781 11.1635837554931641 31.2849063873291016
22.8277912139892578 4.56099462509155273 -21.8995208740234375
6.40395784378051758 -0.353054046630859375 -6.88616514205932617
16.7613887786865234 6.54697990417480469 28.2981586456298828
-13.5695095062255859 -3.14775252342224121 29.4638957977294922
-9.76443576812744141 -3.70569920539855957 -10.8573265075683594
-32.5039253234863281 -3.17621326446533203 -8.10335350036621094
23.1339130401611328 -11.1441450119018555 -8.93799877166748047
-6.98355340957641602 -5.44819974899291992 30.9441299438476562
-16.1746196746826172 5.46924018859863281 -30.4871406555175781
13.0329484939575195 14.6561851501464844 19.6045055389404297
-7.03443098068237305 -2.47492527961730957 -12.2904119491577148
-13.7460165023803711 -7.00031709671020508 -28.9296779632568359
25.6913604736328125 -11.005976676940918 1.20967388153076172
-4.11531257629394531 -6.19123125076293945 -13.6481533050537109
8.66353797912597656 14.763519287109375 22.667572021484375
-11.8960838317871094 -8.41658592224121094 9.18681526184082031
-20.4301185607910156 13.2489538192749023 28.7697944641113281
-9.56027412414550781 4.13915395736694336 6.23546648025512695
-27.7238025665283203 -0.853774309158325195 16.8522758483886719
-12.9038257598876953 -11.9241504669189453 24.5377845764160156
0.615704715251922607 9.50686168670654297 10.6440162658691406
16.9660606384277344 -3.37782406806945801 26.5778026580810547
-6.36301183700561523 7.18647384643554688 -9.95224475860595703
20.0279750823974609 -1.49714100360870361 -22.1698436737060547
19.9560871124267578 0.414403021335601807 -23.0067310333251953
5.70813465118408203 8.29002189636230469 8.86930656433105469
3.08696699142456055 -11.8934211730957031 27.4304847717285156
3.03533792495727539 -12.6050224304199219 21.8577003479003906
-32.8178443908691406 6.51073026657104492 -11.7002630233764648
20.8700981140136719 11.3272867202758789 26.9352073669433594
-15.385345458984375 -10.7437734603881836 23.0625438690185547
-10.9444475173950195 0.191865146160125732 -8.48035526275634766
-10.5892658233642578 -13.0441579818725586 22.0006790161132812
-9.13971519470214844 11.0053529739379883 -13.659754753112793
13.4325218200683594 10.4296741485595703 0.239689305424690247
-33.6333427429199219 0.0960896313190460205 -2.83880424499511719
9.73260498046875 -10.3497819900512695 27.4160175323486328
-3.81964731216430664 -10.2424497604370117 -17.5366344451904297
-5.02902317047119141 -7.88512945175170898 13.7202615737915039
-18.5924835205078125 -2.6875007152557373 -27.8839321136474609
-21.0727863311767578 -11.6609220504760742 3.95937204360961914
-11.2651529312133789 6.09019660949707031 -3.57019710540771484
-30.7162513732910156 -4.99027538299560547 -12.8668403625488281
17.4017925262451172 14.5469570159912109 18.6949062347412109
10.49969482421875 -12.4193410873413086 -21.6152706146240234
3.35577249526977539 9.48368930816650391 33.9403305053710938
-3.35979247093200684 -10.2732629776000977 16.6137561798095703
-24.6228485107421875 3.44424867630004883 20.8828887939453125
6.60706138610839844 -12.5507106781005859 -17.0577354431152344
-28.8258132934570312 -11.3389921188354492 1.04146111011505127
22.7738018035888672 -11.9466447830200195 13.6184062957763672
-31.3544521331787109 -0.285663962364196777 8.93905162811279297
-6.88018131256103516 -8.32639408111572266 -15.0103120803833008
-30.2763442993164062 13.5521650314331055 -11.8753433227539062
-2.49293351173400879 10.2362842559814453 -16.2794075012207031
-33.0801658630371094 12.4289464950561523 -14.9156780242919922
27.6549472808837891 4.84543561935424805 -13.6028861999511719
-10.7642679214477539 -10.820256233215332 -26.3719444274902344
-23.5611114501953125 -12.1643733978271484 0.894566595554351807
-32.9678688049316406 -1.07321596145629883 -6.87285375595092773
-24.6553001403808594 13.5795154571533203 -14.8437261581420898
-32.769134521484375 -0.917634546756744385 -8.50573825836181641
28.3624248504638672 -7.89479398727416992 6.1978459358215332
6.59572601318359375 2.0285804271697998 -6.28872156143188477
-0.727484762668609619 -9.20000267028808594 16.9222354888916016
19.06842041015625 -7.32364940643310547 24.1391658782958984
-8.11872196197509766 13.3729276657104492 14.1679821014404297
11.0931320190429688 11.8559856414794922 -29.9970855712890625
