ply
format ascii 1.0
element vertex 783
comment vertices
property float x
property float y
property float z
end_header
30.6803760528564453 10.8832082748413086 -2.38095927238464355
11.7722311019897461 14.4568262100219727 2.65308952331542969
29.0543041229248047 13.6375713348388672 -1.60111141204833984
20.4173793792724609 15.169647216796875 11.7302160263061523
-16.9564685821533203 11.8245029449462891 -11.6202964782714844
28.4285564422607422 -1.51138103008270264 1.87249076366424561
-4.91356801986694336 -1.12197351455688477 -30.4485549926757812
17.8420467376708984 14.6779308319091797 29.0872039794921875
11.7054243087768555 14.8825368881225586 29.4515705108642578
-11.5049934387207031 6.02376890182495117 36.3898239135742188
13.5387287139892578 -9.44802188873291016 1.27106046676635742
-26.3141059875488281 12.3084373474121094 -19.601806640625
-13.8826580047607422 14.8459367752075195 23.0476322174072266
-12.1649541854858398 6.09466028213500977 1.66919970512390137
3.43375086784362793 6.82178068161010742 36.6230850219726562
5.10032510757446289 14.1514787673950195 28.5326023101806641
-7.65319442749023438 7.42722511291503906 -32.3826751708984375
22.2049541473388672 7.47869682312011719 25.5166969299316406
-19.1809902191162109 11.5340328216552734 -25.3371906280517578
-26.4381828308105469 8.2344207763671875 -6.83805036544799805
7.73680305480957031 -9.73824119567871094 15.3705406188964844
28.7241897583007812 14.5373096466064453 9.04319190979003906
-13.6554756164550781 2.26792573928833008 1.40796172618865967
21.7039165496826172 13.8823318481445312 -6.81623506546020508
25.0676250457763672 2.97153735160827637 -14.2830419540405273
-20.2508449554443359 0.891772031784057617 31.3724098205566406
-4.06363439559936523 14.8557138442993164 37.1744575500488281
-8.07111740112304688 -10.9880828857421875 -20.3768291473388672
11.007258415222168 6.51915121078491211 -29.1379642486572266
6.84801483154296875 5.53349828720092773 1.76967144012451172
-14.1773700714111328 -9.349395751953125 -12.7762374877929688
16.7201480865478516 -11.0291633605957031 -7.80712366104125977
9.08786106109619141 -6.65640926361083984 -1.36314475536346436
12.5480985641479492 5.32428646087646484 -28.1609134674072266
-18.0535984039306641 14.9165143966674805 24.3880500793457031
29.1378383636474609 1.7493135929107666 5.03468704223632812
-25.7263355255126953 -5.63883066177368164 -9.23502349853515625
-20.1044025421142578 3.40770602226257324 -26.7429027557373047
-13.4287176132202148 11.7470121383666992 -25.7814884185791016
-29.2138652801513672 11.6572475433349609 -12.6358356475830078
-21.0484695434570312 7.91873693466186523 31.1919479370117188
7.37578630447387695 -10.1953697204589844 30.6340160369873047
-11.9099082946777344 -7.75708103179931641 32.7970962524414062
12.6086063385009766 14.2067728042602539 -0.308570593595504761
-14.5612239837646484 -8.95928382873535156 -10.1041164398193359
28.6652374267578125 -0.596483826637268066 2.24079227447509766
11.4918317794799805 14.2620210647583008 18.5933456420898438
-17.7369136810302734 2.91842246055603027 1.41085541248321533
-17.6410541534423828 -10.3763904571533203 15.7654743194580078
11.1103897094726562 -3.07503271102905273 -26.2483119964599609
-26.7569866180419922 9.79100799560546875 18.6904239654541016
15.2195234298706055 -12.1045207977294922 19.9980678558349609
4.70740413665771484 12.8490180969238281 4.3668975830078125
1.76238870620727539 12.6191511154174805 -13.4881200790405273
0.202346071600914001 -10.5500516891479492 -16.8709487915039062
-17.5932331085205078 11.9494457244873047 -13.8368968963623047
20.2123126983642578 15.131657600402832 9.63134765625
7.29019737243652344 13.8706836700439453 0.292893886566162109
7.4238591194152832 2.6342005729675293 3.26013660430908203
16.0244636535644531 12.2996883392333984 32.7546958923339844
-23.3794116973876953 4.3355250358581543 -24.0102863311767578
-27.7124137878417969 12.4504880905151367 -20.8826866149902344
-17.8215427398681641 13.4954595565795898 14.3746528625488281
-1.33973121643066406 -3.98626565933227539 15.9705896377563477
-21.0822849273681641 13.2919855117797852 8.48918533325195312
27.5196380615234375 -1.53656768798828125 -5.07250547409057617
-10.4925079345703125 -1.74316775798797607 -8.47349834442138672
-18.7072658538818359 3.72015523910522461 1.35842454433441162
-24.4001636505126953 -1.90631997585296631 -22.1531753540039062
2.01136231422424316 -8.59170436859130859 -27.0575885772705078
23.7028789520263672 15.2302560806274414 24.3466358184814453
-8.40572357177734375 -7.14351940155029297 34.1076545715332031
8.18443012237548828 -9.272857666015625 -23.9452304840087891
-9.88877391815185547 6.5316157341003418 -6.74449872970581055
29.2132644653320312 11.7321128845214844 15.3681468963623047
3.61344742774963379 5.75065326690673828 -6.0032353401184082
5.09715795516967773 5.80596446990966797 -3.49724388122558594
6.15896368026733398 14.4502391815185547 35.9052276611328125
-8.4405364990234375 11.6574888229370117 -14.6809959411621094
10.5867757797241211 14.1280803680419922 0.0437610596418380737
-9.43094825744628906 -4.37179899215698242 34.8162155151367188
22.4684238433837891 14.9455432891845703 10.6866903305053711
-12.1418581008911133 6.94080257415771484 36.1131515502929688
-4.51401853561401367 11.8219003677368164 -11.5717000961303711
-8.87708091735839844 -9.76450824737548828 20.72186279296875
5.30383872985839844 -4.72357511520385742 33.6951026916503906
6.87640094757080078 -11.9717445373535156 26.8038711547851562
-21.8471279144287109 12.805882453918457 -3.28036665916442871
0.494932711124420166 14.0421781539916992 18.883453369140625
-14.802159309387207 11.8342132568359375 -7.42093801498413086
-16.9826869964599609 14.7927122116088867 21.1677303314208984
-4.51178359985351562 11.7769756317138672 38.7926750183105469
-23.0074901580810547 3.91117405891418457 29.4407939910888672
-17.0089778900146484 -9.83670902252197266 26.5973663330078125
17.0470962524414062 15.1351737976074219 15.8476715087890625
10.9282970428466797 9.56174087524414062 -30.9861297607421875
-22.0060577392578125 7.87504243850708008 2.58088183403015137
-12.22503662109375 -2.28068780899047852 12.1267576217651367
-8.22605514526367188 12.285247802734375 14.3389072418212891
28.0766544342041016 2.06250119209289551 12.9465646743774414
-9.09956169128417969 -9.71538162231445312 -16.4823951721191406
-7.12819242477416992 -9.84717655181884766 -15.5942544937133789
14.9246044158935547 -11.896000862121582 20.5462303161621094
16.6961078643798828 11.5706319808959961 -27.7017402648925781
5.72480964660644531 -9.39380073547363281 -24.5736618041992188
-22.1624984741210938 -0.465608954429626465 14.4243488311767578
-21.5380668640136719 6.22405624389648438 31.0186252593994141
7.63821601867675781 -6.92594051361083984 -26.5908603668212891
17.0967807769775391 13.8785533905029297 -5.38533782958984375
-15.8645734786987305 -2.56789469718933105 9.76300621032714844
30.1162319183349609 14.1772117614746094 6.57930517196655273
2.10571885108947754 -9.70311737060546875 -24.3194408416748047
31.4582939147949219 11.9996986389160156 7.78805971145629883
4.70599031448364258 14.2614850997924805 27.0855789184570312
-16.3311710357666016 14.8926906585693359 29.4003448486328125
-28.0837745666503906 -0.663982570171356201 -17.7843437194824219
8.65010643005371094 -5.18449831008911133 5.34957742691040039
-25.6449680328369141 2.1129462718963623 -6.18749809265136719
-1.36727547645568848 15.2104635238647461 32.3349037170410156
11.5818195343017578 14.9000368118286133 29.55535888671875
-1.9659193754196167 7.64680051803588867 37.6156959533691406
25.7183685302734375 -2.36262321472167969 15.862360954284668
7.97468423843383789 -9.36915683746337891 -23.8916339874267578
-5.24455642700195312 1.80646789073944092 -10.5811929702758789
-20.4515151977539062 14.6548957824707031 21.6417102813720703
-13.897435188293457 -4.61004066467285156 10.4858884811401367
19.013397216796875 -8.33358192443847656 -17.3765544891357422
10.3537616729736328 14.3956670761108398 23.8042411804199219
-8.36253452301025391 -11.3679113388061523 24.8770999908447266
-1.5817420482635498 -1.72146296501159668 16.4048213958740234
3.07259750366210938 10.9880247116088867 9.6730804443359375
-26.6904640197753906 -5.09000110626220703 -9.70421218872070312
4.03252601623535156 3.50504136085510254 -5.87663793563842773
-7.69942283630371094 14.796992301940918 37.6705513000488281
13.472477912902832 13.7332735061645508 -10.0208263397216797
6.4118804931640625 -7.23186683654785156 12.7677469253540039
23.8750743865966797 -6.68149280548095703 -10.5544281005859375
-7.1865696907043457 -5.13640260696411133 -29.0262203216552734
-31.1666812896728516 11.348698616027832 -18.4748878479003906
-6.98397731781005859 11.978062629699707 -7.39985847473144531
2.13848447799682617 -10.3802108764648438 -16.0830917358398438
0.110191479325294495 13.8167285919189453 39.28741455078125
10.0378341674804688 -5.58636569976806641 31.7950305938720703
27.1352443695068359 -2.47789716720581055 -6.02774238586425781
-10.3497915267944336 -10.3020181655883789 31.0060367584228516
-13.0175457000732422 -2.75400209426879883 34.1766128540039062
-16.3876056671142578 8.42029762268066406 -30.9697074890136719
5.20131015777587891 11.4138021469116211 -31.7032222747802734
16.2255516052246094 -10.8028535842895508 -8.79088973999023438
-21.6244640350341797 14.2918853759765625 18.2997627258300781
-20.3666973114013672 -4.28999996185302734 16.752777099609375
-16.7652435302734375 11.7475061416625977 -20.1700820922851562
-13.7880067825317383 3.23111987113952637 3.26154613494873047
-26.6085243225097656 14.0364303588867188 25.5024967193603516
-9.21969795227050781 -11.5965356826782227 28.0848197937011719
11.4930076599121094 -5.96120643615722656 30.6180572509765625
28.3426494598388672 6.28347444534301758 13.4191322326660156
30.3368549346923828 8.18593215942382812 2.10964202880859375
-7.51598691940307617 7.50118827819824219 -8.48748779296875
-18.3184680938720703 5.26194858551025391 6.44382762908935547
17.0351505279541016 -11.1827840805053711 -4.23797464370727539
-16.99444580078125 -9.40099620819091797 -22.7508201599121094
-21.1226577758789062 14.4348421096801758 20.163726806640625
11.2014293670654297 -11.7907218933105469 25.6893310546875
-13.3479528427124023 10.3620147705078125 4.71856164932250977
25.8884334564208984 14.8986263275146484 18.2170333862304688
-16.6467266082763672 11.8552541732788086 -11.7355804443359375
19.2398452758789062 -6.70572900772094727 -18.2601032257080078
16.9049777984619141 14.2087240219116211 -2.53594446182250977
-19.4231548309326172 12.0112590789794922 -14.4533748626708984
15.1880455017089844 -1.40315043926239014 -24.2087669372558594
22.1181468963623047 -6.29091644287109375 20.5307960510253906
-25.3025493621826172 10.6572761535644531 -25.1093177795410156
-15.4121408462524414 11.4312992095947266 6.40152835845947266
-13.783076286315918 11.7441635131835938 -24.0103073120117188
6.83244991302490234 1.11518657207489014 34.67840576171875
28.1502513885498047 12.3217582702636719 -14.4209480285644531
-20.0492210388183594 8.27003002166748047 -29.0868816375732422
6.41496801376342773 12.0953083038330078 -25.415557861328125
18.2507591247558594 -4.26093339920043945 -20.6216964721679688
-20.066162109375 0.456754803657531738 12.1476306915283203
-28.6263065338134766 -8.59681892395019531 -12.7952413558959961
-19.7778415679931641 11.4196262359619141 -26.5158100128173828
22.8040771484375 -2.86368799209594727 -15.3600168228149414
26.3720016479492188 -6.13896036148071289 10.6560630798339844
2.55661487579345703 -6.21253347396850586 34.0957374572753906
-21.0457382202148438 8.33893013000488281 31.4476509094238281
13.8064250946044922 -10.3828649520874023 -14.6953582763671875
-20.5302982330322266 14.4887485504150391 20.3909893035888672
-22.0111312866210938 2.31539344787597656 30.2212142944335938
14.2655744552612305 -11.590052604675293 11.5083398818969727
-18.8637485504150391 14.1266803741455078 35.6254653930664062
-13.670811653137207 -2.76765179634094238 -5.50037336349487305
0.193396717309951782 8.46509265899658203 -8.12549591064453125
-14.7328557968139648 12.1759357452392578 11.7135696411132812
-18.7079696655273438 14.9988803863525391 28.8454151153564453
-25.8457851409912109 -3.08536148071289062 -6.73783779144287109
-8.57544517517089844 11.0196037292480469 -26.2858619689941406
-28.0833854675292969 5.39378738403320312 -7.32730245590209961
-0.399265795946121216 -1.70790493488311768 -10.5739688873291016
-21.4009170532226562 -7.84088325500488281 -21.9010467529296875
-15.9814786911010742 -10.2231864929199219 25.0249137878417969
-1.79977214336395264 12.18682861328125 -18.6319580078125
-16.4781627655029297 11.3888463973999023 -25.9153537750244141
-21.6335582733154297 12.4178056716918945 0.659980297088623047
-13.2378530502319336 11.4843158721923828 0.334432870149612427
-5.26639032363891602 -5.67001485824584961 17.4180316925048828
-4.17000865936279297 14.44891357421875 23.3156147003173828
-5.43491554260253906 -3.15269279479980469 -11.2291460037231445
-31.4427471160888672 -0.407045871019363403 -11.7941522598266602
-23.4383831024169922 13.9894695281982422 13.770075798034668
11.4153470993041992 13.0317354202270508 -16.7556667327880859
-0.571735084056854248 -4.28527212142944336 15.8133296966552734
-0.50142216682434082 15.0405311584472656 29.0842723846435547
8.04843807220458984 -8.27742767333984375 31.6292781829833984
22.8117446899414062 12.9985637664794922 -17.2004928588867188
-8.77974796295166016 10.0509605407714844 -32.7969207763671875
-6.85509395599365234 11.6563358306884766 -25.1223258972167969
10.8685617446899414 15.253108024597168 33.6588211059570312
14.7588205337524414 14.7920818328857422 6.68195772171020508
-12.6033554077148438 10.3527984619140625 9.42822170257568359
-18.1396446228027344 -11.1786603927612305 -13.8079748153686523
24.0186100006103516 13.974125862121582 -5.47716188430786133
3.66333222389221191 14.5022716522216797 18.2108116149902344
29.5407314300537109 2.91323089599609375 1.1941530704498291
-26.1546878814697266 11.7400808334350586 15.8950338363647461
7.07707881927490234 4.2835688591003418 3.91173934936523438
-16.4812068939208984 0.529973268508911133 -3.47256040573120117
16.4796371459960938 -9.66603755950927734 24.7657470703125
-29.8096027374267578 2.73346662521362305 -12.64239501953125
24.40826416015625 13.8636150360107422 -7.79187536239624023
-19.4801311492919922 11.9019336700439453 -3.74904131889343262
-10.0936117172241211 2.48100066184997559 12.2786397933959961
27.8479175567626953 -3.16553688049316406 6.46789216995239258
19.1284694671630859 14.4996719360351562 30.7185783386230469
2.344390869140625 14.2633275985717773 29.1350116729736328
11.5846424102783203 13.4434976577758789 -12.7875909805297852
6.26974058151245117 -11.8414983749389648 27.3258552551269531
28.7453441619873047 0.228202000260353088 -1.18641102313995361
-15.85113525390625 -7.28305625915527344 -25.4797420501708984
14.1206178665161133 13.5302553176879883 -13.787043571472168
-15.1277122497558594 14.3166227340698242 36.0390205383300781
-6.50760030746459961 11.4717617034912109 -18.3579673767089844
19.5044479370117188 15.2960395812988281 14.3884458541870117
28.4354400634765625 -0.610583603382110596 -0.136755764484405518
6.15968084335327148 -12.3433952331542969 23.5522232055664062
13.5878162384033203 9.27661895751953125 -29.0408573150634766
-8.67742347717285156 -4.34626913070678711 34.7516860961914062
15.3789777755737305 12.1165332794189453 -26.3926563262939453
7.13273763656616211 -9.14601039886474609 -24.6579666137695312
-27.1897811889648438 12.6503257751464844 24.7576541900634766
-9.82791709899902344 -10.7071504592895508 -22.7374362945556641
-4.50485706329345703 -6.92854404449462891 17.6449756622314453
-28.2971134185791016 -2.01333880424499512 -17.4050388336181641
-8.59989643096923828 11.4169244766235352 -6.36346673965454102
-7.64735507965087891 11.466181755065918 -30.3450756072998047
-12.2322845458984375 3.81771373748779297 -30.6763648986816406
3.8476412296295166 9.68611621856689453 -4.06760406494140625
-10.3264074325561523 5.99965715408325195 -4.96913909912109375
19.4822139739990234 12.931452751159668 -19.1615924835205078
9.42880916595458984 12.8508939743041992 36.4391746520996094
-3.14556431770324707 3.25300455093383789 -31.6173000335693359
17.6475982666015625 -10.0050802230834961 -13.8321313858032227
-21.8311080932617188 -6.65780305862426758 -22.2386054992675781
-20.7857532501220703 4.77247810363769531 31.5662288665771484
-18.0794048309326172 11.8502511978149414 -16.2295207977294922
-20.5932674407958984 2.82561421394348145 -3.86344671249389648
-8.93507480621337891 -1.07819128036499023 15.0486211776733398
5.30874109268188477 4.03235483169555664 35.9468193054199219
-13.5407905578613281 -10.6839809417724609 24.1422691345214844
-21.7860393524169922 1.31636202335357666 14.0001058578491211
-13.5439491271972656 -10.4798212051391602 -21.4627323150634766
21.2886943817138672 -11.4729633331298828 12.9725532531738281
-11.0798730850219727 -10.6439838409423828 -20.0137424468994141
3.82607722282409668 12.1579885482788086 -25.1766185760498047
-29.1630344390869141 3.65241122245788574 -16.5623970031738281
-10.2164888381958008 11.5124902725219727 -17.3805103302001953
-26.5013256072998047 13.1089305877685547 12.4694461822509766
-28.8263626098632812 3.0527644157409668 -9.62781143188476562
25.1964206695556641 -8.49128246307373047 11.5483856201171875
-14.8803882598876953 0.210619032382965088 6.00937795639038086
-21.0200138092041016 -9.82032108306884766 -18.3943958282470703
-12.2979602813720703 -7.64496135711669922 15.1868057250976562
14.9696664810180664 14.7634916305541992 29.7089748382568359
-6.28072977066040039 5.55878591537475586 -9.35912990570068359
28.5229053497314453 12.6245756149291992 -11.6546154022216797
6.14362430572509766 -11.2060356140136719 19.7301521301269531
21.8993167877197266 -7.34911060333251953 20.2448387145996094
7.77795553207397461 -9.329681396484375 30.6950111389160156
-2.12203836441040039 8.16742706298828125 37.7680778503417969
2.14414644241333008 7.1644139289855957 37.0847396850585938
3.51797151565551758 -9.9794921875 18.7765522003173828
27.1704883575439453 10.1126079559326172 -13.9156131744384766
27.6587104797363281 0.320282459259033203 13.1650514602661133
29.8690948486328125 8.38666820526123047 9.31335544586181641
-15.9929075241088867 14.4748897552490234 36.2127151489257812
-5.01376438140869141 11.5065116882324219 -17.2628269195556641
12.7495183944702148 -4.36776542663574219 -24.9097118377685547
-23.0587615966796875 7.84267282485961914 1.8481980562210083
21.55059814453125 13.3577346801757812 -14.169306755065918
24.0313625335693359 -10.0615520477294922 8.86175155639648438
3.31674599647521973 -8.7876129150390625 -26.2242717742919922
23.3816471099853516 -4.63524246215820312 19.2596645355224609
17.3385028839111328 9.60083580017089844 30.6991004943847656
-15.1542673110961914 -9.78334903717041016 28.2563953399658203
-2.89678692817687988 10.1310224533081055 -8.44388008117675781
-22.9142036437988281 13.561345100402832 11.162419319152832
-25.20281982421875 -9.32822799682617188 -15.4740467071533203
-18.9923534393310547 0.447465240955352783 31.9730758666992188
-21.5115146636962891 -4.81797885894775391 -23.2594413757324219
7.53678083419799805 -8.31520175933837891 -26.0149135589599609
-13.1441488265991211 11.5386571884155273 -16.7457027435302734
-20.18609619140625 -9.07564830780029297 -20.59222412109375
-12.1303901672363281 11.8725900650024414 -12.8086643218994141
-9.47510337829589844 15.0027503967285156 22.0984153747558594
13.7444572448730469 14.7098846435546875 27.4767704010009766
20.5907096862792969 -4.82726049423217773 -17.5675754547119141
-8.78741168975830078 3.38205695152282715 -8.90228176116943359
19.3235092163085938 14.2684812545776367 30.7996349334716797
28.4975318908691406 14.0739479064941406 19.0479545593261719
27.8758277893066406 6.68290472030639648 -9.27175140380859375
-1.57037150859832764 -9.633026123046875 -15.8788967132568359
19.8869857788085938 14.4192924499511719 -0.371988266706466675
8.64176368713378906 10.8360528945922852 -32.7821083068847656
-25.0358295440673828 13.6804494857788086 17.4656562805175781
-14.8603057861328125 -4.20554018020629883 9.84156513214111328
-7.73829936981201172 -10.6723737716674805 -22.8629093170166016
17.3232231140136719 12.7127466201782227 -22.2141227722167969
-27.33233642578125 10.118438720703125 25.3295516967773438
-16.5120964050292969 -5.24594783782958984 -7.46823263168334961
-27.103179931640625 8.37849235534667969 19.1808719635009766
-4.4021153450012207 -7.89129352569580078 -27.9095325469970703
-6.08576059341430664 0.624632716178894043 15.1298341751098633
-8.06627559661865234 11.5930919647216797 -21.9135360717773438
14.931269645690918 13.4001569747924805 -14.8339366912841797
22.9010505676269531 -10.0190038681030273 -3.51987457275390625
-17.7105464935302734 1.52069592475891113 7.69517326354980469
-23.9457740783691406 12.3208189010620117 -18.7730274200439453
0.923789918422698975 -5.38214302062988281 15.9085016250610352
8.44391345977783203 -4.46181535720825195 5.34464645385742188
-15.6041555404663086 2.94485139846801758 -29.3327484130859375
6.05604076385498047 9.16585922241210938 5.34075593948364258
-16.8528461456298828 12.6286649703979492 4.14449834823608398
8.87602996826171875 13.5241775512695312 -11.7346401214599609
-26.5997695922851562 5.43832588195800781 -21.1629276275634766
12.373631477355957 -0.880730748176574707 -26.5056571960449219
-14.7292623519897461 -9.03665924072265625 -24.2587413787841797
25.9756813049316406 -3.91953587532043457 13.9091262817382812
6.33992815017700195 8.89311885833740234 36.4671630859375
3.65647029876708984 10.5618820190429688 9.31900310516357422
-18.86279296875 -9.407989501953125 24.6654224395751953
23.6106967926025391 8.38627243041992188 -17.3253536224365234
9.29752254486083984 13.5250711441040039 -6.70600748062133789
10.0175762176513672 -10.439082145690918 -18.5718402862548828
7.71115922927856445 12.7178277969360352 -16.8061141967773438
18.102752685546875 13.3477115631103516 -15.5632467269897461
-15.9489126205444336 -6.66768026351928711 13.5393381118774414
-21.9175682067871094 14.7058258056640625 26.2502956390380859
-17.324005126953125 14.7513084411621094 20.3809604644775391
13.9147605895996094 -12.0292377471923828 20.3520641326904297
-15.5537986755371094 11.7357330322265625 -9.13594436645507812
29.0877552032470703 13.9109010696411133 3.39958429336547852
5.44479656219482422 10.727717399597168 1.89728295803070068
17.2459564208984375 -1.23472678661346436 28.2064361572265625
-19.8185024261474609 2.94576239585876465 9.11868953704833984
0.466050773859024048 11.6541852951049805 -26.9348220825195312
-21.0500125885009766 7.298980712890625 -27.6445388793945312
-13.2144021987915039 -4.72478628158569336 33.509063720703125
22.2428207397460938 -9.78544521331787109 17.0167922973632812
5.50248384475708008 -12.1331262588500977 22.0911979675292969
-12.7500295639038086 -8.13156986236572266 -27.1747474670410156
-17.3376350402832031 -1.85430693626403809 9.68505668640136719
9.73908710479736328 14.2780799865722656 16.7270870208740234
15.8607769012451172 9.61937332153320312 31.7935047149658203
10.524470329284668 -8.07492637634277344 4.99048042297363281
2.75080347061157227 0.397229015827178955 -8.05846118927001953
24.5215511322021484 -6.3817291259765625 15.7623538970947266
19.5191020965576172 2.42754197120666504 -21.7420291900634766
4.76654338836669922 12.0315799713134766 1.77085638046264648
27.7790679931640625 13.8457155227661133 -2.2964479923248291
-25.8855361938476562 12.3382558822631836 -9.31056118011474609
24.9753208160400391 -7.62206697463989258 13.357579231262207
-16.6023406982421875 8.45951747894287109 34.3051605224609375
23.3202571868896484 14.8549318313598633 8.38387584686279297
-13.8715572357177734 -10.4180507659912109 -21.7970123291015625
25.4748592376708984 -4.24581146240234375 15.1394777297973633
4.63487339019775391 7.42602634429931641 -31.4348354339599609
-27.3426570892333984 7.79901790618896484 19.5508918762207031
2.81009030342102051 14.1801509857177734 28.9328022003173828
-6.11022853851318359 -11.3991928100585938 29.7454299926757812
-4.57042980194091797 1.5687333345413208 15.4249763488769531
28.3726825714111328 -1.96952438354492188 9.19317722320556641
-5.25921249389648438 15.4044609069824219 28.0835609436035156
-15.2279634475708008 -2.96914434432983398 -5.90231800079345703
18.2052574157714844 15.1159820556640625 9.05363559722900391
-8.54492378234863281 4.50241804122924805 -31.7596950531005859
-18.6404170989990234 14.9485454559326172 25.8745670318603516
20.424957275390625 -10.4888391494750977 19.0359077453613281
18.7777690887451172 -11.6885643005371094 17.8213977813720703
3.07084226608276367 11.6407642364501953 -29.0608844757080078
-10.5883188247680664 -0.246085137128829956 12.9017724990844727
29.4686126708984375 3.25101566314697266 6.98393440246582031
8.81699848175048828 -10.7823371887207031 16.460296630859375
22.8503913879394531 -9.03459739685058594 -9.42165470123291016
20.2107315063476562 -11.7983341217041016 7.15129375457763672
22.3004703521728516 14.99554443359375 20.6300888061523438
-19.2434406280517578 4.91510391235351562 1.35503387451171875
27.7476291656494141 11.4450464248657227 -14.8389720916748047
17.6174297332763672 -11.9363508224487305 15.8677358627319336
19.2651901245117188 14.3174524307250977 30.8249797821044922
-6.31692218780517578 -2.99455928802490234 -29.7705764770507812
-26.8328018188476562 11.00286865234375 20.2084083557128906
-16.4771442413330078 12.6255674362182617 4.02563333511352539
-3.81307291984558105 6.5917205810546875 -32.5122795104980469
3.40048098564147949 -9.35571956634521484 -25.5676975250244141
-11.0487022399902344 -1.337982177734375 -29.4454193115234375
-7.34231710433959961 -11.3693218231201172 23.5047740936279297
29.6032772064208984 3.29146504402160645 6.11331939697265625
-3.18538975715637207 -10.7989826202392578 30.2574214935302734
9.40625762939453125 -7.78226137161254883 8.81136131286621094
20.8647403717041016 13.452662467956543 -14.0980901718139648
5.13207721710205078 1.48022997379302979 -30.3713951110839844
6.54261684417724609 -11.9699764251708984 27.7780055999755859
7.61384725570678711 15.6630220413208008 32.6005821228027344
4.93838930130004883 13.3211383819580078 0.922368347644805908
-25.2213878631591797 -8.75608348846435547 -16.9838352203369141
0.865304648876190186 -8.71972274780273438 -26.4407958984375
27.7411212921142578 14.7945032119750977 16.8608856201171875
7.44515800476074219 -10.7933101654052734 17.5184154510498047
7.52667570114135742 -3.70756864547729492 -2.39476299285888672
-11.3497323989868164 12.2152795791625977 14.7185850143432617
-23.5644702911376953 6.63730239868164062 10.7524175643920898
8.89684104919433594 -7.47546911239624023 -25.7473602294921875
-1.94246065616607666 -0.68265533447265625 15.6508321762084961
3.26788687705993652 5.56613683700561523 11.9469451904296875
10.2044553756713867 12.8476095199584961 -18.0538234710693359
17.6870765686035156 13.4501514434814453 31.7505340576171875
-30.0941200256347656 11.0045108795166016 -20.3441352844238281
27.5951576232910156 4.88043785095214844 15.5690393447875977
11.6372880935668945 -9.55105018615722656 -21.5524883270263672
5.12305259704589844 -10.6929111480712891 -17.6376094818115234
1.15304195880889893 -11.2524442672729492 22.0824699401855469
7.12724828720092773 12.2160148620605469 -24.5724773406982422
-14.9267911911010742 -10.4144153594970703 -13.8437404632568359
-2.10902786254882812 12.2472753524780273 -17.7235431671142578
4.83688449859619141 -10.4936771392822266 -17.0756187438964844
-25.7040119171142578 13.5651092529296875 -0.379035264253616333
19.9075603485107422 6.2561030387878418 27.9402675628662109
-4.08910131454467773 11.6354885101318359 -15.8332347869873047
21.7269191741943359 15.1134910583496094 13.6231975555419922
8.25299835205078125 14.6787261962890625 30.5791416168212891
-14.2940034866333008 -10.3827219009399414 -14.149754524230957
1.40551996231079102 -7.98304033279418945 17.2032985687255859
-18.235015869140625 -10.0088491439819336 -20.9007015228271484
-4.65674495697021484 15.4422378540039062 28.5804634094238281
-4.4661107063293457 14.9186038970947266 36.8428421020507812
-17.76336669921875 -9.96620845794677734 23.4045066833496094
-0.657370448112487793 12.3473691940307617 -9.42648601531982422
-17.0475177764892578 -9.69741439819335938 -9.19042110443115234
-3.67132663726806641 -9.31093025207519531 -26.3401203155517578
25.9444580078125 14.7988367080688477 13.0536298751831055
6.06380414962768555 13.2769193649291992 37.7465705871582031
20.3882923126220703 14.1979827880859375 -2.69978880882263184
21.1577987670898438 8.18093395233154297 26.6760520935058594
-11.2901697158813477 7.77125787734985352 -2.24622964859008789
15.7313470840454102 15.0713520050048828 11.2918529510498047
-15.2369012832641602 -9.51452064514160156 -13.0201749801635742
-18.8832054138183594 12.3132572174072266 -11.3858823776245117
17.3556404113769531 6.38737821578979492 30.15087890625
-24.2641124725341797 5.51814079284667969 14.089385986328125
-15.2218723297119141 14.6816883087158203 35.1085662841796875
-14.0968236923217773 -3.09702396392822266 9.18174457550048828
26.1565608978271484 -6.83443403244018555 -2.247772216796875
-2.78419852256774902 -9.77847862243652344 20.4876422882080078
-12.1761960983276367 14.5371561050415039 38.0953254699707031
13.5321683883666992 -11.0303411483764648 -8.46590518951416016
-18.3248348236083984 6.08556127548217773 -28.7351284027099609
20.2412528991699219 13.4073772430419922 -14.5365505218505859
15.7743692398071289 10.8680181503295898 -29.06842041015625
26.0752143859863281 14.9352893829345703 20.3770847320556641
24.5344734191894531 14.7836875915527344 12.2950811386108398
-24.8230419158935547 12.3699827194213867 -13.1472606658935547
7.91219997406005859 13.8982572555541992 -0.366381287574768066
5.26127290725708008 -1.81465280055999756 11.5715160369873047
16.6653728485107422 -11.684234619140625 2.69087123870849609
-4.08470344543457031 13.0460052490234375 19.1753025054931641
-10.0363349914550781 -6.92852020263671875 33.4524345397949219
15.6316022872924805 -12.3573551177978516 12.3105077743530273
23.6578865051269531 -8.12170314788818359 -9.09499454498291016
-21.8123550415039062 1.60044050216674805 -25.3278484344482422
11.4235363006591797 -7.49328899383544922 -24.3558082580566406
-3.56238460540771484 -8.78230476379394531 19.0375957489013672
-13.3902225494384766 -7.96468019485473633 -9.64269065856933594
-25.4049835205078125 12.9878215789794922 29.6367073059082031
28.7739276885986328 5.55243873596191406 -6.40029001235961914
-4.55957126617431641 -10.5853719711303711 -20.3971977233886719
-2.40366268157958984 12.0329799652099609 -20.3784141540527344
21.8764095306396484 0.178579509258270264 23.7788410186767578
29.6251564025878906 7.84301185607910156 -4.71084928512573242
4.15942716598510742 12.9925804138183594 -1.32234609127044678
-5.47387599945068359 -8.81111526489257812 18.9646644592285156
-27.6806468963623047 6.86106348037719727 -9.81681060791015625
13.5508317947387695 -10.6205005645751953 -0.247951433062553406
8.186126708984375 4.0016932487487793 -29.9536361694335938
15.5926790237426758 -12.1134548187255859 18.6396675109863281
-8.48639774322509766 -4.23558712005615234 -29.1200714111328125
-11.5224370956420898 7.15951919555664062 -1.83759927749633789
5.50980615615844727 -10.3297910690307617 -14.3804149627685547
25.8401966094970703 14.7061567306518555 6.77263355255126953
2.77229046821594238 -3.61725687980651855 -9.11918067932128906
-24.1584701538085938 7.0266880989074707 0.0456498898565769196
14.0076560974121094 3.6488950252532959 32.0157966613769531
-20.9210319519042969 -0.706090450286865234 -6.61995124816894531
-5.49472665786743164 -0.0694322213530540466 15.9728422164916992
28.3040771484375 11.7606430053710938 -14.1483497619628906
-4.21350193023681641 6.97225475311279297 37.4943161010742188
-10.9518632888793945 7.33365011215209961 -3.04513025283813477
16.9387035369873047 14.8678016662597656 23.4961624145507812
7.66004800796508789 1.34668576717376709 2.80941581726074219
-28.28485107421875 10.499974250793457 -11.917384147644043
-22.1562080383300781 -9.35700130462646484 19.8413448333740234
20.648162841796875 15.12060546875 24.5615787506103516
-16.8789253234863281 14.7333564758300781 32.6533393859863281
-25.5067005157470703 -3.89370083808898926 24.2118034362792969
-23.87982177734375 13.5042047500610352 31.3065395355224609
-19.8185443878173828 -9.98444652557373047 -19.1720504760742188
-10.4085302352905273 10.4324398040771484 -32.5504493713378906
-15.028529167175293 -4.82692766189575195 32.6576919555664062
7.6356968879699707 2.5328373908996582 34.7127838134765625
-0.877002835273742676 4.11118602752685547 -31.6700363159179688
-19.5017738342285156 -10.3704404830932617 -18.796173095703125
5.79356098175048828 11.201268196105957 -32.8442955017089844
4.83754587173461914 4.80958271026611328 10.4474363327026367
-18.1547298431396484 0.623389363288879395 -27.4828948974609375
25.3027725219726562 5.37735986709594727 20.7796134948730469
0.530430793762207031 -3.20735979080200195 -10.5477457046508789
-22.514984130859375 14.5291976928710938 20.9461097717285156
4.72821378707885742 13.65142822265625 7.56699609756469727
29.7178287506103516 15.2206888198852539 11.9706020355224609
25.7315196990966797 14.0734844207763672 -1.88067185878753662
30.1581001281738281 13.9969615936279297 15.3546075820922852
-6.48463869094848633 -2.18151426315307617 -10.8646907806396484
18.1789340972900391 14.5944509506225586 11.6981029510498047
-15.0919923782348633 11.5791091918945312 -0.326628983020782471
20.7373886108398438 -11.108067512512207 1.15851867198944092
-22.2841377258300781 11.3778181076049805 31.8969154357910156
6.12817478179931641 11.5565681457519531 -30.4234256744384766
11.6306295394897461 -12.4544534683227539 21.7554569244384766
25.8473148345947266 14.9688081741333008 19.7518081665039062
9.78477096557617188 -11.4981727600097656 26.9373073577880859
-9.54164791107177734 -10.5505084991455078 22.3824920654296875
4.80382204055786133 9.35380744934082031 -2.62287497520446777
-21.9202842712402344 12.9101505279541016 7.42284774780273438
15.2996330261230469 12.7701883316040039 -22.3805637359619141
-24.8388786315917969 -7.21551370620727539 -19.1153850555419922
8.34465408325195312 -7.95163393020629883 11.3462486267089844
-15.3937978744506836 11.6639995574951172 3.16530752182006836
19.4248027801513672 12.9678535461425781 -18.6731739044189453
27.8216743469238281 15.0944795608520508 10.576899528503418
-21.7643966674804688 -2.11870265007019043 -6.87637710571289062
14.2424793243408203 14.874567985534668 20.1315097808837891
-12.4559726715087891 -11.2374229431152344 -17.1022739410400391
-27.3255157470703125 -4.86241960525512695 -10.2698984146118164
-19.7174739837646484 10.4183387756347656 5.44896936416625977
12.1620569229125977 4.2314763069152832 -28.0249919891357422
-3.56863021850585938 6.01622676849365234 -32.4290122985839844
24.4873332977294922 14.5288801193237305 2.11523151397705078
-13.3642807006835938 -8.03320503234863281 32.2043647766113281
-17.3784637451171875 -10.1666584014892578 20.4434070587158203
19.7761650085449219 13.2233772277832031 30.0248470306396484
10.4802732467651367 14.388427734375 7.78233432769775391
21.8206539154052734 -7.01001548767089844 20.5962314605712891
-23.3802585601806641 -3.14770841598510742 -6.94617033004760742
-5.95806407928466797 -6.38270807266235352 17.4550209045410156
-21.6383628845214844 -6.32937479019165039 -22.3201255798339844
29.372894287109375 3.19893169403076172 3.4661407470703125
2.80843877792358398 14.2780122756958008 30.5933036804199219
5.47661495208740234 -0.157751739025115967 10.8322334289550781
-16.6455535888671875 13.7120285034179688 14.242863655090332
-1.01398384571075439 11.0600662231445312 -7.48994112014770508
25.5211639404296875 -5.67227840423583984 13.646601676940918
6.9323582649230957 -10.6581764221191406 17.5623874664306641
11.5132484436035156 12.9451351165771484 -18.6302528381347656
-13.6046266555786133 -9.76468849182128906 18.0401554107666016
-9.04297924041748047 -1.63741588592529297 -9.72832202911376953
0.0362367257475852966 14.032623291015625 12.9038753509521484
-9.53580760955810547 11.7524957656860352 -24.0461463928222656
21.0911598205566406 15.196990966796875 13.8972263336181641
13.5631914138793945 13.9020395278930664 17.4716472625732422
-16.5936164855957031 12.2308664321899414 5.98018455505371094
18.3638191223144531 -10.0433788299560547 21.7753562927246094
-7.1709895133972168 0.109673991799354553 -30.7225399017333984
-11.3247776031494141 -10.2493305206298828 -15.2740011215209961
-9.05331611633300781 -9.45373725891113281 -25.6934604644775391
-25.3866443634033203 -0.230768561363220215 26.0809516906738281
-8.80219364166259766 8.76657485961914062 -6.29143476486206055
-18.6593818664550781 -4.20235490798950195 30.8397350311279297
-26.7085971832275391 11.2853507995605469 22.7041339874267578
12.4134454727172852 13.8673496246337891 -3.06216907501220703
-26.0202350616455078 -2.18433713912963867 18.3740310668945312
5.67833662033081055 9.80856227874755859 6.19088602066040039
-11.0765018463134766 -10.4894886016845703 -16.1985149383544922
13.9886283874511719 13.0189743041992188 -19.9622726440429688
6.18228864669799805 -10.8746728897094727 29.5865116119384766
-6.74103164672851562 15.0700893402099609 25.8989238739013672
0.824448704719543457 3.1838221549987793 14.1522760391235352
-14.5905427932739258 -10.2897825241088867 -13.9455099105834961
14.8440761566162109 -12.2091741561889648 18.1939697265625
-12.1666994094848633 -10.0523509979248047 20.5762100219726562
27.2116641998291016 -3.77322125434875488 -1.5127406120300293
20.2796878814697266 -6.0964350700378418 23.0476799011230469
-23.6252079010009766 14.1406574249267578 14.6666479110717773
-24.7931289672851562 -6.77749395370483398 -19.3688869476318359
-28.2559299468994141 6.41488265991210938 -10.9579076766967773
-24.5723152160644531 10.9852228164672852 2.0237581729888916
-28.155181884765625 -5.21399354934692383 -11.4807939529418945
-24.8687934875488281 -7.09043264389038086 -12.4629507064819336
-26.1253547668457031 -2.753173828125 18.7454166412353516
29.4188995361328125 5.33520889282226562 -3.79028630256652832
-7.85309314727783203 -10.917943000793457 31.1062068939208984
-11.3663215637207031 7.03775358200073242 4.99083948135375977
11.5058403015136719 14.2628850936889648 0.574803471565246582
-5.07973575592041016 -11.7616672515869141 28.8109645843505859
22.1547718048095703 15.2247743606567383 27.1266841888427734
-15.0869693756103516 2.57507586479187012 2.34205508232116699
-8.94110870361328125 12.4389705657958984 -6.99715709686279297
11.9558334350585938 11.8766021728515625 -28.3609409332275391
13.9716882705688477 12.1899127960205078 -26.7812480926513672
10.3471593856811523 1.04491591453552246 -28.2398834228515625
-12.354405403137207 10.2149438858032227 9.82787322998046875
10.1263351440429688 14.4034385681152344 23.4851188659667969
6.31380701065063477 13.6646194458007812 -0.392191886901855469
-5.34368801116943359 2.7905426025390625 -31.6117591857910156
-22.4885272979736328 2.24323272705078125 -4.62847757339477539
25.4669075012207031 -8.70154094696044922 4.23199605941772461
-0.756659984588623047 11.7429409027099609 -27.3048801422119141
-4.38100051879882812 -9.8709869384765625 32.9718093872070312
16.9028682708740234 -12.2189617156982422 11.6437110900878906
-24.7070331573486328 -5.92913627624511719 -9.86473655700683594
-24.3664226531982422 -8.02770519256591797 21.0596580505371094
1.8054358959197998 -8.48312854766845703 17.9578170776367188
24.8685226440429688 -3.95339274406433105 17.0095081329345703
28.3155193328857422 -1.88827574253082275 3.2673804759979248
20.5050849914550781 15.1329965591430664 18.1585254669189453
4.49517250061035156 4.66370630264282227 -4.98441219329833984
-17.8560905456542969 11.1648931503295898 -26.0877456665039062
-8.7973480224609375 -8.99653720855712891 19.9226112365722656
4.74290752410888672 12.8899240493774414 -12.8560361862182617
16.9392795562744141 0.838549375534057617 -23.6934432983398438
27.2818088531494141 13.8940935134887695 -2.66205954551696777
-9.70362663269042969 15.5827665328979492 29.3372707366943359
17.3133411407470703 3.70948195457458496 -24.400634765625
-22.1944465637207031 13.2535610198974609 32.8396873474121094
9.68476676940917969 -11.388148307800293 27.4655609130859375
12.3597517013549805 14.5979223251342773 25.5862369537353516
14.7954006195068359 14.7932338714599609 7.25252103805541992
-14.7288417816162109 13.8836498260498047 13.6703948974609375
-26.4959430694580078 8.98700141906738281 17.8016338348388672
-10.09368896484375 -8.72704982757568359 -12.7820272445678711
-21.2313003540039062 2.4376983642578125 12.1469211578369141
-9.99675559997558594 -10.7923898696899414 -17.9637889862060547
1.31035959720611572 -7.33753538131713867 -27.9892444610595703
-30.7589244842529297 6.9511561393737793 -16.00250244140625
-18.1253890991210938 -2.1215815544128418 12.6344480514526367
-2.26114463806152344 11.4550514221191406 -31.2128829956054688
-18.7713890075683594 13.1150875091552734 11.246734619140625
15.4459896087646484 -10.8045730590820312 -3.0859992504119873
24.1909408569335938 -8.56301116943359375 -6.4904780387878418
17.7684230804443359 -2.74866485595703125 -21.4857883453369141
3.23445916175842285 9.16738700866699219 37.3569755554199219
-8.46479606628417969 -3.30426144599914551 14.9786815643310547
-25.7487316131591797 -5.00563430786132812 -8.09503555297851562
-19.94671630859375 1.76173293590545654 -26.6532402038574219
-17.4677371978759766 -3.94328737258911133 -6.27499818801879883
1.32434666156768799 14.519801139831543 25.6460475921630859
-20.8039379119873047 -0.805135726928710938 13.3272304534912109
0.904549241065979004 11.3906774520874023 -33.2245292663574219
-11.4121026992797852 5.77644968032836914 6.02237510681152344
-1.66564655303955078 -0.489372402429580688 -30.7717990875244141
13.0187568664550781 14.7315101623535156 25.4102096557617188
-12.6990575790405273 14.5787687301635742 37.6988563537597656
-28.1242256164550781 11.5151805877685547 -9.63833427429199219
23.3172836303710938 3.66287565231323242 -17.0763607025146484
13.5745983123779297 -10.731083869934082 6.39422845840454102
-26.6771583557128906 -7.69719791412353516 -13.1623754501342773
-11.4170017242431641 -8.09432888031005859 16.3263206481933594
27.6947898864746094 14.7983694076538086 16.6063194274902344
-21.8237152099609375 3.32303380966186523 -3.64402127265930176
-14.9540271759033203 11.4249610900878906 0.265847504138946533
24.4513721466064453 12.7782773971557617 24.6356334686279297
13.0261220932006836 -10.6135072708129883 7.72860956192016602
20.0347557067871094 7.56108856201171875 27.5650157928466797
-25.3282489776611328 10.0115528106689453 11.1622467041015625
11.9641532897949219 -11.0063400268554688 27.0033435821533203
-7.08468532562255859 -7.21528816223144531 -28.8879337310791016
-0.396669626235961914 -9.90646839141845703 20.3062515258789062
-15.1327095031738281 1.14438557624816895 -29.0342254638671875
8.95108413696289062 14.0641851425170898 2.01068472862243652
13.0445194244384766 -10.7427101135253906 26.6326236724853516
-3.23189139366149902 -8.71449089050292969 33.8391036987304688
27.0974578857421875 -4.59646177291870117 -1.98838126659393311
-8.94101047515869141 15.5885505676269531 29.5076808929443359
3.60755300521850586 4.12675809860229492 36.3826980590820312
-23.9450168609619141 -7.90040779113769531 -14.2018318176269531
6.50857639312744141 3.047760009765625 -1.71124672889709473
8.75684928894042969 -5.30361604690551758 4.24006795883178711
24.354217529296875 -9.96898460388183594 4.37839603424072266
-14.2534389495849609 -5.06909465789794922 33.0408973693847656
19.8492622375488281 4.20612144470214844 -22.1726856231689453
-2.7427980899810791 14.228398323059082 24.9382209777832031
-11.7795619964599609 -10.9267549514770508 -16.9899253845214844
10.2456369400024414 -7.15663385391235352 -24.7454624176025391
8.04006767272949219 -4.33560848236083984 7.60663223266601562
-9.16302490234375 11.2648124694824219 -27.5455951690673828
10.5925912857055664 -11.519841194152832 18.2736167907714844
-21.1636390686035156 -9.68200206756591797 -18.7781600952148438
4.03479290008544922 12.2558746337890625 -24.4395618438720703
20.8585605621337891 -6.67478799819946289 22.0455703735351562
-6.15406608581542969 3.03492116928100586 -31.5806713104248047
-25.9632778167724609 11.9834222793579102 -20.9702816009521484
9.68778133392333984 -7.39953708648681641 4.98431301116943359
-9.87205123901367188 -1.57554042339324951 -29.6647281646728516
2.83035564422607422 1.91190385818481445 13.2189979553222656
21.1596546173095703 13.6210117340087891 -11.6659984588623047
4.2165675163269043 1.73283934593200684 -6.13605260848999023
-13.5364885330200195 11.5485506057739258 1.44367504119873047
-24.7093696594238281 12.3501167297363281 -11.6792421340942383
12.4001178741455078 -0.910079896450042725 -26.4710865020751953
-17.8547630310058594 3.59589529037475586 2.14274716377258301
14.7996702194213867 14.5517501831054688 1.5965343713760376
3.96035337448120117 -12.3343124389648438 26.8739852905273438
2.80901980400085449 -6.7907109260559082 16.2530803680419922
9.62437820434570312 -10.5574092864990234 -12.4334955215454102
-10.4448060989379883 11.6690397262573242 -21.9349269866943359
-3.44240713119506836 -2.16965198516845703 -11.0170707702636719
16.9449748992919922 -11.2290258407592773 -3.14643502235412598
8.91774463653564453 14.1889305114746094 8.04576015472412109
-9.10542106628417969 10.997553825378418 -4.54155540466308594
-15.7964153289794922 -0.055104866623878479 33.6041793823242188
-21.4162425994873047 11.8396720886230469 -21.3078079223632812
-20.3655986785888672 -5.96137094497680664 -23.5174713134765625
-2.54426312446594238 15.2235517501831055 32.3994102478027344
-0.307782769203186035 5.67823171615600586 14.0513648986816406
12.1811256408691406 -2.8003699779510498 31.523040771484375
-4.34194564819335938 -1.17324197292327881 -11.0801582336425781
-19.2588634490966797 -10.0954933166503906 16.963592529296875
-18.0842514038085938 0.306141912937164307 8.94104290008544922
-16.8303508758544922 11.5468196868896484 -18.1396675109863281
5.88654136657714844 9.0511627197265625 6.16984081268310547
-13.3830137252807617 -2.6665961742401123 -5.43545961380004883
-19.6451797485351562 -4.43631982803344727 16.4694843292236328
-13.0064458847045898 14.048065185546875 37.7669754028320312
-22.7450408935546875 13.9794321060180664 -0.0737006068229675293
-16.9324913024902344 4.10255146026611328 3.1578218936920166
4.05004358291625977 -3.39636898040771484 34.4342117309570312
12.2631092071533203 11.7078962326049805 -29.2787818908691406
-13.1812419891357422 -1.57779514789581299 -4.5470433235168457
-9.28750324249267578 5.79985952377319336 -7.73778200149536133
19.1040592193603516 -11.963709831237793 9.66199207305908203
-28.3409614562988281 -0.5289803147315979 -9.47923469543457031
-6.62185239791870117 2.44122457504272461 14.6094684600830078
-7.41566133499145508 7.31655645370483398 13.6012401580810547
27.9529037475585938 13.5306129455566406 -5.26863193511962891
-17.1251907348632812 -10.1212806701660156 17.4047050476074219
16.9006443023681641 13.7141923904418945 -7.19258689880371094
28.1086597442626953 14.7578029632568359 16.3657436370849609
-14.5980854034423828 11.8825225830078125 -6.0394749641418457
8.82494735717773438 14.5562829971313477 24.1619243621826172
-23.8626842498779297 -6.49667882919311523 -20.0483455657958984
19.7386875152587891 -9.68989276885986328 -12.5928287506103516
-13.7412538528442383 -5.83098411560058594 32.832000732421875
-2.01426386833190918 6.17249011993408203 -32.0864715576171875
-10.4073467254638672 11.7501230239868164 -25.3584079742431641
21.4418182373046875 -9.64630985260009766 -9.97429370880126953
-25.6656150817871094 -7.67654561996459961 -17.8001232147216797
-6.10273408889770508 11.6444673538208008 -14.945805549621582
9.05733776092529297 7.28882646560668945 -30.0931835174560547
-2.84332561492919922 5.46155023574829102 -32.1661491394042969
4.03771257400512695 10.1857995986938477 9.01042079925537109
9.14067363739013672 12.6688213348388672 -19.8699665069580078
0.741155385971069336 11.482635498046875 38.4703216552734375
-25.1633472442626953 8.58786392211914062 -24.8360252380371094
10.4523019790649414 -10.6972236633300781 -15.7214975357055664
