ply
format ascii 1.0
element vertex 780
comment vertices
property float x
property float y
property float z
end_header
-14.8723258972167969 10.6053285598754883 30.2583198547363281
-10.0691747665405273 -8.26365852355957031 -15.0305709838867188
6.24584197998046875 -14.9369468688964844 -22.9501190185546875
-1.24154007434844971 3.22601485252380371 -9.45038795471191406
0.215286374092102051 4.53954744338989258 -7.38524007797241211
5.57658052444458008 -13.8897876739501953 9.53423595428466797
-4.02437114715576172 10.6231098175048828 31.2489528656005859
22.9413986206054688 -9.01190567016601562 -13.2776088714599609
20.7964572906494141 2.31773781776428223 12.3257055282592773
-7.90625667572021484 4.69510602951049805 -36.4205894470214844
-2.96319842338562012 1.66400635242462158 -11.3727006912231445
6.61367273330688477 -10.2181100845336914 27.1765804290771484
21.6412830352783203 -12.7131586074829102 -5.58078336715698242
-15.3373184204101562 2.29889941215515137 -24.1476936340332031
-21.4880847930908203 -14.4956283569335938 29.9595947265625
-17.5486888885498047 0.119315832853317261 35.363922119140625
-19.0690479278564453 -2.39374971389770508 36.1138496398925781
12.2226114273071289 -8.0574493408203125 -31.3199443817138672
-20.4749279022216797 -11.6079998016357422 26.4318046569824219
24.1940517425537109 -4.35951948165893555 -5.43098783493041992
20.1106147766113281 -14.5424299240112305 -14.1758241653442383
-10.1414394378662109 -1.19697320461273193 35.072540283203125
9.15729427337646484 13.6515026092529297 -3.97667479515075684
-25.2992515563964844 9.28871059417724609 14.4932689666748047
-13.0096530914306641 12.855316162109375 22.7728900909423828
20.9258384704589844 -6.04188632965087891 -22.0665836334228516
9.63677406311035156 14.637171745300293 14.0965719223022461
-13.5353107452392578 -12.9956378936767578 8.35775566101074219
-22.3859157562255859 8.07206058502197266 17.4999542236328125
-20.1806526184082031 -3.63536310195922852 30.1626167297363281
4.81355476379394531 11.3283615112304688 -0.338621288537979126
22.5382823944091797 -13.1315889358520508 -9.99306583404541016
17.3751220703125 -14.0833711624145508 11.000248908996582
-7.22151041030883789 -0.725804686546325684 -15.9990215301513672
-24.5050582885742188 11.1760444641113281 17.1075458526611328
-0.0199460070580244064 11.1937799453735352 6.98048496246337891
-6.12795019149780273 -9.68640804290771484 5.78144216537475586
16.1309585571289062 12.2312345504760742 -8.42858028411865234
19.5569000244140625 -0.669912219047546387 14.5287942886352539
11.9378948211669922 8.71156597137451172 21.2791938781738281
1.36596441268920898 11.3699855804443359 -14.4521970748901367
-3.62704968452453613 8.52156448364257812 -13.8744878768920898
12.3360137939453125 -11.0486745834350586 -29.3022956848144531
1.55451881885528564 -5.22225379943847656 -37.5153160095214844
-21.1908111572265625 12.4642276763916016 24.0071029663085938
-19.5615673065185547 -13.4351625442504883 24.1994304656982422
-17.2921142578125 -9.05124855041503906 -25.9407501220703125
20.4381046295166016 -9.53710460662841797 13.1603107452392578
-14.5800380706787109 7.06936979293823242 -35.3221893310546875
18.1249141693115234 -9.78003883361816406 17.1853141784667969
2.39720344543457031 -8.49020290374755859 -37.5502243041992188
22.9920272827148438 -0.727012276649475098 -6.19281339645385742
18.3996315002441406 5.96961212158203125 13.4600601196289062
-7.08429479598999023 8.95039176940917969 -33.3692169189453125
-15.7290353775024414 -5.88854598999023438 36.8885383605957031
2.5585782527923584 -3.04779815673828125 32.301727294921875
-0.33767092227935791 11.8243045806884766 29.0565357208251953
-16.5282669067382812 -8.74761486053466797 35.8058052062988281
14.1603536605834961 12.6601991653442383 -8.24687099456787109
7.31190347671508789 4.98360729217529297 28.7946739196777344
-2.66594195365905762 -7.59308195114135742 -4.07564735412597656
16.3356971740722656 -14.6685018539428711 -5.95743465423583984
-7.25037527084350586 -5.75213050842285156 37.1242485046386719
-12.7384767532348633 -2.10179805755615234 -19.9672908782958984
-11.899836540222168 -9.75635051727294922 -18.0095157623291016
8.09047031402587891 14.4408445358276367 15.8702211380004883
-18.3596649169921875 1.95890939235687256 -31.2544078826904297
0.385123938322067261 13.1251382827758789 19.9113502502441406
11.3136529922485352 -2.66087698936462402 25.9528923034667969
7.38157129287719727 2.30071687698364258 -32.9437675476074219
9.61928272247314453 -14.9963932037353516 -28.3903045654296875
-9.01529121398925781 -14.6785221099853516 -23.5037918090820312
0.851245403289794922 10.3664436340332031 -28.7316341400146484
-21.3550643920898438 -12.9767646789550781 27.192413330078125
0.780457913875579834 -14.8756914138793945 -24.8961620330810547
-7.4170074462890625 -12.8765621185302734 -12.6784839630126953
0.22406749427318573 4.98567724227905273 3.69989657402038574
15.3615474700927734 -14.4960422515869141 -25.8868637084960938
9.22054481506347656 -13.9429693222045898 -30.6607894897460938
-20.7060184478759766 7.99008846282958984 12.6669769287109375
-18.4659862518310547 -12.7631769180297852 -35.3440475463867188
-20.7989387512207031 -3.12625956535339355 32.8732223510742188
26.3511791229248047 -7.69777822494506836 -1.54674160480499268
22.5741958618164062 -11.655634880065918 7.29037141799926758
14.5558071136474609 -9.0714263916015625 -27.9102344512939453
-7.40700769424438477 11.0202960968017578 -19.9655513763427734
7.08781242370605469 6.52343606948852539 -30.9225807189941406
24.1493701934814453 -4.37578058242797852 6.40409278869628906
19.8033008575439453 3.51292538642883301 -15.3234519958496094
-3.01369142532348633 0.317003250122070312 8.01218891143798828
25.1664352416992188 -8.09242057800292969 -7.84956741333007812
17.2419338226318359 -15.078700065612793 -17.9453907012939453
-9.31626319885253906 -7.48828649520874023 8.30823326110839844
12.5201282501220703 -15.026423454284668 -18.8147525787353516
-2.90151524543762207 -6.84768962860107422 -1.07515549659729004
-19.6753768920898438 -3.2838587760925293 23.427032470703125
13.1226997375488281 -10.2010498046875 22.4384975433349609
8.44268894195556641 -8.78656291961669922 -34.0549049377441406
-15.5769519805908203 10.3080358505249023 30.6798286437988281
20.3377475738525391 -2.9774324893951416 -19.2747879028320312
13.1203289031982422 -10.1473722457885742 -27.4749507904052734
-8.35939979553222656 10.9033060073852539 14.6968975067138672
6.97243309020996094 12.1787271499633789 -3.11257123947143555
-2.72575974464416504 -13.1194248199462891 -3.3443450927734375
-10.241729736328125 -14.6833858489990234 -25.0868759155273438
11.1244802474975586 12.6222171783447266 12.4712762832641602
22.7341098785400391 -12.4773235321044922 7.75931215286254883
0.00949521362781524658 1.19620418548583984 3.13604593276977539
-2.53955912590026855 -10.1613826751708984 32.2847175598144531
11.0521240234375 7.9941859245300293 22.8565521240234375
-18.5376834869384766 5.82231330871582031 -32.9954147338867188
-8.01712608337402344 13.0538234710693359 22.0247039794921875
-19.6520977020263672 -8.36710929870605469 -34.6633224487304688
15.9382991790771484 -15.0777959823608398 -23.0908355712890625
10.7765712738037109 14.1841630935668945 -1.8249974250793457
18.5188941955566406 -14.8435325622558594 -8.93811607360839844
-12.954808235168457 5.42526626586914062 -36.4270858764648438
-6.40372276306152344 -0.883422136306762695 10.6087169647216797
18.2800960540771484 -14.8744516372680664 -10.1303491592407227
-19.5136146545410156 -6.45770406723022461 20.1645908355712891
-3.94371557235717773 -3.31152462959289551 -9.93887233734130859
9.49366855621337891 12.3097667694091797 16.1342315673828125
-2.16234087944030762 -5.86618328094482422 0.565851092338562012
-18.0139369964599609 -2.02538228034973145 36.8703689575195312
22.2567024230957031 3.20996379852294922 -7.00988435745239258
-6.6013493537902832 -5.31693267822265625 9.56087779998779297
11.5332460403442383 13.5389537811279297 -16.0889930725097656
-21.2138557434082031 11.5385665893554688 16.5202617645263672
2.82474255561828613 -14.4641780853271484 -34.323211669921875
-16.8672657012939453 -13.8214197158813477 13.9281892776489258
8.97108745574951172 1.00528824329376221 -30.7540950775146484
-23.4515361785888672 3.98007774353027344 33.67108154296875
-11.4426116943359375 4.18794679641723633 -17.8150501251220703
7.14343833923339844 4.77371406555175781 28.8116531372070312
21.1684284210205078 -14.3639249801635742 3.54985857009887695
6.63033056259155273 -14.8876361846923828 -19.228057861328125
13.1005640029907227 11.1572856903076172 -16.9951648712158203
-7.95467281341552734 -2.41393637657165527 -15.9549016952514648
23.0750637054443359 0.931957781314849854 -1.60895121097564697
14.2176074981689453 -13.9969568252563477 16.7337150573730469
0.257797986268997192 11.0016708374023438 -14.7615222930908203
9.50403785705566406 -5.07401800155639648 29.5916366577148438
10.2986183166503906 -14.6027641296386719 23.1502761840820312
20.3958396911621094 -14.5288009643554688 -5.3650360107421875
-1.13046157360076904 -4.83947372436523438 -7.18970251083374023
-10.0055971145629883 -14.6475515365600586 -31.3290653228759766
-19.2325077056884766 -13.8689393997192383 27.5380706787109375
-5.78443479537963867 -7.33631277084350586 -9.79264068603515625
21.6786308288574219 -2.49084925651550293 14.320063591003418
-15.9048290252685547 -4.64715480804443359 -21.6151599884033203
-9.49429512023925781 -11.2219057083129883 -11.6795530319213867
-8.7203826904296875 -12.7779426574707031 -37.1245880126953125
-6.2124476432800293 -11.5530252456665039 -10.9686965942382812
-1.20868086814880371 -14.8646783828735352 -18.7989768981933594
-2.97422885894775391 -14.5629701614379883 -34.33880615234375
-8.16893959045410156 7.36647129058837891 -17.2539463043212891
-21.4305343627929688 5.33980751037597656 11.831512451171875
-6.0561070442199707 5.15058374404907227 9.91421604156494141
19.9787139892578125 -1.10157179832458496 -17.4137172698974609
11.6562032699584961 -13.1275348663330078 -30.0654182434082031
-1.14716804027557373 11.3386058807373047 -28.0720863342285156
7.3170018196105957 10.6384372711181641 23.2231960296630859
13.1342144012451172 11.7681808471679688 18.19561767578125
11.2007026672363281 3.62821245193481445 -27.6151638031005859
-23.8195953369140625 -11.1313638687133789 -37.2248725891113281
20.9771156311035156 -10.9093608856201172 -16.6991920471191406
20.3808364868164062 -12.4882020950317383 10.2199611663818359
-24.079803466796875 -12.0030813217163086 13.3663167953491211
-5.67504024505615234 -7.89401626586914062 36.3415107727050781
-20.8143424987792969 3.8514254093170166 20.8814048767089844
18.4422454833984375 10.2160520553588867 6.65639162063598633
8.21103572845458984 12.291081428527832 -1.08107233047485352
14.4464025497436523 -8.74364280700683594 23.1398887634277344
-2.96882200241088867 -9.22070789337158203 -1.74594438076019287
-22.1980247497558594 6.7015380859375 27.8727550506591797
-18.0553474426269531 7.90631675720214844 -34.3058128356933594
25.8599205017089844 -8.61202335357666016 -3.15377426147460938
-21.9213886260986328 5.56409549713134766 12.9019069671630859
11.3166475296020508 12.3985671997070312 13.5203018188476562
-13.5746784210205078 -13.5234603881835938 30.7895526885986328
-3.22531342506408691 10.1793642044067383 11.6510229110717773
9.43198871612548828 -12.4954872131347656 -32.9096183776855469
-0.886703789234161377 14.042881965637207 22.1659278869628906
8.83968734741210938 -14.8569526672363281 -16.1187992095947266
7.22267389297485352 12.8430948257446289 -6.43960475921630859
-15.7160215377807617 -14.1106138229370117 29.1957015991210938
-6.98727750778198242 13.0677289962768555 20.6522445678710938
2.51401543617248535 -14.4378271102905273 -0.171918481588363647
2.94981718063354492 -14.5300006866455078 25.6613788604736328
-19.2982444763183594 -3.6555182933807373 -33.8097610473632812
-10.6221656799316406 8.73709201812744141 -23.0820636749267578
9.5804443359375 12.8488979339599609 -8.29037189483642578
13.9260759353637695 -14.8908205032348633 -13.1371803283691406
-22.6828746795654297 5.41526699066162109 32.8251152038574219
24.512542724609375 -6.70448875427246094 -12.1597509384155273
1.51019227504730225 6.39600229263305664 -3.99694490432739258
-23.3884963989257812 -13.1959552764892578 15.6630849838256836
-1.27502357959747314 12.0332937240600586 25.4451351165771484
8.93213748931884766 -0.474997162818908691 -29.8665409088134766
-4.04664468765258789 5.37082719802856445 -35.4366607666015625
14.4665117263793945 12.2326316833496094 9.84718704223632812
-10.5596294403076172 -3.25879096984863281 -38.0323333740234375
-15.5575771331787109 12.729395866394043 23.5262432098388672
-8.75595760345458984 -9.83962726593017578 -12.6571817398071289
-19.9235591888427734 -1.69349861145019531 29.2531166076660156
-21.6652050018310547 -12.9709596633911133 20.3145465850830078
-25.2827720642089844 11.4010276794433594 15.1448087692260742
-7.95386791229248047 -14.1880083084106445 26.4227199554443359
8.82203483581542969 7.32843732833862305 24.9016799926757812
16.5173053741455078 -7.45273303985595703 -26.6829700469970703
-21.9790802001953125 -11.1041526794433594 -37.2450447082519531
18.0849437713623047 10.6191377639770508 6.21140241622924805
-11.338226318359375 0.018289441242814064 -17.293182373046875
2.05140399932861328 -14.6650199890136719 -7.07756805419921875
9.59235286712646484 -5.88741159439086914 -32.7765083312988281
-8.79595756530761719 12.5572443008422852 -27.9240646362304688
21.0743217468261719 7.47953176498413086 -3.38191771507263184
10.5235862731933594 14.4213695526123047 -0.180559158325195312
-18.9870700836181641 13.2477951049804688 25.9419956207275391
18.2840614318847656 9.4047393798828125 9.40664100646972656
-5.62877178192138672 10.4451770782470703 29.6880283355712891
2.51668620109558105 -12.9676551818847656 -35.2037696838378906
-21.40478515625 5.2087249755859375 22.5871734619140625
17.3935279846191406 -15.0007400512695312 -18.7889423370361328
16.3183536529541016 1.01277244091033936 -23.23675537109375
22.93170166015625 1.91454684734344482 -2.89565944671630859
-15.2390680313110352 10.0247554779052734 -29.2863426208496094
-20.3146343231201172 -11.2747020721435547 32.0484886169433594
0.716502487659454346 3.13432645797729492 0.992795109748840332
16.6858539581298828 -4.78836870193481445 -24.0246238708496094
10.612696647644043 11.8705997467041016 16.7036418914794922
-5.58441257476806641 10.8417339324951172 -18.6367321014404297
-9.608306884765625 -11.4530210494995117 32.5596733093261719
21.0737419128417969 -12.9816675186157227 -9.63088321685791016
22.96661376953125 -11.3176784515380859 -0.766401886940002441
-12.9607610702514648 -1.02065813541412354 -20.5666618347167969
-14.6729564666748047 0.579416751861572266 -22.6883258819580078
-12.7234373092651367 -13.9553003311157227 26.5159645080566406
-15.3221759796142578 -3.22590255737304688 -38.7123489379882812
16.4152812957763672 -7.27967643737792969 23.1055107116699219
-18.1553459167480469 3.02470302581787109 -34.6131401062011719
-15.1775102615356445 -1.71056497097015381 -22.3832225799560547
0.866750776767730713 0.676757574081420898 32.0878028869628906
-9.18160915374755859 -13.5176248550415039 21.4264926910400391
-10.6537141799926758 11.1189479827880859 -29.2606010437011719
-8.87507724761962891 6.36840105056762695 -17.9278030395507812
6.01506567001342773 -0.232395917177200317 30.0897445678710938
16.4193782806396484 11.5960607528686523 4.13843870162963867
-20.9301624298095703 -10.2239007949829102 20.9553356170654297
21.3358860015869141 -4.63683891296386719 -19.7241268157958984
19.2397098541259766 -14.3254919052124023 4.62757539749145508
-22.4697837829589844 -9.50397300720214844 -39.2626724243164062
-3.96383118629455566 2.70977687835693359 33.5246658325195312
18.6219253540039062 -11.5917205810546875 -21.2774581909179688
-2.91936683654785156 -14.2251901626586914 4.75617265701293945
-10.9674997329711914 9.75746059417724609 -24.3902435302734375
-12.6937265396118164 -1.56176936626434326 -38.075836181640625
-22.8484764099121094 10.3477287292480469 20.4120140075683594
6.94554328918457031 -13.1279945373535156 25.9342365264892578
-1.79233574867248535 4.42090272903442383 -10.5166902542114258
-18.9789314270019531 12.6225767135620117 15.9880447387695312
24.2402095794677734 4.84975719451904297 0.268589884042739868
-7.64924192428588867 -10.7271537780761719 -38.9769401550292969
5.38593196868896484 -14.7681560516357422 -15.5793685913085938
17.0977287292480469 11.2894954681396484 -14.9470920562744141
-19.7210597991943359 -8.41135787963867188 35.8926811218261719
-10.5718965530395508 -14.7211751937866211 -16.6496009826660156
19.0187206268310547 8.99121856689453125 7.89197397232055664
0.324884504079818726 -2.87949800491333008 0.906998932361602783
-13.196406364440918 0.573159515857696533 37.0426406860351562
-2.12304306030273438 11.2927541732788086 30.3939800262451172
-21.2513637542724609 10.7615499496459961 15.0390043258666992
-20.5755577087402344 1.57930052280426025 26.044342041015625
-7.01583528518676758 -5.25189352035522461 9.81128978729248047
7.60332202911376953 -14.9964485168457031 -24.7617263793945312
-5.83016300201416016 -4.71668291091918945 -12.4221630096435547
20.605865478515625 -2.48119831085205078 -15.1934986114501953
5.74774837493896484 -6.53399419784545898 -35.5242347717285156
-23.1044750213623047 7.0667576789855957 11.8371496200561523
5.34823226928710938 -14.1662130355834961 4.26331377029418945
-20.5186996459960938 3.68011927604675293 12.7183618545532227
12.8272523880004883 11.7547712326049805 18.1028823852539062
6.66936635971069336 13.4163455963134766 -12.845637321472168
-17.4869747161865234 -13.4477033615112305 19.4725074768066406
-6.84064769744873047 -7.23443508148193359 7.31335926055908203
-11.1785640716552734 3.44363188743591309 -17.3474979400634766
-5.77104473114013672 6.31549167633056641 -35.3157920837402344
9.43149852752685547 -4.26969099044799805 29.1053009033203125
14.9988288879394531 -0.280150681734085083 -24.3947658538818359
18.8238964080810547 9.26914024353027344 7.92340087890625
22.1417751312255859 8.20714473724365234 -0.187693119049072266
2.33040118217468262 12.1973762512207031 -18.0984878540039062
-23.8821315765380859 10.5416374206542969 13.8630380630493164
22.5030937194824219 -2.88506603240966797 8.2067413330078125
-24.0363254547119141 9.24627208709716797 24.5871658325195312
0.494086474180221558 11.8548049926757812 -17.0582084655761719
-16.3415451049804688 -13.9557933807373047 9.27988719940185547
-20.7244243621826172 -10.0127592086791992 33.9731559753417969
3.00101780891418457 13.1081686019897461 14.519892692565918
-18.7056064605712891 14.0720481872558594 21.2634181976318359
5.65714740753173828 -10.3202142715454102 27.9612007141113281
-0.735222160816192627 5.03613138198852539 -9.12895393371582031
-22.0364913940429688 6.90807104110717773 31.7283306121826172
5.75233268737792969 -1.94646239280700684 30.0578708648681641
1.97236967086791992 -13.7999773025512695 12.1808624267578125
0.872144758701324463 13.0970726013183594 16.1312789916992188
10.9332418441772461 14.0167999267578125 13.9212579727172852
-16.0309848785400391 -9.06481647491455078 35.5351028442382812
15.9223661422729492 11.8566761016845703 5.40092849731445312
-9.10635471343994141 -14.6994848251342773 -25.2123069763183594
-12.7099208831787109 -12.0377483367919922 32.1233673095703125
16.5660533905029297 -7.35936260223388672 -26.6099586486816406
1.56299805641174316 -3.02125334739685059 -36.7879981994628906
-13.997100830078125 4.43198156356811523 34.2621688842773438
-23.1767425537109375 9.62084197998046875 20.552337646484375
-15.3976783752441406 -14.6497154235839844 -25.7517070770263672
11.575714111328125 -14.003413200378418 3.4488222599029541
-12.4384355545043945 -0.46523439884185791 -19.7808170318603516
21.8715114593505859 -0.290870070457458496 8.28401565551757812
0.100153371691703796 0.537743568420410156 2.82293057441711426
10.8668498992919922 -13.9700698852539062 7.86986255645751953
-4.42444562911987305 -14.3454818725585938 26.3028087615966797
-12.9640426635742188 -13.1137685775756836 -21.0321407318115234
-15.7930469512939453 -4.34325790405273438 -21.1189708709716797
4.24586772918701172 14.5977344512939453 15.9570789337158203
-4.95881271362304688 0.78341144323348999 9.83700847625732422
12.3572988510131836 -12.0152578353881836 22.1734867095947266
18.2200050354003906 -13.6099767684936523 -20.4495143890380859
-0.778793811798095703 -7.16396474838256836 -38.6493492126464844
3.56555867195129395 12.6328544616699219 10.3702096939086914
0.806962728500366211 -14.7346305847167969 -13.6034526824951172
9.21072483062744141 -14.1901149749755859 -0.918068408966064453
-13.7534351348876953 -4.71724939346313477 -19.8849906921386719
21.3611526489257812 -13.0691680908203125 -9.35454845428466797
13.3890810012817383 -14.2420110702514648 19.9881134033203125
-4.05804300308227539 -12.2188425064086914 4.06211090087890625
4.67554664611816406 13.4381189346313477 -15.6080341339111328
-16.0868682861328125 -5.40262889862060547 9.24122142791748047
-1.13600683212280273 8.72212791442871094 -11.9210271835327148
8.56928443908691406 12.5044746398925781 22.6985721588134766
9.89110660552978516 -13.8691329956054688 11.7406978607177734
-15.4643573760986328 -14.6781415939331055 -27.7817897796630859
18.3416385650634766 9.52933692932128906 8.76096057891845703
13.1971836090087891 -10.1316823959350586 22.2391490936279297
17.6233844757080078 7.17741775512695312 -16.8938827514648438
-8.65105915069580078 1.3884882926940918 34.6449050903320312
10.4412908554077148 12.4885778427124023 -9.17403602600097656
13.3208274841308594 0.655201196670532227 -26.2764377593994141
-5.64898586273193359 12.6395788192749023 14.7895269393920898
16.1286849975585938 -15.0283031463623047 -16.7540721893310547
-19.6328334808349609 -14.2562122344970703 -34.0226821899414062
1.94369423389434814 -9.423583984375 31.3732166290283203
-4.13182830810546875 6.71254968643188477 32.3085556030273438
-7.67011547088623047 -7.34062099456787109 -12.5944757461547852
19.8433361053466797 -6.82239341735839844 -22.3533172607421875
5.59273052215576172 -1.22794604301452637 -34.6388359069824219
-20.4383258819580078 -0.698113381862640381 18.6977825164794922
13.4332752227783203 -14.0227460861206055 9.60693836212158203
-15.493739128112793 13.5784435272216797 20.9011669158935547
18.890533447265625 -12.3315343856811523 -19.88079833984375
22.2981395721435547 -2.24465656280517578 7.95655918121337891
11.0143795013427734 -14.7438879013061523 -11.8621282577514648
-21.5376358032226562 -8.45844078063964844 14.2503547668457031
-22.8636379241943359 9.63773727416992188 12.8686695098876953
-5.02020502090454102 -14.3553552627563477 26.7233085632324219
-3.23620367050170898 -12.1809654235839844 1.23816227912902832
-23.4911441802978516 4.99343109130859375 32.8738479614257812
-14.5872344970703125 4.62606954574584961 12.8821306228637695
1.62676322460174561 -3.7482607364654541 33.4147109985351562
-12.3499336242675781 10.6290130615234375 -30.8259315490722656
13.4976253509521484 -13.1605987548828125 -27.8477954864501953
1.20813047885894775 -1.08282923698425293 32.1455230712890625
4.51063823699951172 13.4632225036621094 -8.76327228546142578
0.429678231477737427 -2.04458284378051758 -4.02158784866333008
18.3627529144287109 -6.19635629653930664 -23.6435317993164062
8.70320224761962891 7.54571914672851562 27.3352565765380859
3.4612128734588623 8.36240577697753906 28.3563346862792969
12.3410091400146484 -0.272969663143157959 -27.3382778167724609
5.47618961334228516 12.386383056640625 -8.69200897216796875
-24.9001007080078125 13.017970085144043 26.3484230041503906
-4.86704206466674805 -13.7894134521484375 22.6034622192382812
7.37662172317504883 8.73900318145751953 26.1150531768798828
4.1870121955871582 -2.94433856010437012 31.3021125793457031
-15.4527902603149414 -7.1313786506652832 -21.5285587310791016
4.37462472915649414 -14.6358604431152344 -10.0793724060058594
6.9984583854675293 -14.0055027008056641 19.4958457946777344
-12.1483917236328125 10.1339635848999023 -25.3983364105224609
11.6292867660522461 14.2846765518188477 -0.840067207813262939
16.0778274536132812 1.49302911758422852 -24.8911724090576172
-11.4601240158081055 -0.917049288749694824 12.2499847412109375
19.3243141174316406 9.19689750671386719 -7.71422910690307617
4.71114778518676758 -13.8836526870727539 9.60874176025390625
-15.9174327850341797 1.96655845642089844 -24.7776660919189453
-4.73497295379638672 -1.27567780017852783 -37.0121307373046875
-4.45867252349853516 -14.9201431274414062 -30.6127376556396484
-21.3288326263427734 -13.9625167846679688 24.7291297912597656
-5.10355901718139648 11.8977575302124023 -23.1736564636230469
-20.50341796875 -10.7789821624755859 27.2971878051757812
-15.1237668991088867 -14.1041774749755859 28.7091007232666016
0.00614117644727230072 5.70923852920532227 -8.22315597534179688
-6.34517240524291992 10.7737855911254883 29.5475730895996094
8.33194351196289062 -13.8536376953125 15.6855573654174805
-19.1568393707275391 12.6269731521606445 15.9415044784545898
23.6991214752197266 -12.2179708480834961 -9.88194370269775391
-22.7771892547607422 3.25778865814208984 31.8507556915283203
-18.8377723693847656 -9.26498794555664062 35.2298507690429688
-14.7196264266967773 -8.25552940368652344 36.5397529602050781
-16.0038604736328125 9.62792778015136719 -29.2585620880126953
19.9720706939697266 -13.7125997543334961 10.4151763916015625
-4.97978734970092773 -12.91839599609375 -11.2686939239501953
16.9745273590087891 8.05858707427978516 -19.6329231262207031
-0.13260728120803833 -14.8350706100463867 -18.8594951629638672
-3.06050252914428711 -3.72337555885314941 34.9509963989257812
-3.16610002517700195 6.97121524810791016 -34.2722320556640625
1.55579280853271484 -8.39550209045410156 -37.8565788269042969
-7.64917945861816406 4.97197675704956055 11.2889261245727539
15.3620071411132812 11.3850927352905273 -10.6873798370361328
-5.52648353576660156 -2.81918025016784668 34.8416862487792969
-1.58020412921905518 -10.9101781845092773 -36.777252197265625
-1.26759862899780273 11.1421957015991211 -12.1094141006469727
-9.35169887542724609 -13.8778629302978516 12.739415168762207
8.50672817230224609 -14.8616018295288086 -16.3109397888183594
6.10888051986694336 10.968256950378418 -24.0792713165283203
22.0560626983642578 -12.6038055419921875 -10.397334098815918
16.4960479736328125 7.83921241760253906 15.9619026184082031
-22.6119613647460938 6.60876274108886719 23.4779491424560547
3.20659661293029785 9.97070884704589844 -4.59380292892456055
8.58014965057373047 7.69637680053710938 -27.4555797576904297
14.8862829208374023 -15.0341577529907227 -17.7437915802001953
-13.1940250396728516 -8.09514999389648438 -40.7767333984375
-18.8997802734375 -4.95792436599731445 -34.4366683959960938
15.3553733825683594 12.223210334777832 0.267405509948730469
21.5064125061035156 4.6096038818359375 -8.92497920989990234
-21.0115871429443359 -0.932279229164123535 15.5884847640991211
16.5045280456542969 -12.7346467971801758 -22.6676349639892578
-18.4858856201171875 1.27381658554077148 -31.6493587493896484
-19.0995292663574219 4.3493194580078125 -35.9186248779296875
-18.1767158508300781 1.60455989837646484 -30.9479541778564453
-12.7433338165283203 -13.8594226837158203 -36.2211265563964844
-14.5003271102905273 2.96367979049682617 12.7116289138793945
-14.433924674987793 0.914405703544616699 -22.8283061981201172
21.7002277374267578 -1.97661125659942627 9.59751510620117188
1.22373294830322266 7.78185510635375977 3.00421428680419922
16.91302490234375 7.98715829849243164 18.2097415924072266
19.5267047882080078 7.61182498931884766 8.60642910003662109
-15.0745534896850586 9.39335441589355469 -32.9793853759765625
26.0056056976318359 -8.57651138305664062 -2.2196812629699707
3.29649496078491211 -14.4453849792480469 24.0943279266357422
-14.9066801071166992 -12.7804813385009766 -22.6817817687988281
-16.17694091796875 -11.2511386871337891 -23.6153697967529297
12.8374490737915039 -1.40922200679779053 -26.8436298370361328
8.17161655426025391 -14.9962444305419922 -26.2572879791259766
-15.3301887512207031 10.1416215896606445 33.4526557922363281
10.5819921493530273 -12.1905660629272461 -31.6269435882568359
1.1178596019744873 6.88319683074951172 -6.2238006591796875
20.4965076446533203 7.49348211288452148 -7.89224672317504883
18.2512435913085938 -14.9175624847412109 -12.0077762603759766
12.6224555969238281 10.9375438690185547 -19.1230220794677734
-7.50558710098266602 8.21151161193847656 33.9509162902832031
16.5358963012695312 -0.310810744762420654 -22.4427986145019531
-3.26753473281860352 2.08717942237854004 8.42383098602294922
7.79195833206176758 14.0365076065063477 -4.35928726196289062
-17.2303733825683594 -14.2620077133178711 30.3480110168457031
5.97923803329467773 0.301241397857666016 30.6568622589111328
14.464472770690918 12.1358880996704102 9.53073501586914062
11.3677377700805664 -2.64052867889404297 25.8088912963867188
-23.3090934753417969 -11.1448678970336914 15.0103921890258789
-21.0509243011474609 -4.68952083587646484 34.9962081909179688
-17.557708740234375 12.6357908248901367 23.6331119537353516
-15.0400514602661133 12.0199375152587891 27.5783748626708984
-4.3573918342590332 -11.6660232543945312 -36.9763755798339844
11.724400520324707 6.53314971923828125 -25.3308887481689453
-0.0367536917328834534 11.6199464797973633 -26.9548053741455078
10.9317464828491211 -14.11981201171875 0.272085398435592651
2.82474637031555176 -13.1665973663330078 28.2528343200683594
-1.0056769847869873 12.1025524139404297 28.4575958251953125
7.73590373992919922 -13.810124397277832 13.1856536865234375
-5.03744411468505859 -9.57896804809570312 4.56972646713256836
0.469010740518569946 7.31027507781982422 -8.49855804443359375
-20.2458972930908203 9.16228389739990234 31.2192821502685547
0.974218904972076416 -10.7460107803344727 -36.3735122680664062
22.2523365020751953 -2.56246447563171387 8.47576141357421875
2.10822391510009766 9.97580718994140625 3.82526659965515137
0.430679380893707275 -2.02237224578857422 -35.8957176208496094
-8.10661506652832031 4.06086969375610352 -16.7975540161132812
-15.7997846603393555 0.529815852642059326 34.8650474548339844
-21.2757358551025391 -8.79547309875488281 -32.1888809204101562
18.6420078277587891 4.94735527038574219 -16.7110252380371094
-1.37294852733612061 -5.92203807830810547 0.764719069004058838
14.786229133605957 -14.0344524383544922 11.7452926635742188
-26.3248405456542969 14.0389862060546875 25.1343593597412109
-11.3556995391845703 -10.8106956481933594 33.3679084777832031
1.13941693305969238 9.85554218292236328 5.76404953002929688
2.86672067642211914 11.5224618911743164 6.40388965606689453
-16.1644859313964844 2.10860729217529297 -25.1906356811523438
-1.52332079410552979 10.9326200485229492 -12.0168333053588867
-10.2746829986572266 -14.680384635925293 -27.8134078979492188
-1.42307686805725098 13.6337776184082031 16.6150379180908203
19.3179054260253906 -0.053118538111448288 -17.4414024353027344
7.48290157318115234 -6.56505250930786133 -34.5344657897949219
-18.8275413513183594 0.505399644374847412 -34.1746139526367188
-20.6583919525146484 -6.99053001403808594 34.7094306945800781
-3.25645709037780762 -12.6475162506103516 2.19840741157531738
-9.45866584777832031 7.13701295852661133 12.9663782119750977
-19.379669189453125 -6.54438114166259766 23.9832611083984375
-1.35138332843780518 13.8233842849731445 22.1760673522949219
6.17436695098876953 -13.9411563873291016 19.1110782623291016
-10.3020792007446289 -7.64796018600463867 -15.3102121353149414
-10.2648591995239258 -8.49284172058105469 -14.8799018859863281
-8.39769077301025391 8.711822509765625 -17.8436603546142578
-2.64234542846679688 -6.87267017364501953 -6.28917694091796875
-5.46331787109375 8.87366867065429688 11.9573917388916016
-0.48379594087600708 7.57961320877075195 -33.8979301452636719
15.8824186325073242 11.9775609970092773 -3.13310480117797852
-9.70563411712646484 -14.0453510284423828 -13.6198873519897461
-3.97423696517944336 -14.6509513854980469 -9.77343177795410156
-19.5639419555664062 2.11225438117980957 12.6491241455078125
8.69566154479980469 -13.9335737228393555 6.03138160705566406
-10.2099847793579102 -1.28688168525695801 12.020054817199707
-20.6075229644775391 -9.64315986633300781 -38.76202392578125
-11.4796562194824219 8.63359260559082031 -23.6684818267822266
3.55277204513549805 9.37127208709716797 -29.7767086029052734
-11.5088644027709961 -10.8277521133422852 -16.9240036010742188
4.91097211837768555 -14.3188047409057617 -1.45422255992889404
13.4251575469970703 9.45446681976318359 -20.1589126586914062
15.8070964813232422 7.64449548721313477 18.2367534637451172
5.74997758865356445 -3.84419536590576172 -35.5180206298828125
-3.9094383716583252 -8.86399078369140625 0.254762917757034302
-9.79353904724121094 -2.1744694709777832 35.2145195007324219
-9.8143768310546875 -7.64125156402587891 8.33653545379638672
-2.02525067329406738 5.23676013946533203 -11.1106719970703125
8.88823604583740234 3.62098836898803711 -29.2970066070556641
11.6244831085205078 -5.19398307800292969 27.3090419769287109
8.03619003295898438 -3.76942014694213867 -31.6178665161132812
-20.42413330078125 -6.34139871597290039 33.7751884460449219
-18.1381053924560547 -7.49141216278076172 36.6972198486328125
-20.4125518798828125 -8.03818416595458984 -33.3212890625
21.7202491760253906 2.71773099899291992 7.5680394172668457
-4.55705404281616211 -13.8617591857910156 22.8482379913330078
-11.0206823348999023 -14.7171592712402344 -28.6150894165039062
-19.1141262054443359 -13.4968357086181641 -27.5381202697753906
-0.426364153623580933 -13.8885059356689453 10.1632232666015625
8.75980472564697266 6.52286672592163086 27.6055431365966797
8.74125289916992188 4.98401403427124023 -30.4829521179199219
-12.693364143371582 8.10903358459472656 -25.0227432250976562
9.15947818756103516 6.45170879364013672 -27.8153781890869141
24.0449810028076172 -4.81400680541992188 7.83578920364379883
18.1251850128173828 1.15381443500518799 16.6470508575439453
-15.2853965759277344 -14.629669189453125 -29.1692066192626953
2.07265615463256836 8.39482593536376953 -4.8983159065246582
7.54596233367919922 -14.5816555023193359 -9.33358383178710938
-0.50684279203414917 14.2961292266845703 22.9008426666259766
22.6791496276855469 -11.7788715362548828 2.22562313079833984
-5.97666263580322266 -13.5895261764526367 18.3843116760253906
-1.32404720783233643 11.1825466156005859 7.70763826370239258
1.27377974987030029 -1.39255380630493164 32.1722946166992188
2.44436264038085938 -13.9650774002075195 7.97384738922119141
-21.1681976318359375 -0.521769702434539795 16.1676921844482422
-2.1187748908996582 -14.7864723205566406 -22.6904125213623047
12.2927074432373047 -7.6393132209777832 26.7849769592285156
5.69626522064208984 -14.6609821319580078 -11.3654365539550781
9.38608455657958984 -7.35576725006103516 -33.9118995666503906
8.50549983978271484 -2.40214657783508301 28.2772464752197266
-20.0652122497558594 10.3940896987915039 29.9803009033203125
-1.59504902362823486 -13.9241571426391602 -36.2116966247558594
-2.10779213905334473 -13.9294004440307617 22.7094039916992188
11.4787693023681641 -15.0071792602539062 -19.4623336791992188
5.20501232147216797 -10.8365821838378906 29.2428016662597656
-1.35202658176422119 -7.23914432525634766 -38.7682685852050781
-3.55605602264404297 8.98789215087890625 -32.4713401794433594
23.6092472076416016 5.75947475433349609 1.62902915477752686
16.3540554046630859 11.8518447875976562 -2.48765969276428223
5.20099353790283203 -14.7860879898071289 -32.0808143615722656
0.505405902862548828 -1.98735892772674561 -3.55490875244140625
4.47922515869140625 -14.8636131286621094 -29.4267635345458984
8.86322593688964844 14.2947359085083008 15.5817403793334961
-4.62287425994873047 -14.7330331802368164 -25.5179920196533203
21.9668979644775391 -12.8215579986572266 3.38265013694763184
-11.0277223587036133 -14.0275955200195312 26.3814792633056641
-18.6598110198974609 3.14693140983581543 -35.6455307006835938
-18.6550559997558594 0.529715776443481445 12.8271551132202148
4.91959285736083984 14.1438674926757812 6.24556875228881836
2.48603415489196777 2.06235790252685547 -33.7480239868164062
23.5704307556152344 6.25072002410888672 0.445559918880462646
6.57722616195678711 10.5209331512451172 -24.9204025268554688
-19.2906322479248047 0.455158412456512451 34.5694580078125
-17.4111404418945312 1.20264256000518799 12.025965690612793
-7.55743789672851562 2.76716518402099609 -15.0243844985961914
-10.0865278244018555 -10.5339727401733398 -39.2131004333496094
-18.7557201385498047 -8.31453895568847656 7.99185895919799805
18.5865707397460938 -14.8994226455688477 -10.9404001235961914
22.6157588958740234 -2.19995522499084473 6.58718061447143555
-16.5629749298095703 -8.14880847930908203 8.04046440124511719
-12.7403383255004883 -7.22434139251708984 9.60764884948730469
-2.2291560173034668 -2.76312518119812012 33.9674491882324219
-12.4490995407104492 8.77795791625976562 -25.8384933471679688
-21.8217239379882812 -1.58495438098907471 17.0115852355957031
-17.3233814239501953 5.76855659484863281 -35.8563308715820312
11.8321609497070312 0.602529168128967285 24.8482894897460938
-17.8389873504638672 7.28839111328125 -34.8148689270019531
6.49213600158691406 -14.9778814315795898 -25.4278030395507812
-22.1820430755615234 -11.8027229309082031 -36.3887481689453125
-3.73010492324829102 4.77832412719726562 -12.7568254470825195
-13.2409477233886719 11.2704763412475586 16.6963233947753906
11.3098230361938477 12.0037403106689453 19.0076770782470703
15.6817626953125 10.2343835830688477 17.0242862701416016
11.3513288497924805 -6.19339656829833984 -31.6771163940429688
-10.3928442001342773 -12.4226551055908203 -16.0260753631591797
4.91639852523803711 14.463348388671875 18.0037975311279297
-0.461719423532485962 -5.61100482940673828 -3.34223675727844238
20.9444961547851562 4.72013473510742188 12.7171554565429688
0.357658177614212036 -14.8668708801269531 -24.5876178741455078
-5.3018794059753418 -14.6292762756347656 -25.5613689422607422
-2.77453303337097168 -13.7861175537109375 13.6423931121826172
-9.49502086639404297 -10.7891082763671875 -13.4560928344726562
-11.6880226135253906 -6.70251083374023438 9.99381732940673828
19.6323337554931641 8.40826797485351562 -9.72571849822998047
26.9675102233886719 -5.2925724983215332 -2.49785232543945312
-20.2807159423828125 -13.3476047515869141 22.8582935333251953
-5.8445897102355957 0.41076582670211792 10.4434108734130859
17.4119911193847656 11.2401809692382812 2.095245361328125
7.4133906364440918 13.5881614685058594 0.669914424419403076
12.9938573837280273 11.4859867095947266 -16.8916854858398438
-3.01224088668823242 -14.741276741027832 -10.3927707672119141
20.0314559936523438 -7.44142913818359375 -21.9919719696044922
-4.53352642059326172 -10.7344036102294922 32.1943359375
-15.5794296264648438 -12.1762247085571289 -21.2748165130615234
21.7087535858154297 9.74971485137939453 0.264188438653945923
-13.829289436340332 4.88499021530151367 -22.7617073059082031
13.9211349487304688 11.6672706604003906 13.249394416809082
-7.80495357513427734 -11.4883317947387695 7.66210603713989258
8.49442386627197266 2.8786318302154541 -31.6640300750732422
-7.0331120491027832 -0.841287016868591309 -14.7115001678466797
-6.97944259643554688 -4.67156124114990234 36.5618171691894531
6.503875732421875 12.9296331405639648 -4.20575761795043945
8.2292022705078125 -14.7004737854003906 -31.7004737854003906
16.4571456909179688 -10.174983024597168 -24.2507553100585938
6.2197871208190918 -9.18529891967773438 -35.1523017883300781
0.162316650152206421 8.62457084655761719 -31.5547161102294922
6.35883855819702148 -13.9595146179199219 8.89767932891845703
-0.319306045770645142 -14.3246326446533203 2.9654536247253418
-12.5018301010131836 -1.85245263576507568 -19.54302978515625
14.1589555740356445 -10.0136356353759766 -26.3198375701904297
-1.95408153533935547 9.606475830078125 -31.1611518859863281
-21.136199951171875 -7.31094932556152344 16.4653682708740234
9.13912868499755859 -10.4334545135498047 24.8028945922851562
18.2126312255859375 10.597198486328125 -5.27028274536132812
0.0222391877323389053 3.87401080131530762 -34.7216453552246094
-21.4378242492675781 5.02814197540283203 18.8908405303955078
-20.4586410522460938 -7.03074169158935547 29.3727321624755859
-19.3165111541748047 8.59140205383300781 31.7816829681396484
-12.990717887878418 7.94356012344360352 -22.7574520111083984
-10.1615495681762695 -13.9275302886962891 -15.3832168579101562
-17.7432937622070312 -2.30061173439025879 36.8043441772460938
-7.04540586471557617 9.57088470458984375 -17.3492679595947266
-20.7395420074462891 -9.87780284881591797 34.2297477722167969
-3.51351022720336914 -9.68449878692626953 0.621527731418609619
3.5796058177947998 -14.4417638778686523 -1.59589493274688721
17.1515483856201172 -14.3558292388916016 2.75575590133666992
-5.04147624969482422 3.75853228569030762 33.5396690368652344
-20.1966876983642578 -11.3331289291381836 8.13381290435791016
-2.92622733116149902 -4.97812557220458984 35.9254302978515625
8.82082843780517578 14.1926431655883789 15.6932497024536133
19.5261592864990234 -8.62255287170410156 16.9827404022216797
-6.62285900115966797 -12.4330759048461914 -12.1577882766723633
-6.44167852401733398 -14.1655349731445312 -12.1362934112548828
-2.05978488922119141 11.6096830368041992 -25.5855426788330078
3.05016374588012695 -2.63263630867004395 31.8012790679931641
-20.3979167938232422 -4.52794456481933594 17.4383506774902344
25.5127944946289062 -8.26746749877929688 8.48043632507324219
12.886683464050293 -14.8743400573730469 -27.8421955108642578
-11.8196296691894531 1.34806954860687256 12.4928312301635742
-2.83636593818664551 -16.5154151916503906 -30.337066650390625
25.4730358123779297 -8.38799953460693359 8.64345169067382812
19.1656684875488281 9.27701854705810547 7.12611722946166992
-7.2993321418762207 1.07494306564331055 -37.335845947265625
5.32462167739868164 14.0414152145385742 1.78908538818359375
-8.23395347595214844 -14.7319278717041016 -28.5267391204833984
1.07582151889801025 -14.6291027069091797 -5.64056205749511719
17.9902420043945312 3.64118456840515137 15.7630205154418945
-4.91149997711181641 7.05006074905395508 -14.5849390029907227
15.6257143020629883 -9.5480804443359375 20.7654953002929688
23.9818649291992188 -10.0154819488525391 7.26181983947753906
-26.1843090057373047 14.0093183517456055 24.5081005096435547
-16.8830661773681641 -9.41861438751220703 8.03583526611328125
-20.1773052215576172 6.90343523025512695 34.7315177917480469
15.5108346939086914 12.0981283187866211 4.60268688201904297
-21.6353015899658203 -10.6361761093139648 17.2702960968017578
2.97117710113525391 12.5948066711425781 21.2313728332519531
17.2047233581542969 6.72591304779052734 16.3939571380615234
2.93130683898925781 7.23356342315673828 29.2347774505615234
6.03202247619628906 2.75738716125488281 28.8025989532470703
-18.1093196868896484 4.06945562362670898 -32.2724418640136719
-14.0377721786499023 7.83511781692504883 13.8050432205200195
6.87028121948242188 12.4617595672607422 -12.7114953994750977
-0.407636344432830811 10.1934232711791992 7.31196498870849609
11.6171131134033203 4.46009159088134766 -26.6844940185546875
5.52212238311767578 -10.3248586654663086 28.1288852691650391
-0.174862146377563477 8.82297229766845703 29.7554531097412109
-9.82238101959228516 -14.6894655227661133 -26.1889839172363281
-13.6633834838867188 6.36199808120727539 33.5135231018066406
4.87359476089477539 13.5289602279663086 -10.9616804122924805
22.0466136932373047 -11.5676002502441406 7.59965133666992188
-18.7211952209472656 -6.58583927154541016 9.03188133239746094
-18.0375728607177734 -9.16622543334960938 35.3165321350097656
8.09484958648681641 12.1074466705322266 -17.7811183929443359
22.1272716522216797 -3.0947258472442627 14.0617618560791016
0.90551292896270752 2.71995425224304199 -3.30028057098388672
-16.9342441558837891 0.503773033618927002 -27.3994312286376953
-6.64503383636474609 -7.20597505569458008 -10.5930299758911133
8.46748733520507812 -13.8495330810546875 14.7744922637939453
-5.54717540740966797 10.7423019409179688 13.9676494598388672
2.92366743087768555 11.9975185394287109 8.49651050567626953
-8.02515506744384766 9.01745796203613281 -33.4315223693847656
-21.2362632751464844 -7.27285289764404297 14.4099645614624023
-5.21761751174926758 -7.78631973266601562 5.36051130294799805
-14.2319850921630859 -13.4876995086669922 19.6151008605957031
19.1767196655273438 -14.6578292846679688 -4.80698060989379883
1.57031691074371338 8.1032867431640625 -34.0092735290527344
-14.036956787109375 -13.4066476821899414 21.6720466613769531
2.70017814636230469 11.2924537658691406 -11.2078485488891602
-10.2810373306274414 4.11050653457641602 -17.1183567047119141
-2.29232931137084961 -13.9414157867431641 9.91038799285888672
-2.56509304046630859 -11.4276313781738281 -2.32594633102416992
-2.75596404075622559 -6.8470911979675293 -38.8334274291992188
-20.1832542419433594 -4.59363317489624023 20.1292934417724609
22.2087574005126953 4.86694431304931641 -2.42803859710693359
1.16026246547698975 -14.8634071350097656 -23.4487438201904297
3.24340128898620605 -9.59203720092773438 -35.8587417602539062
21.1596450805664062 -2.00259900093078613 -13.8109827041625977
-20.0649166107177734 -0.214332476258277893 32.755096435546875
-1.20256471633911133 -14.595677375793457 -34.2232589721679688
-13.0752239227294922 -13.3275384902954102 -21.5995578765869141
7.71280574798583984 -12.0631790161132812 24.5918712615966797
14.5312309265136719 -14.3834953308105469 -1.23753070831298828
-16.2274856567382812 -8.6686553955078125 -22.5572128295898438
10.0362920761108398 12.2155656814575195 21.6399478912353516
13.1652936935424805 1.85549736022949219 -26.1295452117919922
-11.0419979095458984 -11.6324739456176758 -16.6158180236816406
-0.5587921142578125 12.8942060470581055 17.981414794921875
4.72438764572143555 -14.7925357818603516 -30.7284202575683594
-16.8243732452392578 -13.9886007308959961 -24.1325511932373047
22.3634872436523438 2.59794735908508301 3.74363279342651367
-21.0744953155517578 -7.22429037094116211 34.4332733154296875
1.51583826541900635 6.14474678039550781 -1.26702404022216797
6.05780887603759766 -12.5221548080444336 -34.6821708679199219
18.3837833404541016 -1.96486389636993408 17.1421718597412109
6.04537248611450195 -6.76346969604492188 31.8629932403564453
9.11382675170898438 -14.7201566696166992 -12.5154571533203125
10.287994384765625 -13.9641847610473633 -4.26279067993164062
-17.1202392578125 -4.22042179107666016 -39.83837890625
-17.3109169006347656 -8.94616413116455078 -26.3606243133544922
-17.8015594482421875 6.15879058837890625 -30.0575771331787109
-10.8714618682861328 3.40978574752807617 12.5136985778808594
5.68563508987426758 -6.08589076995849609 -35.449676513671875
-6.77658510208129883 7.65042877197265625 -34.6186790466308594
-8.42038249969482422 -13.6321516036987305 22.7344455718994141
9.03814506530761719 -13.8688507080078125 15.0634374618530273
-20.4876022338867188 -13.3719959259033203 22.5252914428710938
-14.2386131286621094 -14.4208354949951172 -22.7749748229980469
-16.060638427734375 -13.5770034790039062 18.1056289672851562
0.134903028607368469 -2.64024066925048828 -5.01395225524902344
-5.41442012786865234 11.7010517120361328 -29.6914329528808594
-22.2315959930419922 -10.9739170074462891 17.3993186950683594
2.78612565994262695 -14.7077484130859375 -10.9074611663818359
23.0397434234619141 -0.286858528852462769 -1.13846838474273682
4.07630300521850586 12.2431097030639648 -17.6876583099365234
27.4778289794921875 -7.93937015533447266 -3.11346912384033203
-2.05215597152709961 -14.8469429016113281 -15.9701356887817383
20.3978290557861328 -14.6570072174072266 -10.1312894821166992
-3.96631526947021484 -13.9718704223632812 10.2680530548095703
-2.2279212474822998 -14.7523307800292969 -13.064692497253418
11.6749029159545898 12.9807825088500977 -10.070037841796875
-7.20828151702880859 11.6949987411499023 -22.7670078277587891
18.2453994750976562 8.71758270263671875 -17.7546348571777344
20.1949958801269531 -14.6100912094116211 -5.9686436653137207
10.1050910949707031 -14.6718282699584961 -10.9932832717895508
14.6143474578857422 10.5559902191162109 15.0112380981445312
5.12112808227539062 -14.7868757247924805 -31.1407966613769531
-9.36062526702880859 3.11479878425598145 -36.9725151062011719
