ply
format ascii 1.0
element vertex 781
comment vertices
property float x
property float y
property float z
end_header
-10.4696359634399414 11.0429954528808594 0.391363590955734253
18.5790729522705078 12.3994112014770508 -6.30633354187011719
0.48128896951675415 -0.825413703918457031 -4.21784639358520508
7.70782566070556641 10.7933254241943359 -22.3209342956542969
-2.41033029556274414 11.7802295684814453 -2.39308500289916992
-5.86215734481811523 1.44921207427978516 15.4584732055664062
20.7358226776123047 5.32178020477294922 -2.79136514663696289
5.34537410736083984 -1.12546133995056152 -9.52319240570068359
8.37874412536621094 0.0067699863575398922 11.3134393692016602
-6.0644221305847168 -0.087213955819606781 -14.6268243789672852
10.1814403533935547 9.82959842681884766 11.8317680358886719
20.2630500793457031 2.91231417655944824 -0.670894324779510498
12.89447021484375 -1.07458186149597168 -7.93722438812255859
4.03225564956665039 9.35329818725585938 15.6532716751098633
9.68668079376220703 12.7902383804321289 -8.82739830017089844
11.9828357696533203 2.32918643951416016 18.7691631317138672
-11.6600685119628906 1.89507460594177246 12.2867069244384766
0.921334028244018555 2.68395853042602539 23.5516929626464844
-0.549059808254241943 4.89471721649169922 23.3702278137207031
-10.6765604019165039 12.1399631500244141 -8.68168830871582031
-14.9614143371582031 11.3363275527954102 -7.47019243240356445
-10.5843296051025391 0.365422964096069336 -10.4239664077758789
-10.8201913833618164 12.8335971832275391 -15.1986370086669922
8.84032726287841797 6.29370260238647461 -21.7601757049560547
2.91086173057556152 6.85862874984741211 -23.4518032073974609
13.7274017333984375 5.37364530563354492 -17.6779880523681641
10.9825420379638672 12.4312801361083984 -4.55510282516479492
-9.43056869506835938 0.181028664112091064 -7.70018434524536133
0.163348093628883362 0.0519372783601284027 10.6363019943237305
10.4592599868774414 -1.04097080230712891 -7.86666631698608398
16.7392024993896484 10.6739912033081055 6.96047067642211914
-3.72620296478271484 1.20875227451324463 -22.8870182037353516
-10.9560251235961914 10.1838665008544922 8.06104850769042969
10.5836563110351562 11.4190025329589844 3.98208832740783691
8.52064037322998047 13.2431697845458984 -21.7711505889892578
2.47424054145812988 -0.485585510730743408 5.60094785690307617
-11.3719234466552734 0.95513683557510376 5.74582338333129883
4.27649879455566406 -0.631936728954315186 4.4973149299621582
-16.2598037719726562 4.12882471084594727 -9.91706657409667969
-3.3092498779296875 13.8400583267211914 -20.4895954132080078
-2.59480786323547363 3.56628870964050293 -23.1868114471435547
-9.3204803466796875 5.70849132537841797 18.5366535186767578
18.5338115692138672 11.1823282241821289 3.69119453430175781
17.8777008056640625 -1.03444254398345947 2.40247082710266113
15.7284212112426758 11.7702598571777344 -1.95291745662689209
-3.25465583801269531 -0.214435815811157227 3.39792108535766602
18.9188690185546875 6.91415691375732422 -10.9505624771118164
20.1284999847412109 11.791865348815918 -1.62056994438171387
16.8711051940917969 -0.979577541351318359 0.464923590421676636
1.62589609622955322 1.50234198570251465 20.4492778778076172
-0.499132096767425537 -0.381715178489685059 -15.9121303558349609
-16.0618724822998047 1.31458520889282227 -0.176807567477226257
1.06776809692382812 9.11121368408203125 17.6442165374755859
7.32152795791625977 2.93357515335083008 -22.0970954895019531
-2.11026716232299805 -0.273529738187789917 -15.8606815338134766
-6.36699247360229492 1.8096088171005249 17.1929149627685547
15.1647796630859375 10.7330465316772461 6.49212455749511719
0.252728044986724854 8.74686050415039062 20.3681755065917969
8.45917415618896484 11.5092182159423828 2.28149795532226562
-15.4792690277099609 7.95306634902954102 -9.33135986328125
0.272481977939605713 10.7163629531860352 7.36286497116088867
-0.26742851734161377 10.7779035568237305 6.32107686996459961
-4.70432710647583008 0.721854567527770996 11.5081415176391602
-14.785954475402832 6.78136968612670898 -11.8979558944702148
-15.6866960525512695 1.30079054832458496 -7.76316070556640625
-4.41191959381103516 10.2119626998901367 9.60540866851806641
-12.6836843490600586 12.626957893371582 -12.4895086288452148
-0.990077972412109375 13.5310163497924805 -20.1444721221923828
12.4086523056030273 -1.03342628479003906 -15.6508283615112305
-10.6820878982543945 9.47319889068603516 15.576878547668457
20.3767528533935547 3.80801749229431152 2.3216090202331543
-5.54704618453979492 8.66840457916259766 -21.3492279052734375
9.38596820831298828 -1.0627443790435791 -1.86665081977844238
2.58373332023620605 -0.498679429292678833 5.61907148361206055
9.21206760406494141 11.4584751129150391 2.91817641258239746
-6.64568233489990234 1.34644556045532227 -21.846893310546875
3.46404695510864258 12.9796428680419922 -16.1123161315917969
18.8832378387451172 3.69868636131286621 -9.4622650146484375
-1.12128722667694092 1.53296327590942383 -23.3228988647460938
-8.09791946411132812 0.145230799913406372 -14.389185905456543
6.86702156066894531 7.09765100479125977 22.1295070648193359
8.27608966827392578 4.32025146484375 -21.7813262939453125
-7.70664405822753906 11.2046537399291992 0.575935304164886475
-4.81167745590209961 12.9111490249633789 -15.5037050247192383
16.1664047241210938 -0.69949871301651001 6.35170269012451172
-5.89695310592651367 10.2732000350952148 7.81932640075683594
16.744598388671875 11.4958124160766602 0.860052108764648438
15.2456989288330078 11.8043842315673828 -1.95577514171600342
-2.01159214973449707 8.77590465545654297 21.8011684417724609
19.6649055480957031 12.5005226135253906 -9.21076393127441406
-7.82007122039794922 0.134331867098808289 -18.8593196868896484
-16.2509021759033203 6.17699623107910156 -8.41936302185058594
-7.06646871566772461 9.14132499694824219 16.8978939056396484
6.34698295593261719 -0.936169326305389404 -12.482661247253418
-1.80739474296569824 1.80040955543518066 21.9581260681152344
2.9221794605255127 4.92722225189208984 -23.3881130218505859
-0.373431146144866943 12.7313461303710938 -9.86270713806152344
5.96445322036743164 -0.646220088005065918 -19.8999614715576172
19.2636623382568359 -0.851835846900939941 -2.15998744964599609
-0.222063452005386353 11.2922449111938477 2.26316428184509277
-11.0106821060180664 0.56353759765625 -14.3318939208984375
0.358047068119049072 -0.79419177770614624 -6.08594322204589844
11.7242212295532227 3.08362102508544922 -19.0406455993652344
5.74228572845458984 8.88520336151123047 18.09442138671875
18.3167457580566406 -0.572429537773132324 -7.56855964660644531
-8.39507007598876953 13.2468137741088867 -16.7277755737304688
19.139892578125 8.4830169677734375 10.2368049621582031
17.0104331970214844 2.54234099388122559 -12.565791130065918
2.65026760101318359 -0.727533817291259766 2.05141210556030273
2.99197506904602051 12.9139986038208008 -12.7799158096313477
2.30219006538391113 10.8570432662963867 6.503173828125
-1.54092371463775635 6.19432640075683594 -23.2488594055175781
15.3945627212524414 -1.08775508403778076 -12.8480243682861328
5.77091407775878906 -1.05251657962799072 -3.25892877578735352
-14.8662090301513672 3.0294191837310791 11.2489051818847656
-8.46748828887939453 10.5459194183349609 4.35502338409423828
4.84419155120849609 -0.495557188987731934 6.57044172286987305
1.51011085510253906 -0.841126203536987305 -3.51858139038085938
19.3769931793212891 2.6114342212677002 -7.18320226669311523
-1.74065804481506348 1.76064598560333252 22.3860855102539062
5.59888410568237305 11.6233386993408203 0.302712947130203247
0.0140908351168036461 -0.792520523071289062 -5.99385738372802734
10.3502483367919922 -1.07092583179473877 -6.80485296249389648
14.4463901519775391 12.1405487060546875 -6.26638126373291016
20.0787429809570312 2.73105287551879883 -3.29248142242431641
-5.17176294326782227 -0.229359939694404602 0.88221663236618042
0.654616057872772217 -0.840693116188049316 -4.15166759490966797
-11.5301008224487305 0.54512178897857666 -17.3401165008544922
10.7098798751831055 0.0436854809522628784 -19.2218418121337891
-15.1634187698364258 11.1876735687255859 -6.65445375442504883
-1.15612983703613281 0.338382124900817871 11.658233642578125
-14.8823013305664062 9.90572643280029297 -9.30432796478271484
-4.75129365921020508 11.1786994934082031 1.93623948097229004
16.0169582366943359 7.04724645614624023 15.5402593612670898
1.65900850296020508 10.7478160858154297 7.19971036911010742
20.4134864807128906 7.69760513305664062 -7.59200191497802734
10.7519588470458984 8.37777423858642578 -20.9526767730712891
15.0172252655029297 -0.330708771944046021 11.1592960357666016
-1.73697209358215332 -0.735657632350921631 -5.5970311164855957
12.7696981430053711 12.5035648345947266 -9.99073314666748047
-4.76898288726806641 11.8745040893554688 -2.95197963714599609
10.0089654922485352 -1.05347681045532227 -4.34890222549438477
10.2999610900878906 -0.995913445949554443 -1.94177877902984619
-5.68665838241577148 -0.408799201250076294 -4.65592765808105469
4.58424282073974609 12.6939554214477539 -7.83693504333496094
-4.89109516143798828 1.07936036586761475 13.297724723815918
-12.4110984802246094 0.655823767185211182 -11.7246160507202148
-15.5815334320068359 1.17124581336975098 -9.27153587341308594
11.7343158721923828 0.575458645820617676 18.4177474975585938
-8.60643577575683594 -0.0844839438796043396 -1.78360819816589355
1.91970968246459961 -0.624338209629058838 -14.2976408004760742
-14.4808206558227539 11.9694461822509766 -4.94579887390136719
16.149993896484375 4.5446162223815918 -14.6284704208374023
-3.55257558822631836 -0.256513446569442749 -13.0647287368774414
5.07145118713378906 12.5751132965087891 -22.7345066070556641
17.7698860168457031 5.01759099960327148 12.0319604873657227
-5.22036457061767578 -0.159326419234275818 -17.343109130859375
20.6639785766601562 6.12714624404907227 -5.23002099990844727
-12.2527532577514648 0.580581367015838623 -4.86632204055786133
10.0079402923583984 -0.876034736633300781 -17.0287113189697266
5.17392730712890625 0.963013589382171631 19.5789585113525391
-7.75126028060913086 1.59109675884246826 -21.244903564453125
-9.45371723175048828 0.135840490460395813 -0.840713381767272949
-9.84470272064208984 8.57865810394287109 17.0192298889160156
11.3632526397705078 2.26836395263671875 -19.3403549194335938
-17.0632438659667969 6.15940666198730469 -3.41297149658203125
-13.3875617980957031 6.94612216949462891 -14.2612266540527344
-3.29206514358520508 -0.580647647380828857 -4.94134616851806641
-16.2572002410888672 8.96712589263916016 2.38239359855651855
7.639984130859375 -0.771781742572784424 2.9813380241394043
9.63072490692138672 12.487574577331543 -5.18474340438842773
9.03097248077392578 8.84884262084960938 17.6240768432617188
0.0517966002225875854 -0.443073749542236328 -19.1239147186279297
16.1933135986328125 5.04256057739257812 -14.7776813507080078
0.734858870506286621 13.2432146072387695 -18.51513671875
-9.29064655303955078 0.216904535889625549 -11.3729925155639648
3.66590738296508789 -0.429464459419250488 -21.6187248229980469
-2.30351448059082031 7.03676795959472656 22.5179862976074219
-5.93324851989746094 12.2919025421142578 -9.46522903442382812
10.3739614486694336 5.85311985015869141 -20.9219684600830078
1.4782947301864624 -0.09636639803647995 9.75743675231933594
-8.51038551330566406 0.194937944412231445 -13.9500751495361328
-14.1474161148071289 4.36018753051757812 -14.8872842788696289
-4.76819801330566406 13.0047101974487305 -20.7753028869628906
21.1930141448974609 11.4438686370849609 -6.43323755264282227
-1.24390983581542969 -0.451435297727584839 -12.8987903594970703
-9.16128730773925781 0.110722117125988007 -4.59690713882446289
-7.6127171516418457 5.80005741119384766 19.8809089660644531
-9.49771308898925781 10.3285503387451172 6.13061189651489258
14.3911705017089844 1.97030532360076904 -15.97100830078125
6.04262113571166992 -0.603005826473236084 -20.4008216857910156
-12.4862871170043945 4.73926925659179688 15.0709419250488281
2.36999011039733887 -0.766850292682647705 -12.9333782196044922
15.859837532043457 -0.679121196269989014 7.04505681991577148
-17.0229511260986328 4.87928867340087891 4.5816502571105957
-7.67305517196655273 5.08799171447753906 20.0090599060058594
15.5481157302856445 10.9324789047241211 5.59846782684326172
5.16397380828857422 10.3652009963989258 10.6958599090576172
6.04245805740356445 3.38069510459899902 -22.6560993194580078
-16.1633014678955078 9.89240932464599609 -0.847933828830718994
-7.17897987365722656 12.8056144714355469 -14.6786642074584961
-15.6377038955688477 1.24283647537231445 -6.43088102340698242
-0.133863627910614014 11.1543645858764648 2.81964015960693359
20.2953891754150391 3.30031299591064453 -1.81299078464508057
9.24768829345703125 5.37984085083007812 21.0605621337890625
-16.2714824676513672 6.02360248565673828 6.68092012405395508
-7.98223352432250977 11.2509040832519531 -0.589660227298736572
15.1421947479248047 12.4575004577636719 -12.8517618179321289
2.87289786338806152 -0.927338063716888428 -11.7129058837890625
-9.59320449829101562 1.60939931869506836 12.3345251083374023
-3.9023592472076416 -0.404227316379547119 -0.953585624694824219
-11.2573814392089844 1.42100918292999268 -18.7192440032958984
-16.113677978515625 1.41406595706939697 0.939003646373748779
-9.53773593902587891 5.84196138381958008 -19.2624282836914062
-6.94234991073608398 0.0106522394344210625 -12.8137760162353516
-7.04793882369995117 -0.0872413143515586853 -0.602986931800842285
12.1511268615722656 12.5806751251220703 -11.0211687088012695
8.41193675994873047 1.10479938983917236 20.8425960540771484
4.4174647331237793 -0.838587045669555664 -1.28700542449951172
-17.0435943603515625 4.47032880783081055 -6.92259550094604492
15.9310979843139648 5.11641645431518555 -15.1655921936035156
-9.30001068115234375 0.798143625259399414 -20.2025108337402344
12.6988925933837891 9.10034561157226562 15.8869705200195312
-11.6753787994384766 1.78829193115234375 13.6810264587402344
-7.48823451995849609 9.21632480621337891 15.8758411407470703
-16.0215721130371094 1.33664000034332275 -6.12496757507324219
18.8516750335693359 1.87222051620483398 8.08674430847167969
7.09055328369140625 13.4195957183837891 -20.4193649291992188
2.0087275505065918 1.90490508079528809 -23.4012813568115234
1.30984342098236084 11.9302577972412109 -3.03397250175476074
7.93921422958374023 6.25714874267578125 21.6946258544921875
-8.18164348602294922 0.179123491048812866 -16.6420269012451172
16.795257568359375 11.9326810836791992 -4.10859441757202148
12.5734577178955078 -1.0690147876739502 -11.8545961380004883
12.8817300796508789 5.90170574188232422 -18.5038223266601562
-1.41537928581237793 8.23839282989501953 22.4545669555664062
6.9287724494934082 -0.664257586002349854 -18.5063133239746094
19.2269611358642578 8.33556270599365234 -10.8316659927368164
16.7665367126464844 10.6025066375732422 7.68514204025268555
-1.06255984306335449 -0.566682755947113037 -18.1676311492919922
20.488800048828125 5.76865053176879883 -5.79278326034545898
0.802736103534698486 8.53571605682373047 22.6157493591308594
-14.121729850769043 2.23345828056335449 -15.0284938812255859
-16.8129253387451172 1.91308939456939697 6.55489635467529297
1.62238085269927979 12.847564697265625 -13.7914285659790039
-13.8388729095458984 4.87760686874389648 12.9604606628417969
-4.56215143203735352 9.18723011016845703 16.5972843170166016
6.98685979843139648 0.796032130718231201 20.6175403594970703
-5.06740665435791016 12.8752717971801758 -15.1443052291870117
20.7722606658935547 9.72945213317871094 6.14737653732299805
-4.23293876647949219 12.7053604125976562 -13.5324535369873047
13.754216194152832 11.788487434387207 -1.17745399475097656
-8.22261810302734375 1.06557941436767578 10.4134912490844727
-0.89075469970703125 -0.785438835620880127 -7.63391447067260742
6.72301340103149414 5.00220918655395508 -22.540435791015625
18.5458564758300781 6.58386754989624023 -11.5821495056152344
16.0961627960205078 8.51224803924560547 -15.8293418884277344
15.1265325546264648 6.95829248428344727 16.6649303436279297
-10.1522102355957031 0.307933509349822998 -9.32432937622070312
14.0151462554931641 8.58150672912597656 17.8670730590820312
-6.68275976181030273 0.0531060360372066498 4.29483938217163086
15.0934057235717773 2.69982790946960449 15.4850549697875977
8.99857139587402344 2.1246192455291748 20.6284637451171875
4.75104475021362305 -0.591233789920806885 4.90978574752807617
-8.20290946960449219 3.92579555511474609 -20.5759296417236328
-7.77297496795654297 9.66402816772460938 12.6153583526611328
14.2522029876708984 -0.903991639614105225 -1.99965417385101318
2.26371121406555176 -0.282709717750549316 7.9969487190246582
7.92631196975708008 12.0375280380249023 -1.91682732105255127
-14.3883295059204102 12.1076564788818359 -5.59500598907470703
4.43289709091186523 12.9126319885253906 -10.1817102432250977
-7.94377851486206055 0.136705458164215088 3.9989323616027832
10.6048974990844727 11.4591302871704102 3.53123569488525391
-12.4901962280273438 11.9554347991943359 -6.67925834655761719
5.73783540725708008 -0.596070647239685059 -20.2220325469970703
-2.03997945785522461 12.363490104675293 -6.5840754508972168
-3.48163318634033203 2.3417961597442627 22.2942962646484375
19.0474815368652344 11.1461563110351562 4.61118316650390625
13.0960960388183594 -0.848776936531066895 0.604652643203735352
-15.7102670669555664 10.4908990859985352 2.32708311080932617
19.8518905639648438 0.837244808673858643 1.95320117473602295
-0.228559419512748718 -0.296380817890167236 6.05113315582275391
-7.04765510559082031 7.84208250045776367 19.9064540863037109
-4.45013427734375 0.935365378856658936 12.7933797836303711
18.1046905517578125 -0.768622994422912598 -8.03707790374755859
-11.0453815460205078 3.47548389434814453 17.3058109283447266
18.4619235992431641 11.8501014709472656 -4.47859430313110352
19.9693603515625 1.69908201694488525 2.45980286598205566
-16.3140392303466797 1.22845149040222168 -7.66788101196289062
1.98381054401397705 10.1865100860595703 11.7160501480102539
7.43366670608520508 -0.729742705821990967 -18.9722404479980469
-17.9963397979736328 1.86692392826080322 0.0999382287263870239
1.84698653221130371 -0.170567378401756287 9.27501773834228516
-17.00372314453125 6.40701770782470703 -3.25028443336486816
21.1610736846923828 12.16619873046875 -3.94649887084960938
17.09735107421875 12.4191455841064453 -11.7318296432495117
-4.57378625869750977 1.36995565891265869 15.6028289794921875
3.11939191818237305 -0.537337660789489746 4.40418004989624023
8.65941047668457031 12.9153203964233398 -15.0302877426147461
17.7801666259765625 1.08782505989074707 10.4566574096679688
3.41728496551513672 9.62194919586181641 -23.2572555541992188
20.0951290130615234 10.4185056686401367 8.51941299438476562
3.63202357292175293 0.0223034024238586426 -22.7106113433837891
-7.35791730880737305 6.50872230529785156 19.9734687805175781
-2.29346299171447754 11.2569332122802734 1.86638617515563965
18.6889801025390625 12.5920276641845703 -6.50291824340820312
18.1702823638916016 12.3229093551635742 -9.60833930969238281
-11.2022724151611328 1.64627313613891602 10.7514495849609375
-5.62967300415039062 9.71942710876464844 11.5754375457763672
-16.6485519409179688 2.61426711082458496 -9.61734485626220703
-6.84112691879272461 1.14305639266967773 11.9249582290649414
-5.56401205062866211 9.09763050079345703 16.8702793121337891
19.0981369018554688 4.98968410491943359 9.23362445831298828
12.9714908599853516 -1.06904053688049316 -15.201512336730957
-6.19357824325561523 -0.230290547013282776 0.155755773186683655
2.44280791282653809 -0.850616097450256348 -1.67618465423583984
5.93140983581542969 4.81750059127807617 -22.8473930358886719
2.67452549934387207 -0.488767474889755249 -20.4586143493652344
19.3862171173095703 2.61877298355102539 6.64840555191040039
12.0708751678466797 7.13806629180908203 19.4957351684570312
-13.2686805725097656 0.764939963817596436 -2.25634479522705078
2.8678433895111084 -0.912659347057342529 -3.43049955368041992
-6.61828184127807617 -0.214463144540786743 -7.94121837615966797
-1.88610708713531494 -0.222408607602119446 -22.1557216644287109
19.1529827117919922 4.82164621353149414 -9.53971672058105469
2.63375234603881836 -1.0071636438369751 -9.72556400299072266
7.80078315734863281 1.77442038059234619 -21.5939540863037109
-1.64592218399047852 10.3605051040649414 -22.6890754699707031
-5.82627677917480469 -0.320695936679840088 -2.1968224048614502
-12.4301633834838867 10.7387323379516602 3.58858919143676758
-13.231968879699707 7.58416986465454102 -14.2550649642944336
4.04180097579956055 7.04873371124267578 23.2429294586181641
11.4205389022827148 -1.05374860763549805 -8.08147430419921875
14.4347906112670898 -0.739940226078033447 3.58838129043579102
12.2156600952148438 0.252738028764724731 15.7487173080444336
0.322192132472991943 -0.750153422355651855 -2.59411096572875977
19.3544254302978516 3.74015045166015625 7.6215510368347168
7.72165775299072266 2.15532422065734863 -21.7231407165527344
-9.08976936340332031 13.1008930206298828 -15.8146829605102539
-4.15556955337524414 11.237919807434082 1.56409168243408203
-13.2729501724243164 1.72993910312652588 -16.4213905334472656
20.5778884887695312 4.746551513671875 -0.455596745014190674
16.6806926727294922 9.85596752166748047 14.1639213562011719
20.6558551788330078 5.07071542739868164 2.64584946632385254
-17.9740352630615234 2.26362252235412598 -1.28286063671112061
-13.5824251174926758 0.941746652126312256 0.621714234352111816
-15.0856103897094727 11.5625057220458984 -1.30968368053436279
-1.87437522411346436 -0.734106540679931641 -5.14967536926269531
-10.9205856323242188 0.4329184889793396 -11.5896921157836914
-1.42156767845153809 8.97333621978759766 18.7077388763427734
3.05996060371398926 0.411726862192153931 12.6976194381713867
17.2942886352539062 10.338134765625 9.78045463562011719
-5.56653499603271484 9.02118015289306641 17.8505439758300781
0.177388623356819153 11.5925693511962891 -0.416558533906936646
3.70215940475463867 13.1465396881103516 -18.5140552520751953
4.41287660598754883 6.7621607780456543 -23.2397785186767578
-13.912841796875 6.88244009017944336 -13.3720722198486328
2.19890284538269043 -0.717331826686859131 -0.453044742345809937
-0.0872264355421066284 -0.0597364231944084167 8.86626052856445312
20.7044544219970703 5.90979671478271484 3.8737177848815918
5.5161738395690918 13.0084962844848633 -15.6188316345214844
15.6116971969604492 0.733796119689941406 -14.0059185028076172
-3.43537545204162598 -0.307212740182876587 1.09344542026519775
-0.243116304278373718 -0.339377820491790771 -22.592742919921875
-17.1725502014160156 4.53769969940185547 4.10523414611816406
4.8668065071105957 0.940346479415893555 19.1149311065673828
14.5895414352416992 -0.881128668785095215 0.833398044109344482
16.7461700439453125 1.13247787952423096 12.2745037078857422
2.6523890495300293 11.4079151153564453 1.97253966331481934
-13.1925220489501953 0.747472941875457764 -13.7196836471557617
-8.92637443542480469 0.211790099740028381 -13.1077117919921875
19.9898166656494141 2.70242142677307129 -4.23684263229370117
7.43643808364868164 -0.377516418695449829 7.3543853759765625
14.972346305847168 12.7243824005126953 -15.293705940246582
-2.47281408309936523 11.2812747955322266 1.65015149116516113
-12.6502017974853516 12.7709074020385742 -11.4216575622558594
-14.1346225738525391 7.56428432464599609 10.8887472152709961
-10.392918586730957 11.8807344436645508 -6.47832775115966797
-13.9707660675048828 12.4674310684204102 -8.54345989227294922
-5.15282583236694336 6.91424560546875 -21.8343181610107422
-4.02165651321411133 1.56728458404541016 -22.7885665893554688
2.12291979789733887 -0.691019296646118164 -0.260905563831329346
13.8261651992797852 12.4109649658203125 -9.74337387084960938
7.50398731231689453 12.9004812240600586 -13.4720001220703125
16.1472377777099609 -1.2177659273147583 -7.11772489547729492
-15.0746374130249023 8.41530323028564453 8.18924236297607422
3.69901490211486816 -0.947074711322784424 -3.28896522521972656
-15.0969820022583008 1.62468326091766357 -13.5510463714599609
-7.86040067672729492 13.1304464340209961 -18.5551109313964844
20.4810771942138672 4.33382940292358398 -0.920815467834472656
4.09587574005126953 12.1774101257324219 -22.9058895111083984
-12.2125711441040039 11.1539306640625 -0.757576823234558105
14.4041023254394531 10.0923013687133789 9.91730308532714844
21.2963085174560547 10.0652551651000977 3.56942343711853027
0.657143115997314453 12.8207674026489258 -13.7834692001342773
18.7788543701171875 4.74774551391601562 9.92576026916503906
-0.993104517459869385 -0.411114782094955444 -13.5085201263427734
6.33052539825439453 5.39042377471923828 22.2224140167236328
-5.98340892791748047 12.4956903457641602 -11.8718509674072266
-10.1924123764038086 9.76681613922119141 11.5715112686157227
11.2086458206176758 -0.586197555065155029 4.86951684951782227
13.5981979370117188 -0.979356229305267334 -3.2510833740234375
1.13774561882019043 9.98613548278808594 12.4292850494384766
-7.06114387512207031 11.9901218414306641 -7.49362421035766602
-16.4433574676513672 5.50702905654907227 -8.42924690246582031
2.74735569953918457 8.98496341705322266 18.2773838043212891
-0.210904091596603394 4.68777227401733398 23.4971694946289062
7.51902484893798828 0.621198832988739014 18.3931865692138672
-2.76449775695800781 12.5958976745605469 -12.6445722579956055
-14.5885410308837891 0.929606199264526367 -11.9549131393432617
8.36541748046875 -1.21784484386444092 -5.45381355285644531
-12.8892974853515625 1.06528842449188232 4.58651208877563477
-14.8058805465698242 1.4135361909866333 5.18444252014160156
9.67760372161865234 -0.9432792067527771 -14.1311740875244141
-5.34043693542480469 -0.284909546375274658 -2.21131992340087891
3.30909061431884766 2.77205395698547363 23.3969345092773438
-9.37408447265625 3.31771039962768555 -19.9150848388671875
18.6045799255371094 11.0124845504760742 5.2975153923034668
1.15787208080291748 -0.859881401062011719 -7.49961328506469727
-6.73866510391235352 12.7776908874511719 -14.4474277496337891
-12.0656852722167969 12.4339447021484375 -13.6447381973266602
2.73022603988647461 2.1198272705078125 -23.269287109375
14.2219085693359375 10.7242269515991211 6.56696033477783203
-15.6068992614746094 4.76746892929077148 9.38365554809570312
12.7730379104614258 5.85689306259155273 -18.5815296173095703
7.00487089157104492 -0.424230635166168213 -21.3742942810058594
17.4882869720458984 9.37206172943115234 13.5755958557128906
11.0405302047729492 5.04859828948974609 19.9588088989257812
-14.3518886566162109 1.05734515190124512 -14.5656194686889648
-2.7771918773651123 9.68599987030029297 12.825164794921875
-10.3360538482666016 0.634825646877288818 -19.2528934478759766
-9.07970333099365234 2.08931922912597656 -20.2569217681884766
-9.24796581268310547 11.9483175277709961 -7.01903247833251953
-15.0812225341796875 1.11687946319580078 -6.47059869766235352
11.4774942398071289 3.60131192207336426 -19.5957889556884766
-1.8185199499130249 9.10761165618896484 -22.8144474029541016
19.7395229339599609 7.20559406280517578 8.34686946868896484
8.74081802368164062 1.45717203617095947 20.7105445861816406
16.1719703674316406 6.41571760177612305 -15.2506904602050781
7.89292764663696289 4.90888023376464844 -22.0587100982666016
7.20559024810791016 13.0869159698486328 -17.3691387176513672
-7.0734400749206543 -0.00629094941541552544 -12.249664306640625
9.845672607421875 -1.03314006328582764 -10.4891815185546875
-13.498199462890625 0.812374472618103027 -12.4292488098144531
13.8604793548583984 10.5932302474975586 7.46946477890014648
-6.91534805297851562 -0.256444692611694336 -6.73690462112426758
3.24702334403991699 0.50533527135848999 -23.0860385894775391
-2.70239925384521484 1.64155232906341553 18.4873847961425781
0.406011581420898438 13.2154388427734375 -18.6007843017578125
7.31419038772583008 10.699131965637207 -22.4811973571777344
0.513008356094360352 -0.444733768701553345 -17.190765380859375
-16.6747989654541016 8.09273910522460938 -1.39996600151062012
-0.664827942848205566 13.4228353500366211 -20.0265960693359375
0.903088927268981934 -0.0726499408483505249 9.43131446838378906
-15.1617498397827148 5.952972412109375 -11.5799627304077148
-4.27240705490112305 1.42796838283538818 16.0644073486328125
13.7703008651733398 12.8643484115600586 -16.8855304718017578
5.24914360046386719 1.01067757606506348 21.3287315368652344
19.3493690490722656 1.98215126991271973 -6.48169088363647461
19.44927978515625 2.18453741073608398 6.08279848098754883
0.00277591170743107796 9.262786865234375 16.2175693511962891
-0.240930363535881042 3.54361462593078613 -23.4622344970703125
16.1462669372558594 5.85190200805664062 -15.1122560501098633
11.2107696533203125 5.09361028671264648 -20.2809677124023438
-0.745255231857299805 11.8440132141113281 -2.01973176002502441
14.8514671325683594 9.4326019287109375 13.8009376525878906
16.2591743469238281 1.17849528789520264 -13.0780010223388672
-6.16220951080322266 0.39115375280380249 8.75037670135498047
18.2523860931396484 11.7590856552124023 -2.69014763832092285
-16.4834518432617188 7.78215169906616211 3.64737987518310547
4.47965383529663086 -0.647440671920776367 4.34759759902954102
2.9132847785949707 12.5733118057250977 -7.3248438835144043
7.90714883804321289 11.4340553283691406 2.45147132873535156
4.63775110244750977 -1.09724032878875732 -8.52164554595947266
-16.4814357757568359 8.85963821411132812 -0.830042719841003418
19.1085453033447266 3.14718770980834961 -8.43722915649414062
15.8512363433837891 -1.04579365253448486 -3.27541399002075195
-6.86069154739379883 9.31242752075195312 15.536865234375
17.0499553680419922 12.5305719375610352 -13.1777353286743164
-2.80707097053527832 13.2799673080444336 -18.397491455078125
11.9595060348510742 -0.474736005067825317 6.94823980331420898
-16.1643199920654297 5.95876979827880859 7.12587738037109375
17.9763603210449219 -1.02890908718109131 2.03898096084594727
5.16415691375732422 12.9546031951904297 -14.5240659713745117
3.53265929222106934 -0.21740172803401947 9.06096744537353516
-11.1568641662597656 1.75777804851531982 -18.7283535003662109
5.7865290641784668 9.42066097259521484 14.7499856948852539
14.9367609024047852 9.07324314117431641 16.9101467132568359
-3.8905031681060791 3.59991955757141113 -22.70654296875
10.2577533721923828 -1.04463207721710205 -7.70183706283569336
-9.68720340728759766 0.579157590866088867 4.62861442565917969
4.90517139434814453 12.4881477355957031 -6.16969013214111328
19.8632888793945312 7.43768739700317383 -9.03858184814453125
12.7644491195678711 -0.983636140823364258 -4.72375869750976562
17.05303955078125 12.5486974716186523 -13.3873424530029297
19.1916160583496094 11.0053300857543945 6.73850250244140625
-16.1937122344970703 7.68952274322509766 -6.85332727432250977
4.01826667785644531 -0.83978736400604248 -1.01743900775909424
7.52902698516845703 12.3281803131103516 -3.9481194019317627
20.3932819366455078 5.24101591110229492 4.83556747436523438
-10.2820491790771484 3.55389022827148438 -19.0792446136474609
3.1163179874420166 8.72578048706054688 20.1962032318115234
-7.60173273086547852 9.16817474365234375 16.9915428161621094
-6.14233827590942383 -0.318623572587966919 -2.00134420394897461
19.0323715209960938 0.297673702239990234 5.98771429061889648
3.26025032997131348 8.55793190002441406 21.7060527801513672
-11.4902458190917969 4.3275904655456543 -17.9117393493652344
-3.98282718658447266 9.03569984436035156 17.9813632965087891
-2.81158137321472168 0.281887412071228027 10.5076503753662109
5.09612274169921875 0.742199063301086426 16.751953125
-13.1212987899780273 11.6184921264648438 -3.3701322078704834
-1.98215973377227783 10.6430158615112305 8.3742218017578125
19.64013671875 -0.086378835141658783 1.38263583183288574
-11.4278326034545898 9.5240631103515625 -16.2602882385253906
-12.5454549789428711 10.9253101348876953 0.863528072834014893
-0.180426940321922302 -0.478929638862609863 1.38655185699462891
20.4240570068359375 11.9874734878540039 -3.4303886890411377
2.30108642578125 -0.515385031700134277 4.95989513397216797
-15.4360160827636719 6.0832056999206543 -10.928898811340332
16.3210887908935547 10.7264385223388672 6.76762199401855469
-2.46042823791503906 -0.652329981327056885 -4.91274118423461914
5.38211297988891602 12.7402381896972656 -8.26392555236816406
-7.20089626312255859 13.5395755767822266 -18.216033935546875
-12.734318733215332 0.660197317600250244 -16.0737323760986328
-1.81501984596252441 -0.670887589454650879 -3.93080425262451172
-7.75365495681762695 11.2898330688476562 -0.401666939258575439
-8.35770034790039062 8.35932064056396484 -19.5920200347900391
-10.8689699172973633 1.50613009929656982 9.49827194213867188
20.0100021362304688 12.5699625015258789 -6.13463258743286133
-15.5081453323364258 5.91667890548706055 8.88584804534912109
15.2663555145263672 -0.446345061063766479 10.3562946319580078
0.519936561584472656 -0.477715492248535156 3.15219616889953613
-8.62994289398193359 0.205760613083839417 3.8613123893737793
4.07829380035400391 -0.579730331897735596 -18.7713565826416016
16.0386600494384766 7.67118930816650391 15.5962667465209961
-1.00532364845275879 12.8634462356567383 -14.5392169952392578
0.918213069438934326 11.2783670425415039 2.29879975318908691
-3.4883887767791748 10.5287818908691406 8.64336967468261719
18.2005405426025391 -1.25295841693878174 -4.18198013305664062
7.25722265243530273 -0.272189706563949585 8.25029182434082031
12.6402997970581055 9.07501029968261719 16.6018409729003906
-1.88890206813812256 -0.230852365493774414 4.56290817260742188
-5.31441783905029297 2.57512688636779785 -22.2790775299072266
-2.30860495567321777 -0.391760349273681641 1.0553746223449707
-6.59831428527832031 12.7798347473144531 -14.4015951156616211
-0.596425473690032959 11.9817523956298828 -3.42610025405883789
-4.35768556594848633 -0.504486501216888428 -6.46177768707275391
-10.8872766494750977 11.2326803207397461 -1.36395430564880371
-5.38382148742675781 -0.125249996781349182 2.51732230186462402
3.16664528846740723 12.9854011535644531 -16.0800094604492188
9.02403926849365234 6.1990962028503418 21.1998023986816406
-5.56570863723754883 13.6929798126220703 -18.9368953704833984
-9.27793216705322266 13.5574159622192383 -16.6220226287841797
-11.6085777282714844 11.3726301193237305 -1.91758441925048828
15.7452182769775391 -1.18267226219177246 -7.18472766876220703
-2.6237335205078125 13.5984907150268555 -19.7839832305908203
-11.5305652618408203 0.415329337120056152 -5.71304798126220703
14.4987878799438477 12.4155893325805664 -11.8540363311767578
11.9232940673828125 -1.06665408611297607 -11.0864906311035156
-3.39910745620727539 -0.201081946492195129 3.11663985252380371
-2.45624041557312012 -0.0584520325064659119 5.74994421005249023
-10.0586223602294922 0.406997114419937134 -17.2002964019775391
0.345361024141311646 -0.770791471004486084 -2.68390250205993652
-7.91217613220214844 1.03164994716644287 10.0026617050170898
5.64668178558349609 -0.827891647815704346 -14.6639471054077148
5.08368015289306641 5.58783197402954102 22.6951351165771484
-6.8288731575012207 8.46633243560791016 19.8494186401367188
3.13160347938537598 4.18603849411010742 -23.3210048675537109
-8.12767982482910156 10.7784252166748047 2.79429483413696289
12.5736541748046875 6.54053783416748047 -18.8972244262695312
-3.1281585693359375 1.63798618316650391 18.4178295135498047
-12.7877111434936523 10.3570518493652344 7.91197490692138672
14.5975818634033203 1.56744933128356934 15.7476739883422852
-6.8763127326965332 9.01045131683349609 18.3017463684082031
0.721584618091583252 11.5912590026855469 -0.706902205944061279
9.67136096954345703 12.9181079864501953 -11.6437397003173828
-4.33619117736816406 -0.163080394268035889 -15.7385454177856445
2.30250430107116699 11.21502685546875 2.74873852729797363
13.2419862747192383 10.1551151275634766 9.53515148162841797
19.0932102203369141 12.5515365600585938 -10.0624361038208008
-7.90300703048706055 0.224876895546913147 5.22488689422607422
19.2698154449462891 0.973458170890808105 5.81214714050292969
-2.0044550895690918 1.86004805564880371 21.1545448303222656
-9.45678138732910156 7.68437337875366211 -18.8184680938720703
-1.77239739894866943 10.6512660980224609 8.32376670837402344
4.47026443481445312 8.61721324920654297 20.3800144195556641
-12.7489776611328125 1.01311016082763672 3.40806984901428223
16.9204978942871094 11.8305416107177734 -3.38917922973632812
-14.014704704284668 10.3745222091674805 8.39160633087158203
8.98647689819335938 11.2158756256103516 4.78719568252563477
18.2163543701171875 -1.06995809078216553 -7.13707542419433594
-7.60901832580566406 0.174946203827857971 5.03645944595336914
-7.90807056427001953 9.12283802032470703 18.2682514190673828
1.47681450843811035 0.0604514628648757935 10.7519025802612305
-2.20467472076416016 1.34061002731323242 17.1417579650878906
-4.73762989044189453 12.235377311706543 -8.71965980529785156
8.36870956420898438 8.70211887359619141 20.5530242919921875
5.44062948226928711 -0.519409894943237305 -21.6272392272949219
15.9070844650268555 3.29993677139282227 14.5557670593261719
-6.06207799911499023 9.33087825775146484 15.3448820114135742
-10.6146354675292969 0.902881622314453125 6.42668342590332031
-11.9865608215332031 4.95598459243774414 15.6403026580810547
-10.1800136566162109 0.260821908712387085 -8.43961429595947266
2.8744809627532959 -0.850815773010253906 -1.58900952339172363
-7.35022544860839844 2.12026119232177734 18.4928245544433594
11.6374979019165039 12.5764932632446289 -5.56000661849975586
17.1050853729248047 -0.75724261999130249 8.22183704376220703
-3.65540432929992676 5.79840373992919922 22.1380271911621094
17.4040470123291016 -1.15286195278167725 -0.517789721488952637
12.8094949722290039 12.200282096862793 -3.79183340072631836
-6.04363584518432617 0.399198919534683228 8.91805171966552734
2.59087777137756348 12.3219900131225586 -5.69349908828735352
8.90509891510009766 7.44862985610961914 21.3954696655273438
-3.11063766479492188 12.7697305679321289 -14.1680507659912109
7.96719646453857422 0.275072872638702393 14.4776105880737305
18.7595462799072266 6.17066478729248047 -10.9395904541015625
-10.2866382598876953 11.7969598770141602 -5.45471048355102539
3.18372201919555664 12.8495559692382812 -9.7294464111328125
-15.6788702011108398 8.72366237640380859 6.21785259246826172
1.10860669612884521 9.04734230041503906 17.9265689849853516
19.1541118621826172 8.17132472991943359 -10.951502799987793
-9.36801052093505859 0.172089457511901855 -8.32060813903808594
-4.46824550628662109 12.7775087356567383 -14.390172004699707
14.2038936614990234 12.0324478149414062 -3.76151442527770996
16.4315834045410156 9.86949062347412109 12.5889253616333008
12.6904125213623047 -0.370767176151275635 9.00385951995849609
17.1918201446533203 11.7456741333007812 -1.7709275484085083
2.84797406196594238 10.7348508834838867 7.23451519012451172
21.1756401062011719 6.93718433380126953 -1.98418176174163818
-17.9830436706542969 2.15601801872253418 -1.29330575466156006
-2.40738272666931152 10.8795204162597656 4.86400318145751953
7.64758205413818359 9.66880893707275391 12.7333011627197266
16.5930652618408203 -0.702223360538482666 8.30072307586669922
-5.18403768539428711 -0.0687233209609985352 3.12247967720031738
3.7935640811920166 10.5011520385742188 9.55362319946289062
17.5169525146484375 12.0157575607299805 -6.97036838531494141
-10.0300226211547852 2.77606058120727539 18.3694839477539062
-17.0109233856201172 5.42402744293212891 3.84230613708496094
-9.91230106353759766 0.252908557653427124 -8.9913787841796875
18.3592491149902344 4.892181396484375 10.8656845092773438
9.0059814453125 9.02814006805419922 16.8051834106445312
-4.17763948440551758 13.5186595916748047 -18.7868766784667969
18.708526611328125 5.07414579391479492 -10.4517078399658203
-3.68202567100524902 -0.124749369919300079 -20.7429904937744141
9.50160884857177734 13.4521932601928711 -21.0236778259277344
-2.41733789443969727 4.36481332778930664 -23.1818695068359375
0.435574650764465332 -0.487601697444915771 2.62514042854309082
-16.5286350250244141 8.53619956970214844 -0.151796430349349976
9.90761470794677734 12.8001317977905273 -13.0563011169433594
11.3049755096435547 12.9485111236572266 -20.2410507202148438
-6.86998605728149414 10.4425945281982422 6.05554389953613281
-14.9944868087768555 6.0114445686340332 -11.8870058059692383
20.5296688079833984 9.19341659545898438 -7.99769258499145508
8.1556243896484375 -0.0995960533618927002 10.360137939453125
-15.6103973388671875 1.15646755695343018 -3.9180912971496582
8.30394268035888672 -0.883640289306640625 1.87789058685302734
0.431940793991088867 0.743484079837799072 14.4423303604125977
-6.3361973762512207 2.04980564117431641 19.0184593200683594
-14.9947023391723633 11.1829957962036133 3.26279664039611816
-6.66818857192993164 9.00331878662109375 19.00469970703125
4.28122663497924805 13.6016874313354492 -21.0882720947265625
-0.776573538780212402 -0.371541917324066162 3.97857785224914551
10.5822362899780273 11.4871711730957031 -21.0923385620117188
-10.0429611206054688 8.31933879852294922 -18.1404972076416016
9.31804084777832031 4.40491104125976562 20.8748416900634766
-2.32131671905517578 10.7217807769775391 6.60797023773193359
10.4410467147827148 -0.462793439626693726 6.77151298522949219
18.2648487091064453 1.62243914604187012 9.49189376831054688
-15.5050697326660156 2.14551019668579102 9.77199935913085938
1.36920630931854248 0.427003055810928345 12.9103784561157227
6.55268383026123047 6.93813037872314453 22.3050804138183594
12.1548423767089844 -1.08086037635803223 -8.12126541137695312
-1.93443858623504639 11.7335796356201172 -1.66607260704040527
7.33477783203125 2.73372793197631836 21.5709152221679688
-1.17171621322631836 -0.63548731803894043 -1.57184922695159912
7.86383342742919922 -0.786042273044586182 -18.0068225860595703
9.20903682708740234 -1.00752508640289307 -10.7142572402954102
6.61998653411865234 0.0640652328729629517 10.9678373336791992
-9.98190116882324219 11.8289356231689453 -4.10802030563354492
10.7177953720092773 13.0075559616088867 -17.5984592437744141
-6.71615791320800781 10.0297183990478516 9.00469875335693359
-7.04831886291503906 11.0518474578857422 2.64086127281188965
8.728668212890625 9.61451053619384766 13.1017265319824219
9.77994060516357422 11.3963384628295898 3.54909753799438477
6.44337844848632812 -1.16965436935424805 -7.13268089294433594
-8.68785381317138672 10.4554710388183594 5.04320859909057617
13.7906055450439453 -1.08643865585327148 -13.3204584121704102
12.4988689422607422 9.42972373962402344 13.4101533889770508
-1.54143345355987549 -0.569768667221069336 -0.692210137844085693
-3.75874853134155273 11.0156288146972656 3.94078755378723145
3.9135744571685791 -0.179967284202575684 8.97570323944091797
3.34329724311828613 8.57855606079101562 21.0057373046875
-3.73679184913635254 9.83035945892333984 11.5423345565795898
-9.21172142028808594 0.921831846237182617 7.88606166839599609
9.13972949981689453 11.8664665222167969 -0.101333178579807281
-3.89267539978027344 11.1011991500854492 2.93559479713439941
18.0120697021484375 0.476592093706130981 9.40162277221679688
19.0463790893554688 0.108800873160362244 -5.65865039825439453
0.829755127429962158 -0.538657724857330322 -14.1081476211547852
3.50178837776184082 2.59788012504577637 -23.2651653289794922
5.10619640350341797 0.776253819465637207 17.1699428558349609
-5.04942178726196289 8.50337028503417969 21.0939807891845703
8.59759521484375 -0.734125733375549316 -18.6843852996826172
18.3453445434570312 -1.14905035495758057 0.180347129702568054
-5.1540379524230957 -0.414542675018310547 -6.91214895248413086
2.48152852058410645 11.4170713424682617 1.20181894302368164
13.3567619323730469 -0.94299924373626709 -1.9544832706451416
9.68711662292480469 11.7579898834228516 0.923322618007659912
-13.9939918518066406 10.5482711791992188 7.23677778244018555
-12.8713312149047852 11.5386648178100586 -2.82061004638671875
18.7925815582275391 3.61717963218688965 9.37149810791015625
16.6675643920898438 11.6048650741577148 -0.284536302089691162
13.2827997207641602 -0.434503853321075439 -16.2765655517578125
3.70490765571594238 4.84694719314575195 -23.2764663696289062
16.1286258697509766 12.0963649749755859 -6.01040935516357422
-6.2685084342956543 2.04882168769836426 19.1049785614013672
13.2356662750244141 12.9409561157226562 -18.6556949615478516
19.2057476043701172 -0.999917387962341309 -1.7068328857421875
0.135377779603004456 0.163400202989578247 11.6610546112060547
19.65679931640625 10.8142843246459961 9.07221603393554688
10.5837306976318359 9.95547580718994141 10.9394693374633789
-9.56667995452880859 0.72138667106628418 6.63492488861083984
19.0972175598144531 12.1899528503417969 -11.9606456756591797
-1.92381870746612549 -0.60449516773223877 -11.1305990219116211
6.56579446792602539 10.7221889495849609 8.54972457885742188
-13.5083885192871094 6.70412015914916992 -14.1790924072265625
-1.23827528953552246 0.547790229320526123 -23.2412223815917969
3.64006614685058594 11.0471200942993164 5.1427764892578125
1.06693160533905029 -0.74358665943145752 -3.02405595779418945
7.00113391876220703 8.70468330383300781 21.3621177673339844
17.9725379943847656 -1.05098700523376465 0.897607505321502686
-16.8943843841552734 6.81960344314575195 -3.28058099746704102
15.4027280807495117 2.77088618278503418 15.1155357360839844
-2.96439409255981445 -0.287196069955825806 2.31807804107666016
-1.61071813106536865 -0.3778209388256073 -13.344578742980957
10.2703609466552734 8.51775360107421875 -21.2475528717041016
-11.5421848297119141 6.30775642395019531 15.7981462478637695
16.3482437133789062 -0.707990407943725586 7.25611495971679688
17.6225032806396484 -1.22476792335510254 -4.91104030609130859
-3.30778837203979492 8.59635257720947266 21.7605056762695312
6.94239044189453125 -0.533325493335723877 6.46647548675537109
18.7921829223632812 12.7362957000732422 -11.8182506561279297
-9.86197566986083984 11.5314178466796875 -3.16917777061462402
2.93026137351989746 13.3290910720825195 -19.9160327911376953
15.8717403411865234 -0.727638185024261475 -12.7486104965209961
-12.7674140930175781 8.25592899322509766 13.2303600311279297
16.7256736755371094 12.3931760787963867 -15.2842321395874023
15.4090118408203125 2.06022405624389648 14.8054037094116211
12.0153064727783203 -0.870015859603881836 0.103825248777866364
3.90212631225585938 -0.754320144653320312 1.99274337291717529
-1.06335318088531494 8.88070106506347656 19.9333171844482422
-9.19897937774658203 9.9791717529296875 9.28651332855224609
1.62747347354888916 11.0660419464111328 -23.1291179656982422
-0.698944687843322754 13.2038993835449219 -18.3136062622070312
20.6283416748046875 9.50950813293457031 -7.80084848403930664
-13.0233573913574219 4.73608779907226562 14.3790826797485352
-9.124908447265625 1.24643123149871826 9.97795772552490234
-2.7376258373260498 1.59860348701477051 18.0430240631103516
9.18476963043212891 3.89035749435424805 -21.3799591064453125
18.3719806671142578 10.5494956970214844 9.36234092712402344
12.6284894943237305 -1.0655289888381958 -11.9881067276000977
6.12106800079345703 13.6185379028320312 -21.352203369140625
-2.56593203544616699 1.59621989727020264 18.4565963745117188
14.3439817428588867 10.8470182418823242 -17.8671531677246094
13.5488510131835938 5.35250282287597656 17.9119052886962891
-6.82861948013305664 11.581242561340332 -2.1136023998260498
16.3116035461425781 8.07753849029541016 -15.5018634796142578
-9.12656593322753906 4.46958541870117188 18.9637584686279297
7.33717012405395508 0.498815745115280151 16.5619831085205078
16.4594898223876953 6.92344236373901367 -15.0598554611206055
12.7939090728759766 10.952540397644043 5.31626081466674805
3.27524399757385254 0.196373671293258667 11.3719549179077148
-1.65324926376342773 9.01625347137451172 -22.9234085083007812
16.6892604827880859 -0.772425711154937744 5.8358922004699707
-12.5171957015991211 7.62009620666503906 -15.4306430816650391
15.5082979202270508 0.728245675563812256 14.1597929000854492
6.71668863296508789 -1.17876708507537842 -9.47980785369873047
18.7598209381103516 -0.823791623115539551 -5.57345390319824219
-4.50170230865478516 -0.0482819415628910065 3.85014748573303223
5.77769136428833008 9.35894203186035156 15.2076349258422852
8.81614398956298828 9.20322704315185547 15.5332403182983398
