ply
format ascii 1.0
element vertex 784
comment vertices
property float x
property float y
property float z
end_header
4.14322471618652344 10.1843757629394531 -19.7071857452392578
4.81570577621459961 -58.2886810302734375 15.9432315826416016
-5.08443498611450195 -61.2818717956542969 -13.5634384155273438
-14.6172056198120117 -75.020416259765625 1.43626725673675537
9.02036762237548828 -26.2210350036621094 13.3499689102172852
-17.5899181365966797 11.5932512283325195 -8.90573883056640625
-11.2912464141845703 -53.160430908203125 -11.1153202056884766
7.89235591888427734 -78.0262603759765625 13.4443140029907227
14.7419052124023438 -14.9378805160522461 7.04805850982666016
-9.95213127136230469 -62.1109733581542969 -11.4822149276733398
-8.22367286682128906 -99.9544525146484375 -3.75032544136047363
6.35668134689331055 68.9522171020507812 -19.3629035949707031
-17.8843917846679688 69.3310012817382812 -7.77819919586181641
7.71954679489135742 31.4675750732421875 -19.4597969055175781
-6.14241647720336914 -86.553924560546875 -9.53189563751220703
-12.3786830902099609 54.4760551452636719 -15.6523761749267578
-6.86578035354614258 -103.126785278320312 -2.77498316764831543
-17.1217193603515625 18.1849346160888672 -9.35171604156494141
13.1191320419311523 85.8633041381835938 -9.97784423828125
2.89731049537658691 -85.4744110107421875 -10.6035480499267578
-1.7085949182510376 45.7276878356933594 18.9681396484375
-10.0423259735107422 25.3687934875488281 13.9574880599975586
-18.1316909790039062 -16.1384334564208984 -1.5031512975692749
-19.3851490020751953 63.5610809326171875 -0.792345583438873291
13.1635942459106445 -61.5544967651367188 8.18868732452392578
-5.83271360397338867 -81.6547317504882812 14.9754667282104492
1.06241166591644287 36.70147705078125 18.0870876312255859
15.8471031188964844 -0.0424780361354351044 -9.25073623657226562
-5.96385669708251953 9.92518711090087891 -19.7349872589111328
-5.02678012847900391 -79.9592132568359375 15.199498176574707
2.9964601993560791 -99.93048095703125 11.6052255630493164
13.6988296508789062 -77.8027191162109375 0.632392048835754395
-8.49873161315917969 -16.3864212036132812 -17.2666492462158203
12.8857145309448242 -56.7487907409667969 -6.24268627166748047
5.7245173454284668 -44.4149551391601562 -14.8335714340209961
-4.8073272705078125 39.3023490905761719 17.7433719635009766
-17.9590053558349609 70.1226425170898438 -7.38115501403808594
-6.98585033416748047 15.6329936981201172 -19.0443210601806641
17.7228050231933594 18.7412815093994141 3.94347763061523438
-16.1382427215576172 -12.8675336837768555 -10.3062639236450195
18.2436981201171875 14.5609226226806641 0.248955324292182922
-18.3720436096191406 1.97073709964752197 -4.86442375183105469
-19.2438793182373047 45.8736534118652344 -2.29419112205505371
-9.29017543792724609 -88.7127914428710938 -6.81584930419921875
-19.2550029754638672 62.2809867858886719 -2.8908989429473877
5.35271596908569336 11.844365119934082 -19.3679466247558594
2.13925290107727051 36.8784904479980469 -21.1243228912353516
-11.588200569152832 -6.86885213851928711 -16.2968540191650391
14.0491523742675781 65.2594985961914062 -15.4337549209594727
-18.5037784576416016 -2.50555086135864258 -4.34024810791015625
13.8399820327758789 -70.2368545532226562 -2.22271728515625
-8.02398490905761719 6.9911799430847168 -18.7046642303466797
-16.1979694366455078 -22.1311397552490234 -8.81150436401367188
9.1613006591796875 -16.8061485290527344 -16.3700942993164062
18.7352619171142578 39.5595855712890625 7.20973682403564453
-9.06288623809814453 30.1355743408203125 -18.6230144500732422
20.8118820190429688 52.2902450561523438 3.0868380069732666
-13.3949565887451172 -3.70858263969421387 -14.8661575317382812
2.05458641052246094 -90.4159164428710938 -9.65640449523925781
-0.397324353456497192 -110.951019287109375 2.42437243461608887
6.94411516189575195 60.1260528564453125 -19.3829784393310547
18.2938098907470703 54.5881004333496094 -10.5253267288208008
-11.1257009506225586 -67.0613174438476562 12.8475351333618164
12.0578937530517578 72.477569580078125 16.5377464294433594
-6.29360342025756836 -76.363067626953125 15.2459144592285156
-14.7878246307373047 -25.0065116882324219 8.40174484252929688
-9.21885013580322266 -90.7066421508789062 11.3600349426269531
-8.57133007049560547 84.0879287719726562 -14.1334171295166016
4.41546821594238281 69.8556289672851562 -19.8178977966308594
-12.6878566741943359 88.421875 -3.26651787757873535
-12.7887983322143555 -79.9308624267578125 -3.61989355087280273
6.89652872085571289 -86.0672378540039062 13.1493825912475586
-17.6208591461181641 43.2754592895507812 5.22595977783203125
7.32961511611938477 -92.4587783813476562 -6.82173347473144531
5.36739635467529297 -26.5050048828125 15.4068212509155273
8.76821708679199219 74.6959075927734375 18.1903953552246094
8.1495361328125 -46.4764022827148438 13.8682184219360352
-16.7647037506103516 -41.3236618041992188 4.52307510375976562
2.32672548294067383 -84.6013565063476562 15.6362037658691406
7.60317087173461914 -56.549835205078125 14.4476003646850586
15.2646236419677734 -39.4127883911132812 5.645294189453125
-0.0760751664638519287 -5.49372148513793945 16.4009304046630859
-17.5995559692382812 -20.3591880798339844 1.15103399753570557
-10.2841014862060547 -83.3876190185546875 -7.05839729309082031
4.67556953430175781 -25.3160877227783203 -17.6205692291259766
-15.8046417236328125 -32.2665443420410156 -8.48545932769775391
-10.8018693923950195 -41.8026962280273438 13.251490592956543
-18.3888263702392578 13.1009159088134766 -5.83740472793579102
20.9945106506347656 67.015380859375 1.52106869220733643
13.7761335372924805 5.38173818588256836 9.88829803466796875
-6.82420682907104492 52.0203475952148438 -19.0324993133544922
-4.68531990051269531 88.9963912963867188 -1.76307129859924316
-11.6241979598999023 -94.6185379028320312 0.735741674900054932
-10.5742368698120117 25.3943519592285156 -17.0790138244628906
10.2031583786010742 70.122650146484375 -17.6916732788085938
-9.77590751647949219 -29.0488433837890625 -15.5907316207885742
0.978310942649841309 56.6364173889160156 20.0757656097412109
0.528877675533294678 68.6425018310546875 -20.2273483276367188
9.13549518585205078 62.1858787536621094 18.4959506988525391
2.55891799926757812 37.7983436584472656 18.1057090759277344
-13.3764095306396484 41.1071891784667969 12.3619594573974609
-6.0322418212890625 -75.0733108520507812 15.5088338851928711
-17.7570133209228516 40.4529762268066406 4.83287811279296875
-15.7181081771850586 9.82123756408691406 -12.5795488357543945
20.399810791015625 75.8270263671875 -0.281095445156097412
-9.04158973693847656 -90.6391754150390625 11.5197410583496094
12.0448131561279297 -87.3657302856445312 0.527086615562438965
-18.4492626190185547 -2.8708350658416748 -4.94291353225708008
14.6008338928222656 -67.7219009399414062 3.35327363014221191
11.3103523254394531 80.3546905517578125 15.5774192810058594
-8.95624828338623047 27.1685504913330078 -18.5516357421875
-3.55500936508178711 -80.7894744873046875 -11.4374046325683594
-10.1581783294677734 -76.39337158203125 -8.49249458312988281
13.0643014907836914 12.8894433975219727 -14.4381980895996094
14.4405679702758789 16.0949497222900391 -12.4278802871704102
-1.4747769832611084 89.9589996337890625 3.21993112564086914
12.8051109313964844 -19.1056575775146484 -12.9209213256835938
-3.29942607879638672 -41.2814979553222656 -16.4547538757324219
20.2910594940185547 59.2210731506347656 -6.04312705993652344
5.07334041595458984 -104.170372009277344 -3.39654088020324707
16.4467277526855469 -33.6684951782226562 -2.3915703296661377
9.14838504791259766 -5.02486324310302734 -17.1184349060058594
-13.6614694595336914 -85.1336746215820312 0.344832688570022583
-1.15272414684295654 59.7792320251464844 20.0911083221435547
-6.46397542953491211 1.84548211097717285 15.4152231216430664
14.8030986785888672 43.1972885131835938 -14.7841424942016602
-14.7780447006225586 47.0863037109375 10.9131679534912109
-3.00178837776184082 -91.7182693481445312 -9.363128662109375
-8.45260906219482422 79.1841888427734375 16.8171195983886719
10.4019088745117188 14.8138866424560547 13.5568342208862305
-6.12272310256958008 64.822723388671875 -19.4359245300292969
1.30651378631591797 -46.6685943603515625 16.6793689727783203
14.7675790786743164 -6.00048351287841797 7.84175634384155273
2.93711233139038086 -91.4635086059570312 -9.30823326110839844
18.5693435668945312 66.2443161010742188 -9.03581619262695312
-8.95924949645996094 -42.5198783874511719 -14.6973323822021484
-1.83176445960998535 61.5598030090332031 20.0744495391845703
-7.83997106552124023 29.4241294860839844 15.4828710556030273
-14.9399051666259766 23.1534690856933594 8.79820156097412109
-14.6566686630249023 86.0388717651367188 -5.13436031341552734
-15.5745439529418945 -52.746551513671875 1.36886942386627197
-17.6543140411376953 60.9476814270019531 -8.54636192321777344
-11.1434898376464844 -55.4494209289550781 -11.3648614883422852
17.2831954956054688 76.6235580444335938 -9.40813732147216797
-18.19146728515625 45.853668212890625 -7.42614078521728516
10.3634738922119141 29.8019981384277344 14.7716789245605469
3.94071197509765625 83.682281494140625 -16.6804828643798828
-12.895411491394043 69.6421279907226562 -14.7578449249267578
-8.80433464050292969 -86.9312667846679688 12.5810632705688477
13.3572721481323242 -46.7344627380371094 -7.58906316757202148
1.70582461357116699 -29.8664112091064453 16.3107776641845703
-2.46662163734436035 -45.3921661376953125 -16.0436954498291016
-17.2641029357910156 -33.261688232421875 -4.74989795684814453
12.5452089309692383 -77.3122406005859375 -3.93984389305114746
20.6537418365478516 69.0234451293945312 4.1166529655456543
17.5845279693603516 7.02680301666259766 -6.33332633972167969
-9.55646705627441406 -21.1498737335205078 13.3504724502563477
1.20085310935974121 20.6684284210205078 17.0442485809326172
6.47833490371704102 -11.4405183792114258 14.6808004379272461
10.8747701644897461 -9.34262657165527344 11.9347352981567383
-12.389430046081543 55.6531105041503906 14.7965812683105469
19.3936710357666016 44.2096977233886719 -6.92155838012695312
-9.62517070770263672 12.2135763168334961 13.8985300064086914
7.88919734954833984 88.910308837890625 -0.269626319408416748
5.12195968627929688 -89.0928573608398438 13.8252182006835938
20.6776981353759766 46.7783050537109375 -2.19308185577392578
18.6403961181640625 82.4739837646484375 2.2870635986328125
-18.7776279449462891 30.421142578125 0.691697001457214355
8.53317737579345703 -62.3310317993164062 13.9183235168457031
12.7867746353149414 17.9513797760009766 11.2296743392944336
-17.0172977447509766 20.6962184906005859 -9.84473323822021484
-19.1026477813720703 48.6784858703613281 -1.56437504291534424
14.2990598678588867 -69.000091552734375 -0.860177218914031982
16.4381103515625 -30.9599971771240234 -1.56391251087188721
2.9820396900177002 72.4995803833007812 -19.5485782623291016
10.7106342315673828 -77.4927749633789062 -6.97178077697753906
-19.5139961242675781 70.8845596313476562 0.0323226042091846466
16.6091842651367188 31.3677520751953125 -11.4669647216796875
-15.9039764404296875 31.3802585601806641 -12.0991592407226562
-11.0387754440307617 -49.4545021057128906 -11.7956600189208984
-4.068511962890625 -81.8752365112304688 15.6187076568603516
14.9213542938232422 -53.9570655822753906 0.747693896293640137
-16.1425018310546875 -59.5778732299804688 2.11936473846435547
-6.72496938705444336 43.9430046081542969 17.4337959289550781
5.09104490280151367 45.9434814453125 18.5889797210693359
8.79479217529296875 8.78029727935791016 14.0630998611450195
11.3660917282104492 -92.674285888671875 0.119720980525016785
-16.3941535949707031 54.2802162170410156 9.06899547576904297
-2.60711169242858887 41.9114952087402344 18.3860931396484375
-8.58572483062744141 52.51519775390625 -17.9697322845458984
-7.66622352600097656 -15.9753322601318359 -17.7447948455810547
-17.2108917236328125 -2.86266803741455078 4.52854394912719727
-2.44827485084533691 37.6752510070800781 17.9756259918212891
-14.9040946960449219 10.7261953353881836 -13.4565544128417969
-17.7059192657470703 -19.6383171081542969 -4.17261266708374023
1.37054741382598877 50.2478981018066406 19.689605712890625
20.4034633636474609 54.0526008605957031 4.83846712112426758
-7.08821678161621094 20.28521728515625 15.5616579055786133
17.4338874816894531 22.7472820281982422 5.51298999786376953
-13.309727668762207 42.684295654296875 -15.5161228179931641
4.32583999633789062 52.055084228515625 -20.2843685150146484
-17.66400146484375 53.8000335693359375 -8.39319992065429688
-18.6235733032226562 -5.39190578460693359 -2.82136416435241699
12.7423324584960938 -43.9251976013183594 9.21718978881835938
5.6908564567565918 -89.3922805786132812 -8.82571887969970703
-8.94374465942382812 -10.0398712158203125 -17.5855560302734375
-0.368196099996566772 74.85791015625 -19.3256549835205078
0.374926537275314331 -63.7740478515625 16.9651851654052734
-15.069605827331543 9.81712245941162109 -13.3368549346923828
3.24321293830871582 -60.6364707946777344 16.3964214324951172
-17.6731185913085938 -29.1612930297851562 1.14346396923065186
-9.83088207244873047 -40.2800827026367188 14.0738897323608398
-6.69228219985961914 -78.9611053466796875 -10.6538333892822266
-3.2421267032623291 -95.5165557861328125 13.4302139282226562
-13.2417173385620117 -18.7758884429931641 10.1528863906860352
-6.48900604248046875 33.5903244018554688 16.5323734283447266
-16.1407394409179688 83.8308258056640625 5.26627159118652344
-16.1930046081542969 -51.1097831726074219 -0.903938651084899902
14.6503591537475586 56.9725112915039062 -15.1382675170898438
5.29084920883178711 79.5518569946289062 18.8077945709228516
-4.43400192260742188 5.42355537414550781 16.04486083984375
-11.8766517639160156 57.2174835205078125 15.4622592926025391
-3.17612290382385254 15.6524219512939453 -20.2481613159179688
-5.00869894027709961 31.4744949340820312 -20.4511890411376953
3.54807519912719727 -66.1037979125976562 -13.0908517837524414
-5.46123218536376953 -73.7997055053710938 15.8827743530273438
-0.902788043022155762 -49.6610260009765625 -15.2804861068725586
-11.2012081146240234 11.348689079284668 -16.9959030151367188
-13.1350879669189453 -78.8129348754882812 -2.6475059986114502
-5.01745271682739258 85.6540603637695312 -15.1849269866943359
14.3673067092895508 59.679534912109375 14.7290315628051758
9.02410030364990234 -53.405426025390625 13.4328775405883789
8.03169727325439453 -37.3135185241699219 -14.7995119094848633
-19.4248714447021484 61.3174896240234375 -0.690665304660797119
13.785832405090332 36.25714111328125 12.5104455947875977
-1.82050526142120361 -52.7250518798828125 -15.0456781387329102
-11.1817331314086914 0.417062133550643921 -16.6528644561767578
10.8767204284667969 57.3123817443847656 17.2445011138916016
-11.3712215423583984 87.3405685424804688 8.99187374114990234
-15.8481540679931641 57.5586776733398438 10.7249774932861328
16.1012363433837891 79.317108154296875 10.7808380126953125
-15.7040681838989258 -53.290435791015625 0.667664110660552979
-2.63310432434082031 -10.834630012512207 -19.5561885833740234
8.67712974548339844 53.2208747863769531 -19.0318870544433594
-8.10142707824707031 -94.585479736328125 11.6074724197387695
-2.11644482612609863 88.9957962036132812 -12.993372917175293
-9.97618484497070312 75.8950119018554688 -15.9816064834594727
-4.3319239616394043 -70.0312118530273438 16.2532215118408203
-11.672119140625 33.9911460876464844 13.6496267318725586
11.9308404922485352 40.6196441650390625 14.992070198059082
8.75492191314697266 81.7046432495117188 16.6046295166015625
3.83348751068115234 47.2343902587890625 -20.4663181304931641
3.89738368988037109 72.3199234008789062 19.8375301361083984
16.52947998046875 11.5911779403686523 -9.09851741790771484
-14.9524831771850586 74.8861770629882812 12.1822967529296875
3.75424742698669434 -20.5424270629882812 15.6952676773071289
15.8263359069824219 30.1298828125 9.79288578033447266
5.86672067642211914 -25.0381889343261719 -17.3374900817871094
-2.11162948608398438 -71.6475448608398438 16.7875518798828125
5.25058746337890625 68.8676834106445312 -19.62530517578125
10.8074169158935547 -36.3513603210449219 -12.9575786590576172
-9.69615364074707031 -47.3177642822265625 -13.5700302124023438
-1.13374543190002441 23.1139678955078125 17.0254135131835938
-9.66759014129638672 -57.20806884765625 14.3307476043701172
16.1984729766845703 -10.3923234939575195 4.6753849983215332
-8.57863330841064453 74.878082275390625 -17.1341552734375
-17.2399520874023438 35.4096031188964844 6.08594179153442383
-14.0214138031005859 43.4412193298339844 -14.5712881088256836
-14.6190156936645508 -43.257232666015625 9.26307773590087891
16.2781810760498047 76.6718292236328125 -10.8577775955200195
9.86392307281494141 -43.5911636352539062 12.838191032409668
-2.52396559715270996 61.8562774658203125 -20.4482593536376953
-14.3228788375854492 78.751922607421875 -10.7758769989013672
4.34446954727172852 78.1027908325195312 19.2234325408935547
2.74303746223449707 -59.3619003295898438 -13.9708166122436523
14.0876216888427734 4.24105501174926758 -13.0485849380493164
19.1930561065673828 27.1537666320800781 -0.386144757270812988
-12.6094493865966797 -92.8194427490234375 3.29504919052124023
6.75333023071289062 -71.7381973266601562 14.710052490234375
9.6831512451171875 -17.77130126953125 12.630396842956543
-17.3219890594482422 -13.4488697052001953 2.46909284591674805
-17.7690353393554688 -28.4414958953857422 -1.91090214252471924
-1.82420837879180908 -95.70965576171875 -8.21843338012695312
-13.2736139297485352 -81.6080398559570312 -1.82845044136047363
-12.2949991226196289 -5.97924709320068359 -15.7291030883789062
-15.4921665191650391 -42.3383102416992188 8.02010154724121094
1.19770157337188721 -103.165367126464844 10.405792236328125
-17.8637351989746094 34.0187911987304688 4.2592473030090332
19.6733188629150391 71.08514404296875 -6.47948265075683594
11.544586181640625 -50.665924072265625 10.7717609405517578
18.0669364929199219 19.8765850067138672 -5.77088117599487305
0.168946430087089539 -16.0114021301269531 16.0087299346923828
15.4568672180175781 -38.2715644836425781 5.36513090133666992
20.2419185638427734 74.9653549194335938 2.71500134468078613
-13.8213176727294922 56.819366455078125 13.3463764190673828
-10.2835893630981445 46.8333816528320312 15.856165885925293
19.6946449279785156 50.9208297729492188 7.4152522087097168
-7.06606292724609375 -105.043914794921875 3.5178532600402832
16.7961368560791016 4.49813032150268555 4.31823396682739258
12.8676671981811523 -18.4729156494140625 9.1162872314453125
17.5622768402099609 1.1725841760635376 -5.19556856155395508
20.679351806640625 72.8791046142578125 2.29156732559204102
-15.9926729202270508 22.568603515625 -11.5252666473388672
-12.6491909027099609 -79.1158447265625 8.93323802947998047
-18.2548885345458984 28.2799091339111328 2.42624545097351074
10.8599872589111328 -21.7220840454101562 11.9417848587036133
14.4676799774169922 -64.09124755859375 0.0832730457186698914
18.37054443359375 49.8047142028808594 9.57787418365478516
-11.2159614562988281 -83.3998641967773438 -6.02698659896850586
-15.7259883880615234 78.7685394287109375 9.71459007263183594
0.0658404082059860229 -9.79486370086669922 -19.7259140014648438
-16.6283664703369141 16.8247127532958984 5.5966944694519043
-4.85327577590942383 -78.3437271118164062 15.1106986999511719
-13.9513320922851562 76.69512939453125 -12.0377464294433594
-13.595219612121582 2.3491370677947998 -14.7067785263061523
0.190400674939155579 -69.7332916259765625 -13.2675914764404297
0.171588942408561707 -1.64464712142944336 -20.3732242584228516
5.52280569076538086 -67.4946136474609375 -12.2614231109619141
7.87594699859619141 -6.42207193374633789 14.1126670837402344
-18.1128273010253906 16.2243728637695312 -6.37890052795410156
-16.8823680877685547 -33.2706146240234375 -5.93734979629516602
12.3187723159790039 -13.9911775588989258 9.84256076812744141
2.5436863899230957 -91.8536529541015625 -9.37909793853759766
16.8381881713867188 -16.7967605590820312 -3.83769989013671875
3.54777002334594727 -44.8309822082519531 16.1768436431884766
-8.82606697082519531 -36.3388481140136719 -15.4692878723144531
-16.1250743865966797 74.8411788940429688 10.2024307250976562
3.7585756778717041 -38.992828369140625 16.1250972747802734
8.67920780181884766 -94.6448135375976562 9.58091831207275391
14.4710063934326172 -58.8879737854003906 0.256432801485061646
13.5136680603027344 -30.5685615539550781 8.48742961883544922
-5.80954933166503906 14.2259693145751953 -19.336578369140625
10.2989368438720703 -1.81540179252624512 -16.5843353271484375
-15.3722944259643555 4.43044185638427734 -12.6880416870117188
-7.9854884147644043 33.5308418273925781 15.8647985458374023
-11.7266712188720703 -19.1213207244873047 -14.9874601364135742
-16.4734458923339844 -50.0686531066894531 -3.02681064605712891
-11.9633960723876953 11.4725151062011719 -16.4232406616210938
-0.526727497577667236 -53.1453742980957031 -15.0623073577880859
-15.5283536911010742 -14.8631601333618164 -11.1152458190917969
8.10503864288330078 -100.817604064941406 -1.68460416793823242
-9.63609218597412109 18.2488765716552734 14.1961641311645508
-17.3067455291748047 -28.970367431640625 -4.72615861892700195
-6.62071084976196289 87.3301010131835938 -13.1892108917236328
-17.4852809906005859 82.9044952392578125 -0.170835316181182861
-13.3505191802978516 -0.836700081825256348 -14.8637285232543945
17.2701339721679688 40.8248329162597656 9.94524097442626953
4.73256301879882812 -51.6511192321777344 15.6989536285400391
-3.49600934982299805 19.564788818359375 -20.3484401702880859
0.829493522644042969 86.5477981567382812 15.8493833541870117
-13.4618654251098633 15.3419990539550781 10.317469596862793
13.0706863403320312 68.7931671142578125 -16.0631008148193359
-16.1445446014404297 -36.5634269714355469 6.25655031204223633
-18.1768245697021484 18.1212978363037109 1.72303235530853271
-2.73548126220703125 -46.3407669067382812 -15.8825960159301758
-10.377192497253418 -7.06921148300170898 13.1142520904541016
-14.2386436462402344 -41.1668548583984375 -9.88421440124511719
16.1894798278808594 40.2018051147460938 11.2241153717041016
11.0330619812011719 -23.4324874877929688 -14.0528669357299805
-15.8340091705322266 10.700587272644043 6.71881103515625
6.21950149536132812 -53.6974296569824219 15.1200370788574219
-17.2086982727050781 -39.2931060791015625 -0.066570967435836792
-9.79767131805419922 -87.2962722778320312 11.6495161056518555
-7.05443096160888672 52.4018898010253906 18.0994281768798828
-15.9740457534790039 67.729949951171875 11.0728168487548828
-13.9389505386352539 13.4275016784667969 9.72801303863525391
16.4295425415039062 10.3641357421875 -9.33766078948974609
-17.3165779113769531 53.8737220764160156 7.08199596405029297
7.81795740127563477 14.4346446990966797 -18.2213802337646484
-3.73495268821716309 -0.357859969139099121 -20.0867710113525391
9.8360748291015625 8.18361473083496094 13.3682518005371094
13.1680755615234375 -53.0402107238769531 -6.59205865859985352
-16.0258769989013672 -22.0781307220458984 5.98006486892700195
11.6947650909423828 -42.8962211608886719 10.9322109222412109
-1.4893956184387207 -37.4217948913574219 16.6774864196777344
10.9503307342529297 -66.2132568359375 -8.16393470764160156
6.28819131851196289 51.6627464294433594 -19.8929061889648438
-11.502558708190918 -3.17231178283691406 -16.5062522888183594
12.6963825225830078 -26.676177978515625 10.0549068450927734
-2.95937037467956543 49.5211639404296875 19.3724174499511719
-6.15336704254150391 77.2030792236328125 -17.6895427703857422
19.7345142364501953 65.3911361694335938 -7.05303478240966797
-2.89262151718139648 -84.3963699340820312 15.7542028427124023
14.9388771057128906 -36.3736076354980469 6.58558416366577148
-18.4134063720703125 76.7264251708984375 -3.33886528015136719
-2.58732342720031738 -0.562791943550109863 -20.2724189758300781
5.17226123809814453 -105.496437072753906 -1.94066298007965088
8.41923904418945312 88.8515701293945312 9.80872344970703125
12.3567056655883789 -73.7103042602539062 8.845733642578125
-11.5120153427124023 71.1353530883789062 16.0866413116455078
7.57026386260986328 89.593109130859375 -4.45605754852294922
13.6087255477905273 -55.0803489685058594 7.67077445983886719
-5.03292369842529297 8.08550071716308594 15.9369287490844727
1.99970340728759766 -96.416290283203125 13.1870841979980469
14.1694173812866211 -30.5769290924072266 -9.01412487030029297
-11.6480512619018555 56.1362457275390625 -16.1578655242919922
-17.7801837921142578 58.5656166076660156 -8.00095939636230469
-12.1607646942138672 -11.175288200378418 -15.4154396057128906
-10.3119440078735352 -52.7116012573242188 13.377415657043457
-12.2723121643066406 38.5812263488769531 13.5474052429199219
-9.95780754089355469 -41.8614616394042969 13.9338102340698242
9.04677200317382812 12.2367610931396484 14.281951904296875
-19.253173828125 73.3625411987304688 -0.499267280101776123
-14.1626491546630859 -59.3123207092285156 -6.40282630920410156
-18.5210819244384766 8.57458877563476562 -0.304186582565307617
14.7129449844360352 -25.8880558013916016 -8.49712562561035156
-17.2674541473388672 -1.66054999828338623 4.4719080924987793
-2.17134237289428711 61.4903564453125 20.0213394165039062
13.0592145919799805 -80.44805908203125 -1.12696266174316406
-6.0621190071105957 60.4090576171875 -19.461669921875
16.7015171051025391 9.18277549743652344 -8.77535247802734375
-13.9213113784790039 -74.1381149291992188 -2.39634323120117188
15.8005456924438477 1.50123405456542969 -9.53764724731445312
-5.33253240585327148 -41.9937591552734375 -15.9844484329223633
15.8096027374267578 78.26318359375 11.5813121795654297
-3.76791548728942871 -32.3327178955078125 16.22772216796875
-2.99211883544921875 -103.909126281738281 9.49959850311279297
14.3863296508789062 -57.0882339477539062 -0.758015334606170654
8.49864578247070312 29.4708957672119141 -19.0932579040527344
14.9628400802612305 11.0069417953491211 8.92072582244873047
13.0215930938720703 49.5204544067382812 15.3481969833374023
-14.9481887817382812 -27.8184928894042969 8.23722267150878906
-2.16462349891662598 -26.72198486328125 16.3184738159179688
4.16923761367797852 -66.670928955078125 -12.8732643127441406
-10.6864175796508789 -65.1394729614257812 -10.2828054428100586
19.0139636993408203 32.7879447937011719 4.24528169631958008
20.4733829498291016 49.2717933654785156 -4.17438983917236328
16.6884555816650391 -26.1416454315185547 0.594076097011566162
-4.30985164642333984 31.9119472503662109 16.9244136810302734
-3.09594416618347168 -41.4944419860839844 16.6397686004638672
16.6462421417236328 -21.4247512817382812 -2.99717903137207031
-19.3919849395751953 64.9392929077148438 -1.34549987316131592
-8.79797458648681641 -79.756591796875 13.3298263549804688
-5.06139516830444336 -100.588287353515625 -6.12250757217407227
16.9935016632080078 -19.5175552368164062 -0.842585444450378418
17.4097976684570312 -6.13785600662231445 -0.0273493453860282898
-18.6299190521240234 7.88041830062866211 -0.919681727886199951
-10.959071159362793 33.4579315185546875 -17.5046672821044922
10.5798559188842773 -25.1010951995849609 12.1253452301025391
11.473942756652832 -89.2307205200195312 6.46346950531005859
-19.3923397064208984 72.773529052734375 0.829553604125976562
5.51091718673706055 -64.5193634033203125 15.7704038619995117
-12.0007314682006836 55.4336280822753906 15.1782016754150391
3.94771385192871094 67.3800735473632812 -20.0379467010498047
-16.8706378936767578 22.3029937744140625 -10.1739253997802734
0.420946091413497925 6.52541875839233398 16.6380939483642578
16.4079132080078125 -39.9155693054199219 0.470657795667648315
20.1704521179199219 39.6197280883789062 -2.62659716606140137
-11.3448047637939453 21.218902587890625 12.7839670181274414
-12.1175088882446289 53.133697509765625 14.5720634460449219
-13.9335289001464844 -12.5746192932128906 -13.3534021377563477
-1.3336867094039917 -78.2082672119140625 15.9882345199584961
-17.5045185089111328 27.2624835968017578 4.76820850372314453
17.7472190856933594 84.1290664672851562 3.47660350799560547
-2.1905524730682373 -49.576141357421875 16.8364734649658203
-7.33628511428833008 57.0986824035644531 18.4011592864990234
-13.5646238327026367 34.300018310546875 11.8363933563232422
1.2249072790145874 27.0422763824462891 -20.8518390655517578
8.58282184600830078 89.6835403442382812 -3.19047141075134277
11.6819181442260742 -88.9679183959960938 -1.72815263271331787
-8.86825180053710938 -69.6057968139648438 14.0263957977294922
20.3002166748046875 41.0036506652832031 -2.81528639793395996
-0.306459128856658936 -85.461639404296875 15.9587459564208984
17.9770603179931641 48.1127815246582031 9.78094577789306641
-16.0196685791015625 -13.2853765487670898 -10.5005378723144531
-4.2152562141418457 -13.9257898330688477 15.691859245300293
7.63708257675170898 -96.966400146484375 9.70225143432617188
-13.5012712478637695 45.7407112121582031 -14.8840599060058594
-13.6999025344848633 27.7859268188476562 10.8925724029541016
-1.50636494159698486 -82.03668212890625 -11.5389280319213867
11.9444084167480469 -26.2496490478515625 -12.4141607284545898
11.7933835983276367 -69.5709457397460938 -6.51394033432006836
-8.35717868804931641 -93.6688308715820312 -6.09908676147460938
15.0922107696533203 -40.3140754699707031 -6.40194559097290039
9.96097183227539062 -71.7217636108398438 -8.71013259887695312
-3.99425721168518066 73.5568008422851562 19.6503067016601562
1.18247032165527344 7.94832038879394531 16.5796356201171875
-15.793156623840332 29.6245574951171875 8.02885913848876953
5.67360210418701172 83.9306259155273438 16.9224338531494141
-3.2568964958190918 -106.206802368164062 -2.75186276435852051
-12.6688451766967773 -84.9192657470703125 -2.95746731758117676
3.26527619361877441 11.7352828979492188 16.5637855529785156
17.3709926605224609 84.218414306640625 -4.08230066299438477
-7.89669322967529297 83.0942306518554688 15.9457845687866211
12.5489015579223633 -77.3350753784179688 -3.93644452095031738
8.83978939056396484 18.1449565887451172 14.6180591583251953
-17.8342437744140625 -20.5750503540039062 -1.21202540397644043
16.5794677734375 -12.6522188186645508 3.15317249298095703
12.8737707138061523 -79.8738479614257812 -2.2823493480682373
-6.76168537139892578 -96.6859970092773438 -6.52211761474609375
-8.51363658905029297 33.8066177368164062 15.6617288589477539
12.0882472991943359 -50.7733993530273438 -8.33697700500488281
17.5379714965820312 -0.436204582452774048 0.714003384113311768
-2.86816930770874023 -38.7121810913085938 -16.9783306121826172
14.1686573028564453 -70.3622207641601562 -0.959156274795532227
11.2231521606445312 -63.8351707458496094 11.4721755981445312
14.7834901809692383 -49.5943260192871094 3.99538159370422363
7.63137149810791016 -30.1134090423583984 14.3576192855834961
16.9452762603759766 -17.8168659210205078 1.14359831809997559
3.59780550003051758 69.3913421630859375 -19.9904441833496094
-15.4559144973754883 -48.6087570190429688 7.70212650299072266
-17.7624835968017578 6.24785804748535156 2.88906216621398926
-3.16978096961975098 58.882720947265625 19.7295360565185547
8.13792705535888672 -87.7817535400390625 11.9467411041259766
-17.1214847564697266 -11.6392621994018555 3.72498154640197754
13.7832469940185547 -16.6982841491699219 8.42751789093017578
13.0822696685791016 -46.5012474060058594 8.09010982513427734
18.0036964416503906 83.43951416015625 -3.05252552032470703
20.2229652404785156 73.9657974243164062 -3.25696945190429688
-9.84845924377441406 -36.0781440734863281 13.827549934387207
-18.2361431121826172 -11.6063270568847656 -1.91530001163482666
-16.5402603149414062 59.4741363525390625 10.04443359375
16.5768241882324219 -29.095703125 0.240678489208221436
5.9708552360534668 -93.6923294067382812 12.1865110397338867
5.77799081802368164 -51.8815345764160156 15.275324821472168
-9.26970767974853516 -89.9958114624023438 11.4769344329833984
-10.8071460723876953 -24.6734333038330078 -14.9223566055297852
19.0509815216064453 39.5779800415039062 -6.75865936279296875
-10.4490947723388672 -9.3496551513671875 12.8766145706176758
14.8129987716674805 -52.415863037109375 -2.02848434448242188
15.45819091796875 -25.719146728515625 -6.79260540008544922
4.73827075958251953 90.6403350830078125 -2.47128033638000488
-12.1254606246948242 54.664520263671875 -15.8570671081542969
-12.8745040893554688 15.0967235565185547 11.0071277618408203
-15.2986116409301758 22.5188541412353516 8.14540481567382812
-12.7442541122436523 -81.1062469482421875 -3.51063895225524902
-9.18514919281005859 -20.5143051147460938 -16.6045455932617188
6.74919319152832031 49.630126953125 18.7902755737304688
12.9923772811889648 6.59632205963134766 -14.7077360153198242
13.6128025054931641 -74.244781494140625 -1.95527863502502441
16.6149959564208984 -22.8037338256835938 -2.85610079765319824
-0.223556250333786011 61.1373672485351562 -20.6488552093505859
0.965349674224853516 -108.238059997558594 -1.84817373752593994
4.89634609222412109 -98.1801605224609375 11.3089227676391602
17.3334522247314453 15.442082405090332 5.17626333236694336
-17.2055206298828125 77.8980560302734375 -6.40846061706542969
-16.6275100708007812 63.8671455383300781 -10.5367498397827148
2.60524463653564453 88.1008377075195312 9.71148490905761719
15.9450187683105469 54.606903076171875 12.7729911804199219
-16.2114467620849609 43.3152732849121094 8.14700126647949219
-16.1618633270263672 79.8170928955078125 -7.55369472503662109
14.5147275924682617 38.1019248962402344 -14.9713735580444336
4.09592962265014648 3.27059817314147949 -19.5952053070068359
-13.2923307418823242 -69.7079086303710938 -5.38664388656616211
-15.1525440216064453 -16.163909912109375 -11.4931583404541016
-4.06469202041625977 22.1519680023193359 16.3820266723632812
-1.48011863231658936 9.78374958038330078 -20.4777603149414062
-3.3930506706237793 -100.320030212402344 -6.67371129989624023
-0.230882525444030762 -50.8376655578613281 -15.175837516784668
-13.7380008697509766 -42.0504875183105469 10.5172004699707031
11.50775146484375 -91.1034469604492188 2.75036740303039551
-10.4814138412475586 4.00091123580932617 -17.2090969085693359
11.8266525268554688 -88.4669952392578125 2.5120546817779541
-16.0882835388183594 -51.6068916320800781 0.993491470813751221
-12.5029811859130859 1.34244585037231445 11.8795871734619141
1.2649310827255249 83.83154296875 -16.9953517913818359
-7.73440694808959961 49.0633583068847656 -18.8136444091796875
10.34710693359375 -89.626953125 -4.26559209823608398
-5.51364946365356445 -60.689056396484375 -13.484044075012207
-16.6448554992675781 83.3420257568359375 -3.86747622489929199
-10.2277021408081055 -32.2570838928222656 -14.9707546234130859
-4.88866281509399414 21.8733310699462891 -19.9598293304443359
-6.39477777481079102 -32.4883079528808594 -16.8539905548095703
-14.7261619567871094 32.7891578674316406 -13.7723045349121094
11.4606704711914062 9.82656764984130859 12.1764154434204102
13.5934457778930664 -77.1380157470703125 -0.659473180770874023
10.0111818313598633 -83.3167037963867188 11.2495040893554688
16.5050296783447266 -37.3821868896484375 -2.04058194160461426
11.8088417053222656 -14.3460903167724609 -14.3413839340209961
-15.3497943878173828 9.38187789916992188 7.13512420654296875
-18.79583740234375 29.8092498779296875 -2.9078824520111084
-8.49675846099853516 30.2899398803710938 -18.9489536285400391
1.89637088775634766 -19.104888916015625 -18.8467502593994141
-14.0440254211425781 -41.6690902709960938 -10.1636762619018555
18.7867774963378906 56.1465415954589844 9.48367881774902344
-3.10333132743835449 -107.156341552734375 6.88142728805541992
-16.9772109985351562 83.68157958984375 2.82517552375793457
12.154362678527832 -85.9986648559570312 0.749437212944030762
1.44065773487091064 -38.1001358032226562 -17.0412750244140625
-10.2459278106689453 80.8436355590820312 15.1230058670043945
-12.9397315979003906 31.2239570617675781 -15.3791036605834961
-16.7115650177001953 -16.549896240234375 4.38780117034912109
-9.29692840576171875 -84.146575927734375 12.2341737747192383
16.1017055511474609 -34.5788078308105469 -4.0512385368347168
-4.76803445816040039 3.83510088920593262 -19.893218994140625
8.96364498138427734 -23.5948810577392578 13.4267215728759766
11.9486064910888672 -4.97291088104248047 -15.1431074142456055
11.5689830780029297 53.3668937683105469 -17.6775608062744141
-14.4253473281860352 -22.7445087432861328 8.78647613525390625
-13.6412544250488281 25.4254913330078125 10.6126422882080078
-14.6187915802001953 -12.4241847991943359 -12.7076520919799805
-8.44882678985595703 -34.64093017578125 14.7778635025024414
3.32817792892456055 -43.4638633728027344 16.1353797912597656
6.52654504776000977 -83.3985748291015625 -9.68058109283447266
5.68692970275878906 -75.969879150390625 14.9550437927246094
-7.12712717056274414 89.9625167846679688 -6.65567779541015625
17.8714656829833984 1.05669450759887695 -1.8594367504119873
-12.8596277236938477 -7.11450719833374023 11.1184368133544922
-15.3454627990722656 -21.4891414642333984 -10.29754638671875
-7.63135576248168945 -69.8714370727539062 -11.279139518737793
4.55653810501098633 -8.19768047332763672 -19.0853061676025391
10.2734136581420898 -24.1125545501708984 -14.6666326522827148
15.0621633529663086 4.39299154281616211 8.08415317535400391
10.2730655670166016 46.8628578186035156 -18.3639717102050781
-0.0996735170483589172 75.4515533447265625 -19.2943687438964844
-16.6269893646240234 7.87820911407470703 -11.3764362335205078
-10.9699802398681641 86.2209320068359375 -10.3645381927490234
-9.11226940155029297 80.272064208984375 -15.3122940063476562
-17.7096157073974609 -23.3474960327148438 -2.84924674034118652
-4.09371185302734375 -54.5825881958007812 16.5670528411865234
-18.4018039703369141 28.2383956909179688 -6.28208780288696289
-13.2964296340942383 52.0971221923828125 -14.6643896102905273
10.5460195541381836 -10.9186172485351562 -15.9059982299804688
-4.20916557312011719 77.4744796752929688 -18.2627201080322266
13.2737283706665039 46.9606513977050781 -16.4618167877197266
16.475982666015625 -35.7847480773925781 -1.19188618659973145
0.182371377944946289 -65.766632080078125 17.0043716430664062
19.756744384765625 70.5305557250976562 7.1946868896484375
-14.0972328186035156 5.13495874404907227 -14.3351984024047852
9.70647239685058594 74.1404495239257812 -17.4334239959716797
18.0647525787353516 21.2656402587890625 2.69353294372558594
4.96496868133544922 90.0235824584960938 -6.10829257965087891
-16.7010345458984375 -47.9990997314453125 3.92310357093811035
-6.53650379180908203 50.4613609313964844 18.2171211242675781
17.4510669708251953 15.4323139190673828 4.770782470703125
-14.1000518798828125 11.0535163879394531 -14.2396154403686523
18.1776943206787109 17.6588153839111328 -4.08742046356201172
13.0566520690917969 -9.37871932983398438 9.93472194671630859
3.12497663497924805 37.2829170227050781 18.0690517425537109
11.9070463180541992 46.6825408935546875 15.250244140625
-17.8377513885498047 -25.8172054290771484 -0.874548733234405518
12.663975715637207 -20.1730670928955078 9.75077533721923828
16.2303543090820312 57.933563232421875 -13.3624420166015625
-3.5658729076385498 88.900360107421875 -12.8011760711669922
-16.6903362274169922 24.4216804504394531 5.96407413482666016
-4.33062458038330078 -30.6328563690185547 -17.712921142578125
0.404383927583694458 -5.94980382919311523 16.3425121307373047
-16.4646854400634766 -26.1402111053466797 5.38594675064086914
12.3904867172241211 -68.3917999267578125 -5.72226428985595703
-9.52954864501953125 -90.4044265747070312 -5.90868473052978516
1.55293691158294678 -38.6040077209472656 -16.9933643341064453
17.1919479370117188 -13.726715087890625 -1.71732163429260254
-5.82929754257202148 -64.5128021240234375 16.0731143951416016
-16.1936683654785156 40.7329216003417969 -12.0656251907348633
6.78642082214355469 50.3327293395996094 -19.7811107635498047
-8.13664340972900391 -99.40325927734375 -4.17425346374511719
18.28765869140625 15.1352396011352539 -2.42057108879089355
5.49088859558105469 -30.5493183135986328 -16.8132495880126953
7.54956150054931641 85.5143280029296875 15.3393144607543945
14.0711116790771484 -48.1267166137695312 -5.27747964859008789
7.05246496200561523 30.0628547668457031 15.8928937911987305
-11.7627811431884766 -5.32417106628417969 12.4218788146972656
-6.59978199005126953 -81.8897552490234375 -10.2102127075195312
19.0152111053466797 27.9480228424072266 -5.14293861389160156
20.8058071136474609 68.6626663208007812 3.47020626068115234
-13.3632125854492188 80.9787826538085938 12.1553382873535156
14.8309078216552734 35.2545013427734375 -14.0380640029907227
14.0524883270263672 63.3146133422851562 15.2543821334838867
-2.50077342987060547 -3.54513430595397949 16.2469100952148438
12.7321891784667969 -1.23555755615234375 10.6062507629394531
-19.0490741729736328 67.7244338989257812 4.36884164810180664
-3.05626487731933594 88.7340850830078125 -13.0907258987426758
0.654780149459838867 49.0697517395019531 -20.7948284149169922
13.8200979232788086 31.88604736328125 -15.3622961044311523
2.26019072532653809 -50.7576522827148438 16.28570556640625
-15.7614421844482422 -59.60870361328125 6.09770345687866211
-17.8704833984375 12.9713916778564453 -7.86596298217773438
18.0263290405273438 27.5419483184814453 -8.45649051666259766
8.87784099578857422 12.6294937133789062 14.394195556640625
-15.0135221481323242 -71.232574462890625 1.47903811931610107
-17.4764747619628906 -14.0822334289550781 -6.858856201171875
14.1500053405761719 77.1720046997070312 -13.3417510986328125
-10.0877771377563477 -37.3429527282714844 -14.6421566009521484
11.2583827972412109 14.410374641418457 -16.1539287567138672
-3.75698733329772949 -99.5429000854492188 -6.8244175910949707
14.059661865234375 -58.977874755859375 6.32458305358886719
-15.2769002914428711 -16.3741531372070312 7.20148563385009766
5.07085847854614258 -88.7127456665039062 -9.18662261962890625
16.7736415863037109 -9.05749225616455078 2.79059600830078125
-9.35248184204101562 -48.5557022094726562 14.3757410049438477
7.56593179702758789 -96.05657958984375 10.4197587966918945
9.16597175598144531 -94.344512939453125 8.91950798034667969
12.037811279296875 -83.9166488647460938 -3.37480044364929199
-1.52097082138061523 -2.05666184425354004 16.4969444274902344
2.72484421730041504 56.8064308166503906 20.0014572143554688
-8.75244235992431641 -39.2653961181640625 14.7503166198730469
-9.70864677429199219 -38.2220420837402344 14.0780248641967773
-11.7375593185424805 -84.3328323364257812 -4.82085561752319336
-7.02705812454223633 -33.8796806335449219 15.4107999801635742
-9.45408535003662109 50.2002449035644531 16.5975265502929688
-7.00357151031494141 71.3060684204101562 18.8275775909423828
-8.04915618896484375 52.4685249328613281 -18.3509654998779297
16.8016033172607422 34.6526374816894531 9.18975830078125
-9.88383579254150391 37.9261550903320312 -18.2021865844726562
20.4785861968994141 53.0665969848632812 4.22122764587402344
15.0001707077026367 -53.9969978332519531 3.28916144371032715
-4.92420768737792969 -51.6050071716308594 16.3135013580322266
-6.38171195983886719 2.37544822692871094 15.4590482711791992
16.9131717681884766 -2.23659372329711914 3.60130190849304199
-6.98946666717529297 73.85235595703125 18.5843448638916016
16.5415496826171875 40.0141372680664062 10.7493648529052734
-11.9926176071166992 -59.2947044372558594 12.1235933303833008
1.42758941650390625 -81.6662368774414062 16.1478042602539062
-13.6751928329467773 37.473052978515625 12.0170230865478516
-15.1961612701416016 -66.0283889770507812 -1.0830000638961792
13.2865352630615234 84.8567352294921875 11.4946746826171875
13.7993621826171875 -48.669586181640625 6.9232940673828125
-2.45006632804870605 10.317047119140625 -20.479248046875
-7.44480371475219727 0.768645584583282471 -18.8540592193603516
-14.335627555847168 11.8918285369873047 9.18890190124511719
-11.6910953521728516 21.2914142608642578 -16.0077419281005859
-16.7719650268554688 5.4411468505859375 -10.4946603775024414
21.1032199859619141 54.1274948120117188 -1.5001218318939209
10.0322885513305664 -43.60943603515625 12.6356086730957031
5.71438026428222656 66.9271240234375 -19.6152229309082031
-3.98409914970397949 88.1163253784179688 10.0486946105957031
1.57752406597137451 90.5350570678710938 -10.7420854568481445
10.0100479125976562 87.6460113525390625 11.5932579040527344
19.7993392944335938 78.8119583129882812 -1.34625768661499023
-18.4780330657958984 -9.29808712005615234 -1.59737944602966309
-10.9539413452148438 -97.2916412353515625 0.514533758163452148
10.736536979675293 18.1514778137207031 13.2378463745117188
10.7496871948242188 66.8376693725585938 -17.5400962829589844
12.788604736328125 -78.6510162353515625 -3.27307510375976562
15.3089084625244141 2.13636541366577148 7.52180385589599609
13.7343263626098633 -30.9056854248046875 8.2904510498046875
-10.4976587295532227 39.9401473999023438 14.9305057525634766
-19.3775787353515625 61.4891777038574219 1.71795976161956787
-18.3553028106689453 53.9855003356933594 -6.12254619598388672
18.9433383941650391 23.1151447296142578 -2.68304085731506348
-15.9517364501953125 -60.4393348693847656 4.80282926559448242
-13.1731929779052734 2.09851264953613281 11.1947612762451172
-0.657239377498626709 39.9726448059082031 18.3989143371582031
-12.4840097427368164 50.9372596740722656 13.8688793182373047
-15.5099763870239258 -10.6648578643798828 7.21757936477661133
18.4882068634033203 56.1535491943359375 9.98238182067871094
10.0380077362060547 81.159759521484375 -15.4212102890014648
18.2816314697265625 14.3172454833984375 -1.13422930240631104
-6.71629095077514648 -59.7861442565917969 15.1881189346313477
7.12546300888061523 -90.6204833984375 -7.69018220901489258
-16.4062461853027344 25.1245670318603516 -10.9423274993896484
-11.3285751342773438 -95.9951858520507812 0.777770757675170898
13.48675537109375 -70.302032470703125 -3.19974637031555176
9.31656551361083984 84.07257080078125 15.2981357574462891
7.58086776733398438 -102.624443054199219 -1.10097420215606689
11.2229480743408203 -0.0451384223997592926 11.9702816009521484
-0.00284120184369385242 -51.3069076538085938 16.6991176605224609
18.6880931854248047 31.8402500152587891 -7.23791885375976562
0.308270663022994995 -102.099540710449219 11.0951499938964844
-2.91460108757019043 -11.1786699295043945 16.0102081298828125
-5.14457130432128906 74.1540603637695312 19.2487049102783203
-1.84152722358703613 45.5199928283691406 18.9037361145019531
-12.4301271438598633 -90.75103759765625 6.34090375900268555
5.06848859786987305 -39.8226699829101562 15.6839103698730469
11.7224702835083008 83.7355728149414062 -12.8085451126098633
-11.6450443267822266 49.6176986694335938 14.7133350372314453
-8.40646266937255859 -87.6969070434570312 -7.80864667892456055
-12.0206527709960938 32.4114151000976562 -16.2504425048828125
13.9296998977661133 -60.0069084167480469 -1.74582648277282715
3.09624600410461426 -91.2813491821289062 14.1915922164916992
9.25111961364746094 -58.0327301025390625 -10.6533355712890625
-8.34983539581298828 43.5446395874023438 -18.6711788177490234
11.9937210083007812 -74.6688690185546875 9.57645511627197266
8.18026161193847656 21.2475452423095703 15.1885490417480469
-13.5102262496948242 -80.1068496704101562 -1.58275318145751953
2.11049485206604004 10.5797710418701172 -20.1504592895507812
8.11859607696533203 -8.81517791748046875 13.9142637252807617
-4.39672565460205078 -107.323951721191406 4.92659091949462891
-15.1154766082763672 73.3709335327148438 12.2383184432983398
-12.3285722732543945 -88.60589599609375 -0.939100980758666992
20.675048828125 46.9881744384765625 -1.61343228816986084
-9.50113391876220703 -58.4866905212402344 -12.2306289672851562
6.30982208251953125 45.7954292297363281 18.2788467407226562
12.3400897979736328 59.6857070922851562 -16.7549934387207031
21.2785530090332031 63.0833587646484375 0.247887685894966125
16.1680202484130859 22.1236286163330078 -10.8518571853637695
-11.7128801345825195 3.65400934219360352 12.5438499450683594
17.4282112121582031 4.9615631103515625 -6.38857078552246094
-10.1456823348999023 19.9539775848388672 13.7947416305541992
11.9764814376831055 18.9799766540527344 12.074793815612793
-17.2959213256835938 5.05781936645507812 4.18371105194091797
16.0602836608886719 -27.5368423461914062 -4.78305149078369141
9.6326141357421875 28.6383228302001953 15.0253286361694336
13.6505250930786133 81.1750335693359375 13.1845607757568359
