ply
format ascii 1.0
element vertex 781
comment vertices
property float x
property float y
property float z
end_header
15.2529516220092773 -3.32176947593688965 -8.36844348907470703
15.1430673599243164 10.6481285095214844 -10.1602773666381836
-9.91069602966308594 -14.6412906646728516 5.31440258026123047
18.8541488647460938 -10.5617885589599609 1.59139156341552734
-31.9012260437011719 -12.4351024627685547 1.44308006763458252
-22.4233036041259766 -9.51093101501464844 7.67484331130981445
-5.17923974990844727 -13.6272735595703125 -5.99348592758178711
-31.8398838043212891 2.22113704681396484 -9.91672801971435547
-24.8623123168945312 -6.47602319717407227 4.80317115783691406
7.40123987197875977 -15.7256584167480469 0.398421555757522583
-28.4300899505615234 -14.0959300994873047 1.39262449741363525
34.3559150695800781 -5.58784627914428711 0.387440949678421021
-17.8152217864990234 -6.16360139846801758 -8.2501373291015625
-22.9290142059326172 10.0264215469360352 -3.94843506813049316
-31.7570934295654297 -4.42161369323730469 -11.2665538787841797
-27.3864345550537109 8.28109550476074219 -7.57201051712036133
20.8511524200439453 17.4965839385986328 -8.54251575469970703
19.4526405334472656 -12.2706146240234375 1.3184964656829834
-6.35486793518066406 -10.0366582870483398 8.09462833404541016
35.4560737609863281 -15.1063461303710938 -2.91965985298156738
9.52271842956542969 9.93099880218505859 11.9524602890014648
2.59326434135437012 1.42727279663085938 -11.4057245254516602
10.8843393325805664 3.78448963165283203 -11.8095703125
-11.7845687866210938 -16.3547801971435547 -1.86452114582061768
28.03955078125 -16.1284465789794922 3.59497737884521484
-14.3981075286865234 -0.645096957683563232 6.18421030044555664
-25.6806812286376953 -11.1146278381347656 -5.92524051666259766
-19.6932849884033203 9.78448104858398438 -1.81986474990844727
3.0083930492401123 -3.50151705741882324 11.5283641815185547
10.1719179153442383 11.75885009765625 -11.3113136291503906
-2.85682988166809082 -12.9910821914672852 6.55776739120483398
-2.02905511856079102 -12.9504661560058594 -6.41747713088989258
5.57766294479370117 15.2105627059936523 -2.16659641265869141
5.42639780044555664 7.55147695541381836 8.269866943359375
24.4701423645019531 -10.3352565765380859 -5.34810495376586914
26.7852897644042969 -2.73350977897644043 -6.03380632400512695
-1.4952467679977417 -10.4168262481689453 -7.55773353576660156
32.5801658630371094 -6.95183610916137695 1.92835533618927002
-29.4454689025878906 -15.8379430770874023 1.73524534702301025
24.9471530914306641 15.292109489440918 -7.20577621459960938
-28.6781177520751953 9.27565860748291016 6.77270221710205078
17.3902568817138672 -13.5697975158691406 2.84874415397644043
-32.5790519714355469 5.59137392044067383 -0.86282581090927124
-9.96373176574707031 7.66685104370117188 2.2562868595123291
19.5014114379882812 -6.13391685485839844 2.9695899486541748
-12.4863414764404297 -14.3368310928344727 -5.47302579879760742
30.016845703125 -0.810162186622619629 3.86136054992675781
-6.09353828430175781 -15.8194551467895508 3.79980063438415527
-9.56922340393066406 7.95466375350952148 -2.3579246997833252
17.6336383819580078 -12.8140382766723633 3.23244643211364746
-1.62528467178344727 2.83639931678771973 6.66660308837890625
-3.16688084602355957 -9.95381069183349609 -7.56452131271362305
11.3195343017578125 13.8708362579345703 -3.59524822235107422
-24.4058208465576172 -10.6379222869873047 -7.63120603561401367
25.9662685394287109 5.73599720001220703 6.56212377548217773
-20.1695613861083984 -5.99114084243774414 -10.7055463790893555
-20.8939895629882812 3.67005729675292969 -15.8795080184936523
28.1259708404541016 -20.6375484466552734 -1.22897899150848389
-15.1872148513793945 -2.84403467178344727 7.78560209274291992
13.8075475692749023 6.57680463790893555 -13.0514059066772461
-14.5861282348632812 -6.28943729400634766 6.27390003204345703
-29.3818225860595703 -2.27662229537963867 -11.2056589126586914
-12.263157844543457 -1.10690224170684814 6.62194681167602539
-31.5039196014404297 -4.40844535827636719 -9.23670101165771484
6.60995578765869141 -15.2280406951904297 -3.88305091857910156
34.4117050170898438 -6.91328859329223633 -0.162011697888374329
18.8804779052734375 0.401446729898452759 -9.16080856323242188
-14.1367950439453125 -15.3784208297729492 1.45134758949279785
-26.1165218353271484 -3.31945896148681641 8.47367286682128906
-26.3803596496582031 -10.1910715103149414 -7.00592756271362305
2.67846155166625977 12.7565126419067383 5.33357954025268555
3.93005990982055664 -3.41967320442199707 11.4115896224975586
-3.15392827987670898 9.28314590454101562 -1.60996246337890625
-18.0824527740478516 4.62770366668701172 -13.2779178619384766
20.6285171508789062 11.9945745468139648 12.3498258590698242
16.9287433624267578 1.44160318374633789 9.45990371704101562
-8.42870426177978516 7.08358526229858398 -4.92735815048217773
30.83514404296875 -20.6350803375244141 0.229964271187782288
26.0811729431152344 2.04787635803222656 4.90540599822998047
4.02840471267700195 -1.93040573596954346 -12.2211675643920898
-25.3677501678466797 -10.6466960906982422 -7.27724409103393555
-9.88864231109619141 1.83916974067687988 -6.92289257049560547
-29.2221412658691406 -12.115605354309082 5.00209951400756836
-14.7597484588623047 -15.0730981826782227 0.301103383302688599
-15.2110795974731445 -15.0464687347412109 -0.281954348087310791
-17.013427734375 2.25888824462890625 13.348454475402832
18.6002407073974609 17.5854282379150391 4.45050668716430664
-30.5906257629394531 -6.43062067031860352 -8.72871971130371094
-10.966160774230957 -14.1398305892944336 -5.50697898864746094
12.3065242767333984 -7.80181741714477539 -12.1686201095581055
-21.8484554290771484 -6.8279881477355957 -11.5546951293945312
15.1690778732299805 24.5399665832519531 -0.288297683000564575
-31.1475391387939453 4.33881092071533203 4.52076864242553711
-2.99395585060119629 7.11182737350463867 3.9862663745880127
-28.2394351959228516 8.41529750823974609 -8.80125331878662109
-36.2532196044921875 -5.52736711502075195 -11.2952356338500977
-27.2152538299560547 -1.17995321750640869 13.4777383804321289
24.5009250640869141 -10.8760700225830078 4.04412412643432617
14.6589059829711914 -8.52987384796142578 6.40473461151123047
16.9682464599609375 -9.12629985809326172 4.58263921737670898
-30.5296726226806641 7.25089025497436523 8.30848884582519531
-15.5574569702148438 -5.54626035690307617 6.9714045524597168
-19.0001449584960938 3.45417070388793945 15.5364837646484375
15.5688791275024414 -6.371368408203125 -6.75166988372802734
-9.36535167694091797 -9.33327960968017578 -8.49420261383056641
-21.7817726135253906 9.70827198028564453 3.18658638000488281
27.2933387756347656 13.9140901565551758 5.62601947784423828
-33.3135414123535156 -1.27050626277923584 6.28736448287963867
-24.8976078033447266 -4.6363682746887207 -10.7011079788208008
15.5053186416625977 13.2195310592651367 -0.0294184163212776184
23.8353672027587891 18.3172645568847656 4.340362548828125
13.7773141860961914 -3.95101785659790039 10.0280189514160156
-27.2812995910644531 -9.35361957550048828 4.39756011962890625
10.3448686599731445 13.3793601989746094 4.43673563003540039
-16.5591506958007812 -14.3059864044189453 2.76660346984863281
9.47971057891845703 14.1914796829223633 1.34855067729949951
-34.0964202880859375 -8.20121383666992188 -11.1256771087646484
18.5275783538818359 17.7558994293212891 -7.39915800094604492
10.3909130096435547 12.7091388702392578 -7.18628787994384766
-19.5550785064697266 5.87614536285400391 12.8333597183227539
-2.27367925643920898 -7.18798208236694336 7.74065542221069336
23.2111835479736328 -15.3446187973022461 1.9810260534286499
-5.62106466293334961 -1.75460183620452881 -7.40015649795532227
7.01476907730102539 -3.60895681381225586 -10.459193229675293
-18.7696018218994141 5.77668094635009766 12.4561634063720703
10.2396278381347656 -14.74444580078125 -3.98191714286804199
14.9424219131469727 23.1469211578369141 -4.5061798095703125
35.9945449829101562 -1.66547703742980957 -2.98554205894470215
21.4048213958740234 14.8117761611938477 12.1874971389770508
-31.5387382507324219 3.27332496643066406 -5.69956493377685547
-28.9157848358154297 -6.24759578704833984 4.4771580696105957
29.3128185272216797 -12.3908767700195312 4.0054011344909668
-2.99130463600158691 -14.5456943511962891 -4.992889404296875
31.7680473327636719 -4.27510213851928711 2.18724584579467773
24.6963405609130859 5.68631696701049805 7.27387809753417969
3.90680336952209473 13.720738410949707 5.80239772796630859
1.57437670230865479 0.306082189083099365 11.5398216247558594
-8.31606769561767578 1.02938318252563477 -7.16713142395019531
21.4817028045654297 5.93910598754882812 8.91728878021240234
-0.385739505290985107 -1.40874731540679932 -9.54663944244384766
16.6713485717773438 -0.265130817890167236 -9.75564956665039062
-31.2678604125976562 -17.0300159454345703 0.857473254203796387
2.70339107513427734 -6.15836381912231445 -10.2256441116333008
15.0870323181152344 -5.09292745590209961 6.77347278594970703
31.3511905670166016 -0.341137439012527466 -4.35428619384765625
18.4391212463378906 -14.2081727981567383 1.07127892971038818
0.30524936318397522 -16.0568504333496094 -0.41055983304977417
-7.77611732482910156 -6.21816730499267578 -8.46856975555419922
-21.2439403533935547 6.50573158264160156 12.0076589584350586
27.5386867523193359 16.0665092468261719 -2.19294571876525879
-25.6275463104248047 8.30258369445800781 8.34168052673339844
23.1583003997802734 5.75580883026123047 -9.33847522735595703
-29.9932765960693359 -12.564361572265625 1.73589968681335449
8.68401813507080078 13.2446155548095703 -6.5186009407043457
-14.9718818664550781 -6.98415565490722656 -7.59909391403198242
11.4040670394897461 13.5386934280395508 1.27970397472381592
-18.9966487884521484 6.1744379997253418 -7.42347860336303711
10.044032096862793 -6.03603219985961914 12.2504386901855469
-29.6614494323730469 -12.4606618881225586 3.48422098159790039
4.83052968978881836 4.49125242233276367 11.0947580337524414
-23.0744514465332031 7.23370361328125 -7.46815347671508789
-24.7157688140869141 9.91072940826416016 -6.3184514045715332
-29.9165191650390625 -18.1198024749755859 0.99967879056930542
-25.6013259887695312 9.58480548858642578 -7.86740875244140625
-18.1675643920898438 -6.00831794738769531 -8.44237422943115234
-30.2771472930908203 -12.8412160873413086 1.55417835712432861
30.0646305084228516 11.508392333984375 -4.12737369537353516
-31.8793621063232422 5.14647674560546875 1.02203285694122314
-33.3137855529785156 9.14810752868652344 -4.14387083053588867
-30.7074108123779297 -8.42220783233642578 -5.28014945983886719
1.18911600112915039 14.5332107543945312 -2.77308797836303711
-36.2566986083984375 10.3329572677612305 -0.310304462909698486
-13.1737031936645508 -5.23138141632080078 8.56859874725341797
18.7953662872314453 18.2833919525146484 5.49143600463867188
-22.4301280975341797 9.98728466033935547 -3.6558232307434082
5.35073471069335938 5.34794712066650391 10.6511421203613281
27.0074901580810547 -9.95820331573486328 5.63498687744140625
-31.3783626556396484 -2.26785826683044434 -8.13401699066162109
21.3654651641845703 -6.13867950439453125 -3.24551272392272949
-24.1033096313476562 0.359880745410919189 14.7988958358764648
18.7137107849121094 20.7619457244873047 6.66373777389526367
-17.8893489837646484 9.77818584442138672 1.31940817832946777
-29.9658184051513672 -10.4933691024780273 -3.54643726348876953
-2.77632236480712891 -10.7673521041870117 7.29200649261474609
8.20255661010742188 -0.677258729934692383 10.5316095352172852
-14.8250703811645508 -2.86710023880004883 7.55994033813476562
27.6107273101806641 -0.53375011682510376 -4.36468935012817383
-30.6253108978271484 8.86405849456787109 7.37800455093383789
19.4247722625732422 19.0007152557373047 3.18210077285766602
-18.5407295227050781 -10.1077003479003906 -9.6552886962890625
0.444102227687835693 0.267738044261932373 9.00656986236572266
-19.8905982971191406 7.23809909820556641 6.68296241760253906
17.1807498931884766 14.0996484756469727 -1.3691563606262207
5.39857769012451172 -12.4379215240478516 -7.42091751098632812
15.0075845718383789 24.7438907623291016 -4.00404071807861328
-26.3132209777832031 -12.6060304641723633 6.3307652473449707
0.394499599933624268 4.99336481094360352 -6.8825836181640625
-17.5287322998046875 9.68110370635986328 -4.05382680892944336
7.14526891708374023 6.2925257682800293 11.5804147720336914
20.9128074645996094 -13.106745719909668 2.02500581741333008
19.5578269958496094 11.6638984680175781 12.1483621597290039
8.09272575378417969 12.8709249496459961 -8.98342800140380859
-3.29496145248413086 9.35100841522216797 1.61286234855651855
34.5100822448730469 -10.176910400390625 -3.19167733192443848
-22.1056137084960938 -12.9154596328735352 -5.30627775192260742
-31.9260292053222656 5.45558595657348633 -2.17159938812255859
-30.1749305725097656 10.1792707443237305 5.22949934005737305
10.8614740371704102 -13.691864013671875 -4.99096059799194336
-18.2777652740478516 -10.0868902206420898 -9.47179603576660156
-4.42247486114501953 -15.5408811569213867 4.15487766265869141
0.317280501127243042 -15.1092500686645508 -8.90058517456054688
31.6828689575195312 1.6090855598449707 -2.82295751571655273
32.2019157409667969 1.92182159423828125 1.55770111083984375
-17.4642543792724609 5.32390213012695312 -10.3944091796875
27.230499267578125 -9.34957027435302734 5.93195247650146484
-33.9742202758789062 -6.85962104797363281 -12.2475242614746094
-20.1599597930908203 6.0531916618347168 -10.4647865295410156
-20.2602310180664062 -4.40946722030639648 -7.73870038986206055
-16.3969554901123047 5.56114959716796875 7.05771303176879883
-22.9285011291503906 -15.1221818923950195 2.45406293869018555
1.1078869104385376 8.86767768859863281 4.43138599395751953
-30.916595458984375 7.4185023307800293 6.55750465393066406
-12.5213613510131836 -4.71122932434082031 8.29863166809082031
-2.81153774261474609 9.22801780700683594 2.3701636791229248
-18.8332977294921875 -13.1868610382080078 8.24307537078857422
25.8776741027832031 -9.07075595855712891 -6.21465110778808594
-11.8673629760742188 -8.43902778625488281 -8.97179698944091797
-23.4811172485351562 7.35985374450683594 10.2203874588012695
-30.9229087829589844 11.2017288208007812 -4.34634637832641602
23.1588153839111328 -11.733856201171875 -3.83221697807312012
13.782928466796875 -11.9858207702636719 5.31551170349121094
26.7236843109130859 10.9627141952514648 -8.90165901184082031
17.0585613250732422 -9.54591941833496094 2.94263434410095215
-36.2666206359863281 10.0180597305297852 0.243128687143325806
29.2147483825683594 12.9235467910766602 -4.25744771957397461
26.5512123107910156 2.12064933776855469 4.50678682327270508
13.0541858673095703 -9.71305084228515625 -7.6551966667175293
11.7565584182739258 -2.25869894027709961 -10.1280012130737305
-28.3693466186523438 6.18039178848266602 15.2432365417480469
1.59478998184204102 1.19579362869262695 9.86769390106201172
3.22919297218322754 -7.42055034637451172 8.71160793304443359
20.4694538116455078 22.2026329040527344 2.40217828750610352
21.6488189697265625 -3.51438617706298828 3.29443001747131348
-30.484954833984375 -17.4985752105712891 -1.52349448204040527
-29.6265335083007812 -2.9144904613494873 -7.65667438507080078
31.9599285125732422 -15.0309867858886719 4.10651969909667969
22.7843570709228516 21.9091110229492188 -0.141838118433952332
14.5978279113769531 12.0542240142822266 -4.10840129852294922
-17.5936985015869141 -12.8078498840332031 8.56279277801513672
20.2379665374755859 22.85943603515625 2.16352391242980957
12.9115171432495117 10.9152593612670898 10.7015924453735352
2.04169082641601562 -14.1138086318969727 -9.38196849822998047
-14.1107025146484375 -15.5251531600952148 2.31067609786987305
2.57863354682922363 -9.43663215637207031 8.8261566162109375
-1.22319233417510986 -14.5552883148193359 -4.96717262268066406
26.4826259613037109 13.6099357604980469 7.44158601760864258
2.06589961051940918 -14.3490152359008789 5.23996114730834961
9.51019668579101562 -11.7226743698120117 -7.74456882476806641
-9.78147602081298828 8.17486000061035156 -1.05972301959991455
-23.3076725006103516 -3.83487200736999512 5.3061070442199707
9.20615577697753906 -1.65099418163299561 10.1631603240966797
23.5806369781494141 -5.73093891143798828 3.58285641670227051
20.6117763519287109 22.3565120697021484 1.78328359127044678
16.1367321014404297 -15.4051418304443359 0.892614781856536865
11.1538305282592773 13.0492696762084961 5.17091178894042969
-13.195164680480957 -2.58025836944580078 6.14289999008178711
26.4862232208251953 14.6041383743286133 -6.11052465438842773
-31.0424671173095703 -17.8109455108642578 -0.317753404378890991
24.6693344116210938 13.3737859725952148 10.3099470138549805
22.1757030487060547 -4.15924358367919922 3.14235591888427734
2.92372632026672363 4.68031454086303711 7.90434360504150391
-4.53690385818481445 -16.0025863647460938 1.79283702373504639
-34.1332893371582031 -3.87216329574584961 -9.88409042358398438
11.5995254516601562 1.31251788139343262 -11.31866455078125
16.0259437561035156 4.42900609970092773 10.6429071426391602
24.2437419891357422 12.2531337738037109 -12.1651535034179688
-15.8097419738769531 -14.5299482345581055 1.73031008243560791
0.996960937976837158 -15.8560647964477539 -9.45353126525878906
27.8433856964111328 10.4391498565673828 -7.73333883285522461
-13.2725906372070312 -8.95047473907470703 -9.2998504638671875
23.0539188385009766 -10.940556526184082 3.27173900604248047
-12.7192630767822266 -16.29217529296875 2.28163290023803711
2.35312128067016602 -4.33756303787231445 10.2064123153686523
-7.45927810668945312 -6.60780191421508789 8.15281963348388672
5.51531219482421875 14.1817464828491211 5.08299016952514648
4.94728994369506836 3.1206965446472168 -12.8604335784912109
-29.9534358978271484 -15.9134683609008789 -2.55607771873474121
-27.8819370269775391 -11.4908523559570312 4.72144985198974609
-10.0326099395751953 -12.4218816757202148 -7.9300994873046875
-16.668853759765625 0.515625834465026855 10.4246311187744141
-15.3140745162963867 7.01489496231079102 3.70925498008728027
-21.3110027313232422 5.73405170440673828 -12.5731973648071289
-35.4799118041992188 -6.93599557876586914 -11.3689756393432617
-26.276885986328125 10.4838285446166992 -5.65392446517944336
-33.9697761535644531 -0.945256531238555908 8.48915195465087891
-19.5825862884521484 -16.4746112823486328 2.90152502059936523
31.2387924194335938 2.08490538597106934 -2.60275864601135254
14.2375993728637695 -13.4431934356689453 4.11407852172851562
-3.43285322189331055 1.35486352443695068 -7.3585968017578125
-34.5317344665527344 -9.28193759918212891 -1.23024797439575195
14.0893802642822266 23.850372314453125 4.47614812850952148
0.266878604888916016 -15.1280593872070312 -6.57651758193969727
-27.9157066345214844 -19.09149169921875 1.08991718292236328
11.2828168869018555 8.81432247161865234 12.8235206604003906
-32.1283226013183594 1.35365748405456543 12.2609624862670898
31.8941783905029297 -9.94748115539550781 -4.51766681671142578
-1.74183213710784912 11.0022106170654297 -0.588342368602752686
5.78786373138427734 -2.92058134078979492 -11.3007307052612305
32.794464111328125 -12.4541034698486328 4.25845432281494141
11.9869966506958008 2.73009324073791504 10.5469589233398438
-26.7679939270019531 -9.83826828002929688 4.86545896530151367
-30.5979442596435547 6.638763427734375 5.36132431030273438
31.0010128021240234 5.614410400390625 -1.29373431205749512
-34.4041824340820312 -9.03273391723632812 -1.42316877841949463
26.7721691131591797 -19.3432903289794922 2.63188028335571289
-8.69844436645507812 -2.17472720146179199 6.99924945831298828
3.33662796020507812 -9.12823963165283203 -8.30332469940185547
36.6017189025878906 -4.37679672241210938 -0.837663948535919189
-6.89664220809936523 2.70874977111816406 -6.68158674240112305
-30.0981311798095703 -0.58326566219329834 -14.1616010665893555
20.5153789520263672 20.8500843048095703 5.54572820663452148
38.332550048828125 -13.4930381774902344 1.01831686496734619
-33.1102523803710938 6.61539173126220703 3.49102568626403809
-21.8481674194335938 -6.42640781402587891 5.52051115036010742
2.23144292831420898 -4.7871246337890625 9.40949440002441406
12.1539411544799805 12.6530838012695312 6.04013538360595703
-14.9661436080932617 -2.73783302307128906 -6.18890285491943359
-18.4240646362304688 0.0473893210291862488 -14.5394573211669922
21.3530082702636719 -14.8718967437744141 -1.95217764377593994
-27.8613719940185547 -7.25985479354858398 4.31470012664794922
26.0337657928466797 -15.5288877487182617 -4.38457441329956055
21.5411262512207031 -16.2276973724365234 1.85636603832244873
16.9198856353759766 -5.57113456726074219 -5.34636926651000977
10.0742635726928711 2.23619341850280762 11.1169147491455078
-35.2578315734863281 8.63436126708984375 -2.20753169059753418
-16.0132102966308594 9.44921588897705078 -4.08306169509887695
-12.2017669677734375 -16.3459033966064453 -2.9871056079864502
-21.1697444915771484 -7.38735723495483398 -11.6425247192382812
-26.4183692932128906 -3.4238884449005127 5.00831079483032227
-28.8192234039306641 -3.05865669250488281 -10.1644582748413086
-15.4788389205932617 2.5737617015838623 -9.77515983581542969
30.8606510162353516 -2.91505932807922363 4.07730531692504883
26.7984962463378906 14.0739898681640625 6.19277048110961914
23.5320091247558594 19.1042976379394531 -5.07610702514648438
-30.88238525390625 2.93792033195495605 -10.8113832473754883
-25.0399265289306641 10.6484718322753906 -0.211650371551513672
-21.7154960632324219 -3.39942216873168945 11.4721889495849609
32.81964111328125 -3.21637225151062012 2.32850480079650879
31.6084461212158203 -20.3101749420166016 0.61858135461807251
18.8049201965332031 17.5170516967773438 8.43602466583251953
30.3356437683105469 2.66988205909729004 -2.06160950660705566
11.5413131713867188 -2.35993242263793945 9.62108325958251953
-29.0824375152587891 -8.91368389129638672 -11.1738405227661133
-36.3285675048828125 -3.80539345741271973 1.55066430568695068
-21.3813705444335938 -4.16385841369628906 9.26450061798095703
18.4059162139892578 17.7184982299804688 -3.71195006370544434
-19.8724002838134766 0.63527601957321167 -15.637049674987793
25.5034580230712891 3.6575474739074707 6.14287424087524414
24.2053413391113281 11.4184207916259766 -11.3581256866455078
16.5299339294433594 12.6532077789306641 -7.39703607559204102
16.4887065887451172 10.2862224578857422 -11.7323284149169922
1.84990739822387695 -10.1033439636230469 8.58748626708984375
25.7982006072998047 11.8778610229492188 -10.3229169845581055
19.2888946533203125 4.76161623001098633 9.56954765319824219
-31.9202499389648438 10.9847860336303711 3.85752177238464355
-29.2219123840332031 -5.27284908294677734 -6.08597421646118164
-3.94405364990234375 7.88631534576416016 -4.15728235244750977
25.5129261016845703 13.7153491973876953 -9.49803447723388672
-34.9978866577148438 7.49435329437255859 -1.86244332790374756
31.1819896697998047 -10.2040824890136719 -4.46822547912597656
23.2946376800537109 14.1440963745117188 11.1604509353637695
-7.23229742050170898 -0.573389947414398193 7.05637168884277344
33.172088623046875 -17.8660545349121094 2.59110927581787109
38.4619331359863281 -9.92929553985595703 -1.88195943832397461
20.9121894836425781 -15.6844968795776367 1.24534833431243896
28.8448333740234375 -14.9615507125854492 -4.3894658088684082
-29.3779850006103516 3.52536487579345703 14.8612098693847656
-30.3903675079345703 -3.30476498603820801 -9.69312477111816406
21.5258979797363281 8.44356822967529297 9.23568916320800781
29.4986133575439453 12.7062129974365234 3.34615445137023926
-32.60345458984375 7.3831329345703125 6.35975980758666992
-17.7750167846679688 9.689788818359375 -1.1722254753112793
21.2239341735839844 -17.3943748474121094 -0.966840803623199463
2.72189021110534668 -2.54646730422973633 11.7789459228515625
36.9515457153320312 -12.7736854553222656 -2.5867307186126709
-28.9052257537841797 -5.80605792999267578 3.14710164070129395
32.8526535034179688 -7.37493228912353516 1.93983268737792969
11.1826324462890625 -2.59839606285095215 -10.165959358215332
-26.8145217895507812 -12.9013080596923828 5.3372502326965332
2.48999595642089844 -3.35918903350830078 -12.0265712738037109
10.8848867416381836 -0.38968232274055481 10.9566497802734375
24.5843219757080078 -1.98663675785064697 -4.87832736968994141
19.9900550842285156 10.9578285217285156 -13.4525966644287109
5.24210262298583984 -12.1091623306274414 -8.18398380279541016
-10.0337696075439453 -2.03922247886657715 -6.83258867263793945
18.7564105987548828 17.3822174072265625 8.44690036773681641
0.366061687469482422 -7.30613422393798828 -7.61475276947021484
18.6402416229248047 10.5167274475097656 10.0428562164306641
18.7944622039794922 12.5339231491088867 -15.4835548400878906
19.0655403137207031 22.0593891143798828 5.35390520095825195
17.5722675323486328 11.859893798828125 -12.8976545333862305
-25.4816684722900391 -11.4078464508056641 -5.69215583801269531
-32.3051071166992188 -1.84934711456298828 -4.53743219375610352
33.5645790100097656 -2.4284052848815918 -4.20543241500854492
32.8994979858398438 -3.11800050735473633 1.87435328960418701
7.02150678634643555 5.24958133697509766 -12.6678066253662109
-23.7355136871337891 1.98508203029632568 -15.5904960632324219
37.9654998779296875 -12.4582681655883789 1.75223517417907715
-11.7938776016235352 -8.01791191101074219 -8.62249469757080078
-2.30243587493896484 0.879893124103546143 7.33578681945800781
-6.35907316207885742 -16.0411300659179688 2.06266999244689941
25.6806869506835938 4.24215936660766602 -7.41041994094848633
-12.7810831069946289 -8.22688770294189453 6.61716079711914062
17.3644542694091797 -9.73557758331298828 2.07957696914672852
25.5246753692626953 0.143893882632255554 -3.81649994850158691
-17.3034248352050781 -7.68511676788330078 5.94210338592529297
24.1686496734619141 16.0839576721191406 6.55835103988647461
-15.4952926635742188 -9.72090530395507812 7.14599752426147461
-17.8364238739013672 -3.58872604370117188 7.69029426574707031
21.944427490234375 4.69099664688110352 -9.62892055511474609
26.2184410095214844 -17.0127372741699219 -3.28434157371520996
-33.9260826110839844 -2.04871249198913574 -4.52557849884033203
-35.5933074951171875 -2.3836517333984375 4.42116165161132812
9.66089248657226562 6.78690385818481445 11.2231035232543945
-33.8859405517578125 -13.2369976043701172 0.748155415058135986
-29.434417724609375 0.936636388301849365 14.5126981735229492
-7.85688352584838867 -6.07912921905517578 -8.14844799041748047
-11.162811279296875 -5.90470123291015625 -7.60848474502563477
14.470494270324707 -4.80596065521240234 -7.56952333450317383
-31.5768928527832031 3.44535470008850098 7.2701563835144043
-36.5985450744628906 -2.08772468566894531 -0.544438540935516357
36.9086494445800781 -15.6982183456420898 -2.06801104545593262
16.6359806060791016 -2.08117532730102539 -10.0476293563842773
-29.47283935546875 -4.47476959228515625 0.514999449253082275
-17.8882598876953125 5.8197026252746582 10.6275672912597656
29.6199226379394531 4.36880779266357422 -2.47056126594543457
4.95254087448120117 14.4030323028564453 3.60439753532409668
2.6424098014831543 14.6770401000976562 2.42806649208068848
7.81301498413085938 -11.6260986328125 8.15534400939941406
5.01556730270385742 5.26137876510620117 -10.7038803100585938
18.1391849517822266 -14.3834571838378906 1.78822565078735352
30.0345706939697266 -4.58860349655151367 4.40536260604858398
-2.55103683471679688 -15.2261152267456055 -4.27448034286499023
14.5091800689697266 -7.77999734878540039 -10.46221923828125
32.843414306640625 -5.42264366149902344 -0.304948508739471436
32.8131370544433594 -17.5589046478271484 2.30864095687866211
-26.4488162994384766 -15.3652238845825195 -3.19873762130737305
-32.37493896484375 -8.01761245727539062 1.20687615871429443
-29.9481239318847656 6.12858724594116211 -11.8580617904663086
-14.9600114822387695 -1.36925947666168213 6.12350893020629883
30.5436458587646484 10.6383657455444336 -3.55065512657165527
-19.6884632110595703 -13.2356576919555664 7.75802850723266602
6.34755992889404297 -1.89304637908935547 10.9857053756713867
33.4487380981445312 0.510296285152435303 2.58244943618774414
20.9274101257324219 18.3705673217773438 -8.03993034362792969
-25.9903106689453125 -6.65996551513671875 -12.0211267471313477
-4.55642890930175781 1.24447739124298096 6.88966989517211914
14.5364809036254883 13.2711019515991211 -0.490119576454162598
9.68209171295166016 -7.86300277709960938 9.35954856872558594
10.648442268371582 -13.7125062942504883 -5.01087141036987305
20.2233467102050781 23.3674774169921875 0.670958101749420166
-34.5063972473144531 7.31777620315551758 2.99490833282470703
19.0097770690917969 -11.4767436981201172 -2.80928874015808105
4.88832902908325195 -6.55499649047851562 -10.829279899597168
3.35211730003356934 6.07495260238647461 7.21627712249755859
-28.7953205108642578 -9.17067623138427734 -5.89156007766723633
-8.45555877685546875 8.16004276275634766 0.850092291831970215
7.64074993133544922 2.31726789474487305 -12.4709272384643555
15.9090299606323242 3.13365793228149414 10.368229866027832
20.2136745452880859 17.4708728790283203 -9.65469646453857422
-33.6974029541015625 1.84104084968566895 -4.50981712341308594
25.5253372192382812 6.06527328491210938 6.90646505355834961
-31.4366855621337891 -6.16641664505004883 -12.3685493469238281
-21.1301364898681641 6.55714845657348633 11.526240348815918
-21.6818523406982422 -15.1286287307739258 -3.18127584457397461
-6.21217060089111328 -10.3811244964599609 8.18542957305908203
1.73200750350952148 -15.8735160827636719 0.621220648288726807
16.9443168640136719 7.54469680786132812 -12.2017889022827148
-34.6340599060058594 6.81849908828735352 -2.01297187805175781
14.2051630020141602 24.5633068084716797 4.27693986892700195
-19.0537662506103516 -3.45523691177368164 -8.69302177429199219
10.4319429397583008 -15.6749458312988281 -0.198440209031105042
21.6138687133789062 -9.62017822265625 -3.42013859748840332
-34.2713088989257812 -1.0578845739364624 -7.89553165435791016
16.8361625671386719 -5.19959163665771484 -6.3144688606262207
-8.40535640716552734 -10.7798795700073242 6.15982246398925781
8.85161209106445312 1.81416630744934082 11.4034500122070312
23.7876224517822266 -14.2365665435791016 1.7723543643951416
1.05365800857543945 14.645843505859375 -0.270779997110366821
26.69854736328125 -15.6420364379882812 -4.56404733657836914
7.51937675476074219 -14.3897676467895508 4.82614421844482422
30.7721481323242188 -5.57390213012695312 4.1134495735168457
-34.4782829284667969 8.26791667938232422 3.67781591415405273
6.00639009475708008 2.14404845237731934 11.9715499877929688
-19.2571353912353516 -2.19544506072998047 -11.8147611618041992
10.3748893737792969 13.7095832824707031 2.09320545196533203
12.8601818084716797 -6.30071544647216797 -12.3226804733276367
24.4349346160888672 5.33482646942138672 -8.52752304077148438
8.32163715362548828 -3.62474393844604492 11.8947257995605469
-4.27071762084960938 -12.4752492904663086 -6.61344289779663086
-15.096919059753418 4.45246791839599609 6.06715011596679688
24.581207275390625 -5.1865382194519043 5.82284355163574219
37.8775482177734375 -15.8685731887817383 -0.500169813632965088
-8.96805953979492188 -4.70750093460083008 -7.39995574951171875
30.8829078674316406 1.89924311637878418 1.93355095386505127
1.44126296043395996 -8.67864322662353516 -8.53144168853759766
38.1963462829589844 -14.9347772598266602 -0.410872101783752441
-23.0143089294433594 3.02217197418212891 15.3811922073364258
-25.175750732421875 7.30825996398925781 12.6886692047119141
-3.08654284477233887 5.16028213500976562 -5.95473909378051758
20.6610679626464844 11.9485263824462891 12.2203683853149414
-1.38252639770507812 7.1650853157043457 -5.31870508193969727
-19.9097213745117188 9.25903606414794922 -4.83927679061889648
-10.6174230575561523 1.34336316585540771 -7.08621072769165039
35.4485893249511719 -7.76697540283203125 0.228461921215057373
24.8059196472167969 -0.932269275188446045 4.39413118362426758
-32.4380950927734375 -8.30533218383789062 -8.94950008392333984
27.9737071990966797 11.7714748382568359 -7.46502685546875
19.9363594055175781 -9.88236808776855469 -2.83437132835388184
17.818450927734375 -2.54690957069396973 7.50757789611816406
38.5816574096679688 -11.5548934936523438 -1.26563346385955811
1.358115553855896 14.7160310745239258 -2.13640856742858887
-21.2526836395263672 -13.7718925476074219 -4.95574569702148438
-33.686279296875 -14.0695037841796875 -0.889456868171691895
36.9436454772949219 -14.8705949783325195 2.04387879371643066
31.2277908325195312 -4.70195722579956055 3.14363217353820801
26.2045497894287109 -18.8620395660400391 2.79699206352233887
-25.7781772613525391 -19.6517181396484375 1.13072216510772705
-20.7291545867919922 -17.1792449951171875 -2.03903794288635254
-1.23742365837097168 11.7116889953613281 -2.19494271278381348
-22.6953620910644531 10.3317117691040039 -0.917339682579040527
8.01529121398925781 -15.5677785873413086 1.99935305118560791
-16.5676460266113281 -8.47890567779541016 6.8090062141418457
-12.8304872512817383 -6.86721038818359375 5.73104333877563477
25.3740482330322266 1.21778583526611328 4.54564285278320312
3.76397609710693359 4.57032012939453125 -9.60820674896240234
-18.4727039337158203 7.59488105773925781 4.97625875473022461
-34.4889945983886719 1.34846365451812744 2.41855263710021973
-14.9860906600952148 3.95074820518493652 -6.47750425338745117
-13.5444622039794922 -12.5351085662841797 5.9355015754699707
30.3362846374511719 -10.9844369888305664 4.34761190414428711
21.3630123138427734 15.1760883331298828 12.0041608810424805
31.4387359619140625 6.03745460510253906 -0.415476828813552856
24.9256458282470703 1.04890263080596924 -5.84983396530151367
9.91301250457763672 12.9760770797729492 -6.38793325424194336
17.3907451629638672 11.7125778198242188 8.95182609558105469
30.1643543243408203 -11.2230195999145508 -4.99782180786132812
1.82296550273895264 -15.8040895462036133 -9.86181259155273438
-29.672332763671875 9.35005950927734375 9.47750282287597656
36.4371719360351562 -4.92963600158691406 -2.08541679382324219
-14.8705482482910156 -8.86957836151123047 6.90948486328125
-26.678619384765625 -3.45589089393615723 -10.2386007308959961
36.1057052612304688 -3.84229493141174316 -0.475846052169799805
-19.2447929382324219 -7.36253786087036133 -11.6547136306762695
-17.5300388336181641 2.60943603515625 14.2833881378173828
-5.46116495132446289 7.26183557510375977 -4.84790372848510742
-24.8116016387939453 -17.9328403472900391 2.41726064682006836
6.18180418014526367 -5.49052238464355469 9.573394775390625
-4.10695695877075195 -11.6887807846069336 7.04357433319091797
-27.3271598815917969 -2.3414301872253418 10.8231077194213867
22.8132896423339844 -0.523515224456787109 4.97819375991821289
-29.5466480255126953 5.34461116790771484 -14.5803184509277344
-10.7383146286010742 -6.60412073135375977 6.40745449066162109
5.85643196105957031 -10.3317050933837891 9.05120754241943359
-8.01468467712402344 7.40346813201904297 -4.33181953430175781
-30.0479202270507812 0.607875525951385498 14.3307161331176758
25.7665042877197266 12.5413999557495117 -10.1315011978149414
-28.3208904266357422 8.42254066467285156 -8.96024036407470703
26.4921283721923828 -17.4321193695068359 -3.11566948890686035
-1.72832405567169189 10.9881277084350586 -2.50234246253967285
-5.83331012725830078 3.04972076416015625 -6.62803506851196289
-6.78827667236328125 -5.31806135177612305 8.64395999908447266
13.4602937698364258 -7.51122713088989258 10.4838409423828125
-16.7403793334960938 -0.942338407039642334 -6.65236711502075195
-13.663090705871582 8.45812702178955078 -2.40577101707458496
-33.8433189392089844 10.8959255218505859 3.38861513137817383
14.7868881225585938 6.5194554328918457 11.5263090133666992
-4.63319587707519531 -16.1318931579589844 -2.5874629020690918
17.8671607971191406 10.5755453109741211 10.370452880859375
-33.4639816284179688 -5.38855457305908203 -3.11077356338500977
-20.8897285461425781 -18.3267116546630859 -1.54466915130615234
7.08679103851318359 -7.96070623397827148 -9.97582340240478516
28.0233078002929688 -0.523246407508850098 3.54484653472900391
14.0301408767700195 -8.15700340270996094 -9.44486808776855469
-22.7281742095947266 6.34532880783081055 13.6553182601928711
3.32364630699157715 -15.8879337310791016 -1.47380304336547852
-31.0489559173583984 -10.4039697647094727 0.801353216171264648
-34.3257904052734375 11.0482425689697266 -3.60634660720825195
-15.824275016784668 -9.87428188323974609 -8.21566009521484375
8.52557563781738281 -15.6666688919067383 0.493881762027740479
13.4366273880004883 13.4203529357910156 -1.63117754459381104
-18.9033241271972656 -17.4289798736572266 1.75476133823394775
-16.2879810333251953 -12.869868278503418 5.71310901641845703
37.4146156311035156 -2.25512099266052246 1.00012624263763428
-14.6943788528442383 -6.68104267120361328 -6.96404504776000977
-22.8443813323974609 7.26198530197143555 -7.32707118988037109
-11.9108543395996094 -4.92159748077392578 8.09696388244628906
-20.3881130218505859 -4.34188699722290039 -9.20391559600830078
-0.358145356178283691 -9.62047481536865234 8.12101554870605469
6.54701900482177734 6.50449800491333008 -11.5777587890625
9.16233539581298828 13.5456705093383789 5.2659602165222168
15.0778989791870117 -13.175628662109375 -4.19298124313354492
25.8260593414306641 -11.0343561172485352 -5.50501537322998047
20.6562976837158203 -16.8630886077880859 -0.862068533897399902
-30.6882209777832031 -2.12787103652954102 7.45595788955688477
1.74803411960601807 1.11834585666656494 10.3527908325195312
18.9908084869384766 -7.21989345550537109 2.86579561233520508
11.294342041015625 -7.4072422981262207 -12.3331165313720703
20.5466270446777344 14.5641984939575195 -16.1958293914794922
20.6785125732421875 -3.17271804809570312 3.06170034408569336
-20.3396377563476562 -3.34008264541625977 -10.308197021484375
37.6291160583496094 -9.67134857177734375 -2.54931044578552246
-33.6787605285644531 -5.60425996780395508 -1.9348757266998291
-11.8630075454711914 -10.9322414398193359 -7.16362476348876953
14.7926197052001953 -5.88609600067138672 7.62582588195800781
14.8536272048950195 0.32965502142906189 -10.6521425247192383
-35.484283447265625 -4.77926921844482422 -10.8378677368164062
-36.2112083435058594 -3.78137063980102539 -1.58912146091461182
-10.5967254638671875 7.67366933822631836 -3.54724788665771484
2.45744872093200684 6.14994287490844727 6.53101062774658203
36.3451805114746094 -11.8696479797363281 1.16595113277435303
-30.2686862945556641 11.620823860168457 -0.588184118270874023
20.2929592132568359 -7.83087444305419922 2.5556786060333252
26.8351802825927734 -9.00961494445800781 5.9753108024597168
-29.5760898590087891 -16.2735328674316406 2.06122016906738281
14.7995634078979492 11.8621282577514648 -6.06752300262451172
-25.8240070343017578 2.8995668888092041 -15.5960149765014648
-36.1556625366210938 10.7514476776123047 0.845054745674133301
-20.693878173828125 9.32792091369628906 -4.8677830696105957
-34.0010185241699219 -4.39276504516601562 -9.16864490509033203
-23.6513004302978516 6.58176708221435547 -11.3482770919799805
-20.1403713226318359 -15.7351779937744141 2.21219563484191895
32.2890586853027344 -6.51278495788574219 1.86989128589630127
21.521148681640625 16.6419582366943359 -9.80901527404785156
10.0280723571777344 -8.10357379913330078 -11.2462396621704102
23.5889186859130859 20.2155704498291016 -1.56838047504425049
9.29896831512451172 14.094904899597168 1.70793735980987549
-31.5239200592041016 2.4295036792755127 10.5002908706665039
25.0106639862060547 -4.20613670349121094 5.89656496047973633
-32.2836685180664062 -4.18741083145141602 1.39606297016143799
25.7322406768798828 12.7042694091796875 -10.0709085464477539
-33.8980636596679688 -7.08919000625610352 0.918292880058288574
23.9800701141357422 -4.29518508911132812 4.25640583038330078
33.18133544921875 -14.1948022842407227 -4.36966133117675781
-14.5572748184204102 8.33532619476318359 -4.11172819137573242
-3.40016889572143555 -2.46002459526062012 -7.54239511489868164
-6.59910058975219727 7.49241113662719727 2.72864079475402832
2.79811835289001465 8.18204784393310547 5.67758893966674805
7.82816076278686523 13.8092489242553711 5.2730250358581543
31.7584018707275391 -10.3107490539550781 3.63882780075073242
23.6894550323486328 -5.70005989074707031 4.20706510543823242
-34.0420417785644531 -0.872203171253204346 9.13815689086914062
0.9805031418800354 -4.98865127563476562 8.13720893859863281
7.26373815536499023 -3.93087506294250488 -12.0429677963256836
-3.9967961311340332 7.8559269905090332 2.95704555511474609
30.2136211395263672 -10.3139801025390625 4.25376987457275391
6.6591029167175293 8.29352760314941406 -10.1443405151367188
23.1318626403808594 17.5370445251464844 5.79877662658691406
37.3410110473632812 -13.4365434646606445 -2.31348299980163574
11.6339025497436523 9.68188762664794922 12.7645606994628906
-29.6404228210449219 -1.69410693645477295 -12.5497236251831055
20.7230949401855469 -5.99243545532226562 3.13596844673156738
-32.6560821533203125 -1.888008713722229 -8.04773426055908203
-27.1459674835205078 11.3121786117553711 1.13086676597595215
23.6278152465820312 2.7989652156829834 -7.96392631530761719
-22.2722606658935547 -2.37762618064880371 13.4080181121826172
4.36740875244140625 14.0991554260253906 5.47825765609741211
21.2727546691894531 11.6396341323852539 -13.2595710754394531
-23.2528457641601562 -6.67211723327636719 4.82961893081665039
11.8184051513671875 0.902535378932952881 10.5758399963378906
-11.1951465606689453 -13.3185462951660156 6.48210620880126953
21.760772705078125 -16.0877895355224609 -1.81784152984619141
17.5408477783203125 14.1876354217529297 6.62249946594238281
32.7063751220703125 1.05692243576049805 -3.27972507476806641
-24.4772529602050781 -5.88282966613769531 -11.7882242202758789
-7.97851228713989258 -5.46337556838989258 7.83133363723754883
4.60273408889770508 -12.0695114135742188 7.26281642913818359
26.4383316040039062 1.4422607421875 2.37946677207946777
0.706135809421539307 9.12423133850097656 -5.15640497207641602
13.3274946212768555 6.66149187088012695 -13.1969890594482422
-22.4576892852783203 6.9257512092590332 -9.14962291717529297
18.4030113220214844 15.2861909866333008 12.5837259292602539
20.1181278228759766 12.1438264846801758 -15.1594972610473633
24.0504322052001953 -6.81790924072265625 3.53899717330932617
-16.7914657592773438 -9.86794281005859375 -8.01891422271728516
-2.36348176002502441 -16.1227474212646484 -0.608392536640167236
2.99926638603210449 -15.4990510940551758 -9.83563137054443359
14.6685342788696289 9.48211956024169922 -13.0309305191040039
21.1155319213867188 22.2936477661132812 3.7357020378112793
8.61532402038574219 -10.8512125015258789 -8.31841754913330078
24.7596263885498047 4.71273088455200195 -8.14713001251220703
17.6989574432373047 -11.4037837982177734 1.4561007022857666
-28.614898681640625 8.48561859130859375 -9.66432666778564453
-6.80147361755371094 5.58165979385375977 4.55814552307128906
35.6066360473632812 -11.3357839584350586 0.717244386672973633
7.44327402114868164 3.67615318298339844 -12.6025371551513672
29.3198757171630859 13.5291519165039062 -2.33692145347595215
-32.4146614074707031 -6.77150440216064453 1.43856239318847656
-14.3055038452148438 8.67680644989013672 -0.434199213981628418
19.5071125030517578 -6.95038127899169922 2.97350406646728516
21.4045143127441406 12.3646440505981445 11.9532365798950195
26.6741142272949219 17.3900737762451172 0.594322741031646729
-31.9541397094726562 -0.981814324855804443 -13.1139516830444336
2.91233730316162109 -9.9281158447265625 8.41976165771484375
-18.0273990631103516 6.36951923370361328 7.3705906867980957
19.1233806610107422 8.19128322601318359 -11.5187711715698242
-8.59332370758056641 5.91809701919555664 4.14112758636474609
10.0570697784423828 -13.8107328414916992 4.93101978302001953
-27.3087711334228516 -1.40207028388977051 -13.8779478073120117
19.0523185729980469 4.65843582153320312 9.61624622344970703
14.6954851150512695 11.8768157958984375 -5.57768535614013672
-19.8706188201904297 -9.57229709625244141 7.48123931884765625
10.2842893600463867 10.5572357177734375 10.8285732269287109
2.01226592063903809 -13.4391164779663086 6.09955549240112305
-21.3353672027587891 8.41880130767822266 -6.6838226318359375
-17.9493732452392578 -10.0800647735595703 -8.11588382720947266
-2.47337222099304199 -15.3903093338012695 4.29835939407348633
-27.4744987487792969 -18.5223922729492188 -1.86555266380310059
-3.40162420272827148 8.11199474334716797 2.99179577827453613
-19.8940486907958984 -3.11162805557250977 -10.4857883453369141
15.9792842864990234 22.1485309600830078 5.58529472351074219
-25.8202590942382812 -10.4406042098999023 6.44078254699707031
9.87657928466796875 13.9793510437011719 1.47282075881958008
-30.821014404296875 5.46766757965087891 -5.06926870346069336
-14.3466825485229492 -9.46053028106689453 7.0542759895324707
31.9523296356201172 -20.4131927490234375 -1.06378960609436035
-35.2737579345703125 -4.84608268737792969 -11.0615034103393555
25.6395149230957031 -15.7367191314697266 -3.93624782562255859
-3.03846454620361328 -7.52623748779296875 -7.65792322158813477
32.7153549194335938 -16.5160713195800781 1.11827600002288818
33.3468360900878906 -13.7427654266357422 2.79470920562744141
1.48466134071350098 1.73487579822540283 -9.37029170989990234
25.9286365509033203 4.03443813323974609 -7.14892292022705078
-16.0205059051513672 7.41125345230102539 3.53038120269775391
-34.145599365234375 -1.23103690147399902 -9.46045875549316406
37.57073974609375 -7.17679119110107422 -2.37323808670043945
-32.1316490173339844 -8.35909843444824219 -3.69670534133911133
-31.5550479888916016 1.17204439640045166 14.0411491394042969
26.7678489685058594 7.02483367919921875 -7.55094289779663086
-29.0515689849853516 -13.6445913314819336 3.82705998420715332
-26.4642181396484375 -0.775078773498535156 14.1304330825805664
-3.00963616371154785 -4.6428523063659668 7.68927288055419922
26.3411464691162109 17.5166606903076172 -1.6101233959197998
18.1787033081054688 14.776824951171875 10.6177711486816406
27.8893451690673828 2.97140312194824219 2.25719547271728516
0.993412613868713379 -5.21733570098876953 -8.29886627197265625
22.0945587158203125 17.8955249786376953 6.32663249969482422
3.57571101188659668 -13.681401252746582 5.83143424987792969
27.1096076965332031 4.35584783554077148 5.40470075607299805
16.6111011505126953 5.22093009948730469 10.6326913833618164
-20.2694549560546875 -10.5862369537353516 7.57161998748779297
-30.9716014862060547 -10.8763618469238281 -3.23484063148498535
16.1781177520751953 22.0173397064208984 5.66006135940551758
1.70514440536499023 -15.2161483764648438 -10.6740942001342773
-33.1838264465332031 -11.6225357055664062 1.96208536624908447
-30.0846691131591797 -4.60906982421875 -9.1507415771484375
30.1242008209228516 2.33150768280029297 -2.67027521133422852
7.51175689697265625 8.06000900268554688 10.5719575881958008
22.6922016143798828 6.31024503707885742 8.42131519317626953
5.03934097290039062 -11.7067489624023438 8.28597736358642578
-21.8009014129638672 6.75608253479003906 -9.39795112609863281
-1.92107021808624268 -13.3777923583984375 -6.13104486465454102
-17.5849990844726562 -13.9869356155395508 7.45440816879272461
-15.1047077178955078 9.11132717132568359 -1.28805279731750488
-31.8907070159912109 8.89286708831787109 4.13651466369628906
16.9337234497070312 -4.50768613815307617 -6.47922706604003906
-18.4003124237060547 5.10195684432983398 -12.1642732620239258
17.6782379150390625 12.5286121368408203 -12.5904960632324219
21.1155624389648438 22.4305305480957031 -1.48524367809295654
35.2420463562011719 -14.6326141357421875 -3.07071733474731445
9.14606952667236328 7.34794521331787109 11.2633790969848633
36.5192184448242188 -0.213749811053276062 -0.81953507661819458
-19.5661602020263672 -13.6284914016723633 5.5457916259765625
-29.6756916046142578 -4.35779380798339844 0.730930805206298828
-34.34173583984375 -12.8193244934082031 -0.709736227989196777
14.7824392318725586 4.54591131210327148 -12.2706689834594727
20.6809883117675781 20.5930576324462891 -4.48978328704833984
-29.8928890228271484 7.17036104202270508 -12.6037282943725586
-32.1714820861816406 11.9687557220458984 1.18617784976959229
-23.2206897735595703 -12.6967830657958984 6.41659402847290039
8.41643142700195312 13.5487470626831055 6.31098604202270508
