ply
format ascii 1.0
element vertex 782
comment vertices
property float x
property float y
property float z
end_header
-32.5660896301269531 -12.9191436767578125 7.58665704727172852
21.9782867431640625 20.7746543884277344 0.679372966289520264
29.4245719909667969 -19.3891353607177734 -2.22043490409851074
-7.61670637130737305 2.0017247200012207 -7.81651401519775391
22.2521247863769531 20.5115165710449219 2.15642762184143066
51.0843620300292969 -12.4289512634277344 -1.73356807231903076
-3.89952707290649414 -22.1312885284423828 7.92938995361328125
-27.8970565795898438 -19.2646293640136719 -13.0354843139648438
9.01510810852050781 -20.2662239074707031 9.09655570983886719
44.26971435546875 15.027684211730957 9.77452850341796875
29.3177108764648438 20.1966190338134766 -19.2986469268798828
32.4149742126464844 24.8243827819824219 11.9255046844482422
-38.0464439392089844 -6.37904596328735352 -20.46160888671875
32.3896865844726562 31.8839645385742188 1.48148632049560547
12.0877046585083008 -4.71059942245483398 -16.9659442901611328
-43.2668685913085938 8.46267318725585938 -15.6502513885498047
-5.2881770133972168 4.9496769905090332 -6.82208871841430664
-43.6493034362792969 -3.09069490432739258 19.7103404998779297
-11.3935337066650391 8.87257671356201172 -4.16190671920776367
-34.8640251159667969 7.19211721420288086 18.7152080535888672
-40.3344497680664062 8.79752159118652344 18.6591072082519531
8.80294418334960938 19.1641807556152344 -4.66735029220581055
24.0356082916259766 32.779327392578125 14.4672527313232422
-13.5134305953979492 -4.70448684692382812 10.0787897109985352
-53.3357009887695312 -6.27004337310791016 -0.1758546382188797
36.7304115295410156 -23.6384983062744141 0.0173608828336000443
-47.96392822265625 12.6904382705688477 4.40500974655151367
45.7030906677246094 -19.3771228790283203 3.43880653381347656
-3.9441683292388916 -31.6674480438232422 -14.4925851821899414
31.3101387023925781 16.4214019775390625 -7.57874679565429688
-27.2510910034179688 16.4859561920166016 -10.4620656967163086
15.0068550109863281 7.46375322341918945 -16.3130569458007812
-13.2446737289428711 -16.2177944183349609 -12.6954364776611328
-33.974884033203125 10.0315780639648438 9.66348838806152344
-14.9286718368530273 -16.9670543670654297 -14.2995462417602539
-24.7349777221679688 -19.6987667083740234 7.32372331619262695
26.7762737274169922 22.32501220703125 -8.55807685852050781
-9.10931682586669922 -10.2365264892578125 12.9649314880371094
-14.2770891189575195 -18.7443218231201172 7.15181827545166016
23.4348354339599609 37.0880317687988281 -11.0708751678466797
2.64457511901855469 -2.33772706985473633 8.85160064697265625
28.7093544006347656 26.8208484649658203 -12.5390281677246094
15.2879981994628906 -15.2973995208740234 13.2981529235839844
31.798492431640625 14.250579833984375 10.0895957946777344
-35.6400413513183594 -29.2681694030761719 0.528951823711395264
-38.3600578308105469 -21.7525005340576172 -1.72249186038970947
-34.63641357421875 -15.9978723526000977 -12.4373559951782227
34.0828208923339844 14.2556629180908203 14.1438064575195312
-24.7101974487304688 -15.0734901428222656 -12.0295028686523438
24.9521369934082031 -24.3563156127929688 0.863543927669525146
-39.3438873291015625 17.3386726379394531 -8.03914165496826172
-17.4958992004394531 -24.5002632141113281 -7.90579557418823242
31.109527587890625 26.8225250244140625 11.3617620468139648
28.4532871246337891 11.6099348068237305 13.0323190689086914
-26.5118923187255859 15.5710821151733398 -8.99314212799072266
-46.7739715576171875 -13.7983541488647461 0.65303337574005127
-35.9461898803710938 -18.5596637725830078 -11.3262262344360352
8.48066806793212891 -22.6733207702636719 -9.22461986541748047
-34.8697624206542969 -7.28118228912353516 -20.4084224700927734
7.73409128189086914 1.41997063159942627 -11.3273992538452148
6.32916879653930664 18.2787017822265625 -5.08721399307250977
45.6884269714355469 -20.2231159210205078 -3.67049288749694824
27.5223770141601562 36.1771926879882812 -6.17094564437866211
-27.9298324584960938 -14.334345817565918 -13.5371360778808594
-49.6257896423339844 0.422099441289901733 6.04651784896850586
0.863717973232269287 -0.190194278955459595 7.16495752334594727
-26.8882942199707031 16.714202880859375 -2.90012693405151367
21.5950469970703125 -11.1153659820556641 13.6727333068847656
5.10301542282104492 -4.7431330680847168 13.2468404769897461
-8.66440868377685547 -19.4636554718017578 -11.4638738632202148
55.9208221435546875 -23.1364574432373047 0.447040438652038574
-45.3470306396484375 -4.08333683013916016 -21.4018344879150391
39.7834053039550781 8.1078338623046875 10.3825435638427734
-5.26372480392456055 -23.1075515747070312 -14.9409523010253906
8.94846725463867188 3.46600699424743652 12.2122507095336914
-50.477996826171875 -1.91232872009277344 4.89434289932250977
42.9971885681152344 -30.8643989562988281 -1.78225719928741455
-6.90569972991943359 -9.01965904235839844 -10.6581335067749023
-48.9028167724609375 -4.77956008911132812 6.03419733047485352
-33.1999053955078125 17.319244384765625 -6.85948705673217773
15.6489458084106445 -14.5752925872802734 -14.7941064834594727
48.8618888854980469 -15.455296516418457 -0.248374417424201965
28.4906349182128906 25.3295993804931641 -9.82324123382568359
27.3008270263671875 14.4034938812255859 -9.72802448272705078
-26.7469654083251953 -3.63413429260253906 19.0285415649414062
45.3523139953613281 -1.8115617036819458 -7.06822872161865234
-6.55690479278564453 -32.3862648010253906 -4.00677299499511719
-26.9565868377685547 5.45955514907836914 -20.1252536773681641
-39.4063453674316406 -22.4747714996337891 -0.200301334261894226
6.49566507339477539 19.2831096649169922 -0.485846728086471558
-29.5295066833496094 -23.3236789703369141 -4.08017396926879883
-34.1303825378417969 3.94472885131835938 -20.8047466278076172
-1.62287724018096924 -14.2653093338012695 -11.5389719009399414
48.4608726501464844 -9.96430397033691406 -2.98416233062744141
-36.2436447143554688 -9.39648723602294922 4.13676881790161133
-42.4113388061523438 6.30404853820800781 6.78106403350830078
38.2295341491699219 -14.5110340118408203 -6.65199613571166992
32.1809272766113281 19.3600482940673828 23.5342617034912109
34.4597892761230469 -6.41101551055908203 -6.71941709518432617
-30.0758590698242188 17.3545207977294922 -5.30319023132324219
-48.1609725952148438 -4.36027669906616211 1.30435943603515625
13.7517318725585938 1.04129672050476074 -15.7725610733032227
27.0670509338378906 -21.9713573455810547 -1.83158540725708008
-41.2051544189453125 -11.4414472579956055 -0.253845632076263428
17.6871528625488281 -6.59209346771240234 -16.2768306732177734
34.3432960510253906 -10.5447406768798828 3.80692934989929199
-20.7655544281005859 -26.3185577392578125 2.06859469413757324
-36.2519111633300781 -7.19321537017822266 15.4529199600219727
7.81286859512329102 -32.559539794921875 -0.437586933374404907
33.3103675842285156 20.4098834991455078 -22.3031578063964844
42.725433349609375 12.8816118240356445 12.0835666656494141
-48.9423942565917969 -7.95944690704345703 -1.76784276962280273
44.8786964416503906 17.3532390594482422 -7.57127094268798828
32.9891929626464844 31.1606998443603516 -3.64828944206237793
31.2179908752441406 19.9233570098876953 23.3066577911376953
-26.3485393524169922 -25.7461509704589844 7.18180322647094727
25.5901870727539062 36.7796707153320312 -3.2640988826751709
-9.12531948089599609 -14.1907968521118164 10.0873985290527344
42.38592529296875 -23.1023464202880859 -6.2477717399597168
30.3303070068359375 -14.259669303894043 1.55339682102203369
-32.1981887817382812 -22.3388824462890625 -8.44553756713867188
-8.16093730926513672 -32.382598876953125 -3.45340991020202637
46.1225204467773438 -18.3683967590332031 -4.05189418792724609
-39.7075386047363281 10.3787040710449219 15.3070716857910156
17.9567279815673828 -24.5410022735595703 8.18682956695556641
-33.0676002502441406 12.4497461318969727 16.0061511993408203
17.2751083374023438 8.78813457489013672 -16.3543949127197266
29.1078891754150391 -15.1698818206787109 -2.80314087867736816
31.7599277496337891 32.1800422668457031 -5.20788002014160156
39.5559501647949219 22.3986759185791016 -9.87542343139648438
19.3567676544189453 19.3674526214599609 5.53439044952392578
-28.3833751678466797 1.32462882995605469 7.97140789031982422
-6.3812718391418457 -15.3907442092895508 9.46757316589355469
13.8697166442871094 -1.5087432861328125 -15.5679636001586914
-32.3744773864746094 17.8405551910400391 2.98765015602111816
-44.522064208984375 -2.77560114860534668 19.7175617218017578
-5.75866985321044922 9.42154026031494141 -3.43403911590576172
40.4911041259765625 -7.14851713180541992 -8.59082412719726562
22.968292236328125 -24.8413028717041016 2.06182408332824707
10.9603862762451172 -5.27257633209228516 16.1296520233154297
-15.5470743179321289 -11.3873863220214844 -11.5056772232055664
31.6945438385009766 28.7892913818359375 -12.4293785095214844
29.7237682342529297 31.2948589324951172 19.8099498748779297
-37.9866104125976562 -11.093073844909668 2.95896267890930176
29.3292884826660156 -28.4057159423828125 0.625010490417480469
-27.8330974578857422 -6.91347217559814453 8.06006145477294922
-30.8051204681396484 14.2626266479492188 8.7332763671875
-43.5054969787597656 -8.52727317810058594 -13.8630161285400391
30.0704803466796875 18.2501029968261719 -13.7692708969116211
44.6300621032714844 -16.4862442016601562 -7.70529651641845703
26.0612373352050781 37.8678855895996094 2.82231926918029785
-41.0444374084472656 0.612796366214752197 -20.8022251129150391
-33.4356880187988281 3.27508640289306641 -20.7856101989746094
-38.2180862426757812 -13.6621503829956055 7.62310075759887695
42.7323379516601562 -34.2505302429199219 0.23314058780670166
42.4552879333496094 8.16355514526367188 6.77073574066162109
-19.7972030639648438 -6.76741886138916016 -12.6591148376464844
7.01078367233276367 -7.49740695953369141 15.6642675399780273
-10.865330696105957 -30.2022113800048828 5.88205862045288086
-1.48259067535400391 -32.46234130859375 -2.32289719581604004
9.55043125152587891 2.07703757286071777 -14.8369741439819336
-23.3273334503173828 -14.4351396560668945 8.68033218383789062
-13.4325551986694336 -18.1417121887207031 -13.0625572204589844
50.3459396362304688 -3.14593148231506348 6.0370025634765625
-38.8813552856445312 -13.0293397903442383 -6.7834773063659668
38.0067710876464844 14.2711629867553711 -18.6284046173095703
12.5238857269287109 18.2322235107421875 -7.13415622711181641
44.2071304321289062 7.25744819641113281 -2.96092510223388672
30.0409317016601562 29.2277126312255859 -18.7319889068603516
34.2093734741210938 29.9284381866455078 -3.81899762153625488
24.6588954925537109 -22.3213596343994141 -3.15704846382141113
25.0413990020751953 11.7937984466552734 -15.0459671020507812
-8.94747543334960938 -26.3443222045898438 7.18132257461547852
25.8574714660644531 37.7332305908203125 -6.36030912399291992
31.9684658050537109 -12.1206645965576172 2.29075932502746582
-32.4872856140136719 -7.13593196868896484 -20.4564533233642578
34.5520133972167969 24.0288543701171875 10.3214616775512695
-40.620513916015625 9.30469989776611328 -12.1164712905883789
35.2111778259277344 -30.6048240661621094 -1.99091100692749023
-43.7891616821289062 1.42693376541137695 10.4157781600952148
-36.8882675170898438 -10.4776535034179688 -14.2524709701538086
5.98699331283569336 -28.5439243316650391 -7.69610977172851562
-46.2992515563964844 3.1367344856262207 -9.62446212768554688
21.9595909118652344 40.5551376342773438 5.91633796691894531
38.3518867492675781 25.0567569732666016 4.38349342346191406
-11.3136358261108398 -13.1306982040405273 9.96206378936767578
-31.0924110412597656 9.03567600250244141 -13.7722272872924805
-13.9969596862792969 2.57606935501098633 7.7686309814453125
-27.4398727416992188 17.67535400390625 4.96858024597167969
28.0243778228759766 33.1574134826660156 10.9327497482299805
14.6641817092895508 10.9498767852783203 13.3864688873291016
11.6878986358642578 -13.0794897079467773 14.9384031295776367
22.4526481628417969 12.4682741165161133 -15.2686357498168945
24.6370735168457031 11.7352514266967773 -15.3315649032592773
23.2967205047607422 19.9936351776123047 6.25279569625854492
56.3989524841308594 -14.5491847991943359 -1.35957372188568115
31.0699615478515625 31.4351291656494141 8.83899974822998047
26.9686203002929688 14.6154003143310547 8.75723361968994141
13.6308221817016602 -32.5783348083496094 -5.08669137954711914
-47.0436172485351562 13.8336000442504883 -8.1540679931640625
28.6622447967529297 2.53377580642700195 12.0364437103271484
-4.63867425918579102 -33.333984375 -12.5479221343994141
18.8683700561523438 13.6827592849731445 -14.5134706497192383
15.8160791397094727 -9.95769596099853516 15.3937149047851562
-14.8344821929931641 -18.3567581176757812 8.19935512542724609
32.6370429992675781 31.6361083984375 -0.266704708337783813
35.3716545104980469 21.7102680206298828 15.2583608627319336
47.62835693359375 -17.7451915740966797 0.101149529218673706
14.6013851165771484 -20.1059398651123047 11.5452518463134766
-46.8483505249023438 -0.937700808048248291 18.6675624847412109
51.4658126831054688 -2.66691040992736816 1.87258648872375488
34.830657958984375 -4.19015979766845703 7.91228914260864258
31.6625328063964844 -17.0994777679443359 5.28145599365234375
32.0534210205078125 28.9218578338623047 20.666290283203125
32.6501579284667969 26.7587871551513672 17.8536643981933594
-10.3113412857055664 -9.90910720825195312 -11.3888635635375977
42.1959571838378906 16.4740161895751953 -12.3298826217651367
2.49225687980651855 8.64999198913574219 -7.61451530456542969
-9.34473800659179688 8.95854759216308594 -3.17440629005432129
36.1412467956542969 16.1591663360595703 -19.6668853759765625
-39.1779289245605469 -10.4093151092529297 -21.9750518798828125
20.2272510528564453 -0.131652548909187317 -14.8068428039550781
-32.5397491455078125 -33.3205299377441406 0.532108724117279053
-12.6413068771362305 8.27958965301513672 -5.80168247222900391
57.0515899658203125 -21.4362964630126953 0.358250409364700317
-40.0567779541015625 -27.1633224487304688 -1.81196093559265137
39.0582046508789062 15.3526592254638672 -15.503352165222168
8.37413787841796875 -14.8724298477172852 14.5699300765991211
38.2248802185058594 3.17007303237915039 -7.10294437408447266
-31.3208389282226562 16.5573520660400391 -10.8156023025512695
-31.1482715606689453 -27.1566677093505859 0.619320511817932129
-2.3863062858581543 -32.9119338989257812 -12.691594123840332
-41.1470947265625 17.9984169006347656 6.60873222351074219
44.1046905517578125 8.35306072235107422 6.96381521224975586
39.9325027465820312 18.2965354919433594 10.6925296783447266
-12.7790145874023438 -24.5190219879150391 -8.69286537170410156
-30.9024944305419922 -23.3140487670898438 7.47855138778686523
-10.321873664855957 -8.90640354156494141 8.66159248352050781
-35.366790771484375 -2.02710676193237305 -21.0827426910400391
35.9657669067382812 27.4415283203125 4.95012664794921875
22.9167938232421875 -18.1239414215087891 -10.3885793685913086
-18.5403385162353516 -24.4261932373046875 -9.95972251892089844
-50.4113998413085938 4.69817113876342773 -3.03101730346679688
-38.4561882019042969 -8.52500152587890625 -20.7474021911621094
30.2408046722412109 17.0222663879394531 -18.1986885070800781
30.6804904937744141 32.5405044555664062 -8.36438846588134766
54.5567779541015625 -27.7196216583251953 -0.747017145156860352
-20.0155391693115234 -21.5208950042724609 -13.5258874893188477
2.7725214958190918 -28.4927387237548828 -13.8231515884399414
33.2452049255371094 12.978947639465332 -19.1785621643066406
-52.2180938720703125 -9.171630859375 -0.355318695306777954
25.0702247619628906 -3.14441847801208496 -12.8126163482666016
36.7425308227539062 2.66296100616455078 -5.1923069953918457
-11.4830474853515625 -2.70992779731750488 9.89789676666259766
16.0836448669433594 3.20841693878173828 14.1841316223144531
10.3483819961547852 5.9612116813659668 -10.449702262878418
52.6399497985839844 -1.04791820049285889 0.419693171977996826
-8.46300125122070312 -15.5190486907958984 8.91373920440673828
12.9901409149169922 -4.12149906158447266 -16.89935302734375
25.5893058776855469 23.9451198577880859 -1.22043073177337646
-16.3732070922851562 -24.86883544921875 3.7174077033996582
-36.8246040344238281 -9.04114341735839844 -20.0577106475830078
38.7716636657714844 -32.8711509704589844 -1.34127020835876465
-21.2848625183105469 5.29277181625366211 -11.3680248260498047
51.9419517517089844 -3.14447999000549316 2.32214236259460449
17.1693229675292969 0.960484087467193604 14.3727750778198242
-8.16905975341796875 9.08753299713134766 1.49477934837341309
-0.672362804412841797 -15.8077630996704102 11.1152868270874023
0.917530596256256104 15.5938701629638672 -1.74444293975830078
2.3633723258972168 -25.6224250793457031 -15.1958160400390625
-51.5086822509765625 -4.64627265930175781 4.43942928314208984
1.639556884765625 -10.9326944351196289 10.7095975875854492
-53.2459564208984375 -6.1454005241394043 0.915680348873138428
30.2562294006347656 31.2632350921630859 -8.45097255706787109
31.6592769622802734 -28.9817237854003906 1.63822591304779053
31.608489990234375 32.6784095764160156 -1.78949093818664551
12.6167192459106445 -17.8198604583740234 -12.9392843246459961
-30.4721660614013672 31.7128925323486328 9.64298915863037109
13.6972732543945312 14.8247547149658203 -11.4781064987182617
-33.0367469787597656 33.9875068664550781 15.4937238693237305
-30.7209205627441406 33.4435806274414062 9.62473487854003906
-48.8888893127441406 -5.06358909606933594 -11.4264230728149414
26.5690593719482422 16.7163944244384766 6.40092897415161133
-50.5170021057128906 -5.99329996109008789 -9.56336116790771484
36.1592063903808594 14.7339153289794922 14.1317367553710938
45.4273338317871094 -20.2164745330810547 -7.2823033332824707
24.8617038726806641 -24.5251197814941406 2.33934140205383301
26.9942703247070312 -11.6626424789428711 10.204315185546875
45.980712890625 8.40326404571533203 -7.7681727409362793
-2.90978312492370605 8.38895797729492188 4.09948158264160156
32.2646331787109375 24.5097732543945312 -15.1801652908325195
46.5866889953613281 1.14970362186431885 -2.79232525825500488
-52.0227737426757812 -8.04594135284423828 3.43669962882995605
18.5009555816650391 -32.61602783203125 -3.78511142730712891
-46.9625663757324219 8.85154247283935547 7.20546674728393555
25.2320575714111328 -19.0058212280273438 8.12218284606933594
-34.2619895935058594 25.5283851623535156 15.3145475387573242
-17.2732753753662109 -22.9530525207519531 0.325763553380966187
25.4571781158447266 -19.1591949462890625 -7.71357059478759766
-36.4097480773925781 -6.84685564041137695 14.8570032119750977
-5.45397043228149414 -31.5608444213867188 -7.65379238128662109
-6.69896316528320312 -15.5325889587402344 9.08671951293945312
7.92298698425292969 -2.6192936897277832 -15.8499841690063477
31.3465423583984375 -2.74824118614196777 -7.02675533294677734
36.2493209838867188 25.4299297332763672 2.36726284027099609
-23.0385837554931641 -17.2889118194580078 -13.7281818389892578
-34.3488044738769531 -2.91234707832336426 3.31697249412536621
47.1615486145019531 -1.39886677265167236 5.97365903854370117
-36.0014877319335938 -29.8304252624511719 -2.0018165111541748
56.22308349609375 -15.0189943313598633 0.936818838119506836
6.24366617202758789 -21.81640625 8.31481742858886719
-12.6411857604980469 9.48333930969238281 2.48283767700195312
-32.9875946044921875 -25.0083236694335938 7.61489295959472656
-21.1350536346435547 -3.10348844528198242 -11.3060922622680664
23.4514122009277344 -24.7880344390869141 4.87534713745117188
-46.1550445556640625 -0.575626611709594727 -14.7994756698608398
-49.84075927734375 3.16257166862487793 0.00660575646907091141
-42.543853759765625 -0.62226027250289917 -20.8365364074707031
37.0127296447753906 14.8119335174560547 15.9393672943115234
43.073883056640625 -7.39155912399291992 -8.27584362030029297
15.9965429306030273 19.6348762512207031 -5.27542591094970703
-33.5544281005859375 -0.969246387481689453 -20.7318897247314453
30.1463222503662109 26.1689739227294922 -19.2528877258300781
-51.2557601928710938 -3.34889864921569824 0.980943620204925537
-4.33778905868530273 10.3476333618164062 2.0928657054901123
0.0367608144879341125 8.15252780914306641 5.24758720397949219
-18.7593593597412109 -15.6232919692993164 8.87151145935058594
32.3756904602050781 23.4809169769287109 -16.3352222442626953
23.01080322265625 -19.5534381866455078 9.29568576812744141
43.4253311157226562 -28.8699207305908203 -1.87450110912322998
23.4749870300292969 38.4146537780761719 9.79985713958740234
-32.0269317626953125 8.55240726470947266 -18.4483089447021484
-36.2339820861816406 13.2892093658447266 -11.4938297271728516
-49.266143798828125 9.82658100128173828 -4.15952968597412109
35.6053504943847656 19.2293014526367188 20.7655353546142578
0.80334395170211792 -24.2473831176757812 -9.02982616424560547
21.9877948760986328 39.7479286193847656 -9.71866035461425781
46.7702865600585938 -14.2467155456542969 -7.49474000930786133
0.783892035484313965 -29.2624645233154297 -12.6563262939453125
30.3125667572021484 17.5335597991943359 -16.4148311614990234
-40.6946296691894531 -16.5674591064453125 5.41096639633178711
29.4103202819824219 27.9864578247070312 2.50380206108093262
-6.29344272613525391 2.58764815330505371 -7.66666698455810547
47.24090576171875 -6.52721643447875977 6.32927036285400391
-40.8021507263183594 -25.1698493957519531 0.339886128902435303
32.6483612060546875 15.6863670349121094 -25.7765483856201172
40.0196723937988281 -9.98423480987548828 -8.66567897796630859
20.9686775207519531 0.683598995208740234 -14.8099145889282227
12.0309829711914062 21.1606922149658203 -0.526644110679626465
-44.9695892333984375 -12.3720264434814453 -2.51925063133239746
22.3218517303466797 -8.14466571807861328 -14.6999673843383789
-21.2140884399414062 -12.4327783584594727 12.2872915267944336
-33.1934890747070312 40.4322929382324219 10.103825569152832
2.23548221588134766 -8.84328842163085938 -12.6506004333496094
13.5509490966796875 17.2408962249755859 -9.55926418304443359
-49.4621849060058594 6.49690961837768555 -4.75187253952026367
-4.76167392730712891 -11.6904582977294922 10.9558248519897461
-40.6691322326660156 -8.73841190338134766 -7.16061735153198242
-7.13991403579711914 -20.3427276611328125 -9.43785381317138672
-31.1766300201416016 -1.73208355903625488 4.27487707138061523
37.7974128723144531 -33.8062477111816406 0.475173234939575195
-36.3184890747070312 -15.2936811447143555 -7.11301612854003906
-6.72004461288452148 -2.78072500228881836 7.60625410079956055
26.8833198547363281 -12.8419618606567383 7.02937936782836914
-4.39063501358032227 -30.1056194305419922 7.36156129837036133
43.5107803344726562 -10.8009214401245117 8.07387161254882812
30.9349422454833984 32.1590652465820312 7.60342264175415039
30.2083034515380859 1.30793654918670654 10.920842170715332
-42.0437698364257812 8.86093044281005859 -14.6381616592407227
30.7408065795898438 0.872697949409484863 -11.5333156585693359
39.7200202941894531 -9.66225624084472656 8.41950798034667969
27.9993762969970703 -9.98783016204833984 -9.86141586303710938
1.76413106918334961 -2.45551252365112305 8.77211570739746094
-20.3137741088867188 10.0978050231933594 7.45798063278198242
39.0924606323242188 24.5366535186767578 -5.17714548110961914
28.2252521514892578 27.4380245208740234 -3.91277813911437988
10.9046192169189453 -8.90609264373779297 15.8753032684326172
26.5715503692626953 36.2075080871582031 8.33544826507568359
33.0399551391601562 3.44061923027038574 10.874298095703125
13.9335870742797852 -20.6198368072509766 -11.883906364440918
-1.33871471881866455 -31.5491237640380859 -15.5762910842895508
-39.9425811767578125 18.0019283294677734 4.55527687072753906
31.6724300384521484 30.2834300994873047 5.67453384399414062
-6.04999589920043945 7.22257614135742188 -5.50295543670654297
-33.0718803405761719 6.70164728164672852 8.99778652191162109
-29.4595489501953125 -7.10774612426757812 8.06338310241699219
-34.2997550964355469 17.2530899047851562 -9.01996612548828125
32.1722335815429688 -1.2190176248550415 -8.05852794647216797
11.1951761245727539 -10.8354024887084961 15.5284423828125
13.8307437896728516 -25.2200546264648438 -8.0744171142578125
-29.4731292724609375 -7.28499794006347656 -18.1567707061767578
31.0396232604980469 -23.60675048828125 -2.34461808204650879
2.76489949226379395 16.8787708282470703 -3.24433326721191406
-17.1545257568359375 -24.8651294708251953 7.1737060546875
0.987479209899902344 -32.6289558410644531 -16.2220134735107422
-35.5149688720703125 -1.29741692543029785 2.60911226272583008
-1.19722092151641846 -20.9349575042724609 -9.28847980499267578
43.6460533142089844 -4.21494865417480469 7.75418281555175781
-16.2918682098388672 -12.1791229248046875 10.3644247055053711
-6.46499395370483398 -30.2839298248291016 -12.6550960540771484
-47.0515213012695312 -7.53662872314453125 -9.23384475708007812
48.0977325439453125 -6.44571638107299805 -6.4281768798828125
28.8816299438476562 -25.1702461242675781 -2.17490029335021973
31.2735404968261719 32.569671630859375 -5.88432836532592773
35.5049972534179688 2.83202385902404785 -10.3230247497558594
21.5840415954589844 9.92491817474365234 -16.6148948669433594
-31.0083465576171875 -24.3183040618896484 -3.03479480743408203
-42.0277328491210938 -23.3323593139648438 -1.4283607006072998
10.6492671966552734 -25.8366813659667969 7.36168909072875977
-8.36943817138671875 -5.99073982238769531 -10.8688087463378906
31.5742244720458984 24.1229381561279297 15.6679105758666992
35.4283866882324219 20.0201473236083984 15.4700460433959961
35.4440383911132812 -10.8172006607055664 -5.21077299118041992
-41.2058029174804688 1.09786307811737061 -20.8087005615234375
30.4418888092041016 8.40715980529785156 14.3396053314208984
2.97880864143371582 10.4377164840698242 6.04946088790893555
24.5292778015136719 37.8558197021484375 -1.28988504409790039
-43.8122444152832031 -4.97879457473754883 -20.6927871704101562
30.3424110412597656 27.0014667510986328 11.440608024597168
-40.4665756225585938 -3.3299555778503418 11.4741897583007812
41.7974815368652344 1.04122090339660645 4.43842601776123047
-1.39861190319061279 -24.3984928131103516 -12.3605318069458008
8.10648441314697266 1.62944293022155762 -12.3182344436645508
-46.4486427307128906 1.44264638423919678 13.4074411392211914
19.8477268218994141 3.54413533210754395 14.4170160293579102
1.19975078105926514 -26.4053306579589844 7.26578330993652344
48.0589790344238281 1.05808770656585693 -0.785930216312408447
4.93702936172485352 -5.42703771591186523 13.9895658493041992
-1.36396193504333496 11.5356416702270508 3.04793167114257812
-5.44951009750366211 10.2950372695922852 -1.2699589729309082
51.1086463928222656 -1.54284334182739258 4.17987442016601562
27.1154518127441406 37.005157470703125 1.72421729564666748
16.0336227416992188 -32.6218910217285156 0.030629035085439682
19.3422565460205078 20.0451774597167969 0.402807950973510742
-41.7780990600585938 8.76878929138183594 -17.8528652191162109
47.0139350891113281 -15.2257099151611328 7.31656885147094727
-29.2875194549560547 -29.9756603240966797 -2.01465702056884766
-29.8772392272949219 9.84328556060791016 12.4036455154418945
34.2920799255371094 11.9655313491821289 -16.3274803161621094
-33.3200721740722656 23.3985557556152344 15.0335588455200195
-26.90716552734375 -6.47560358047485352 16.1012821197509766
-40.2486839294433594 -19.7997989654541016 7.19145536422729492
44.877685546875 17.8061809539794922 5.60158109664916992
47.5356330871582031 -7.41423416137695312 4.55341577529907227
-2.54158926010131836 -24.7503032684326172 -16.5970916748046875
27.7609386444091797 -10.1623239517211914 6.37833642959594727
-4.61983251571655273 2.17639517784118652 -7.70825004577636719
-47.9837760925292969 -13.542149543762207 -0.173149481415748596
34.8461189270019531 14.5626811981201172 21.8436012268066406
-26.6471786499023438 16.1075286865234375 -2.09791207313537598
-13.1020059585571289 -19.1212387084960938 -9.32461261749267578
15.6525764465332031 -9.01736259460449219 -16.3978481292724609
33.8520317077636719 4.81149196624755859 -12.6956348419189453
42.7935295104980469 13.8319768905639648 11.8268394470214844
-21.8118896484375 15.0934896469116211 -2.50762748718261719
-30.5399456024169922 35.8818893432617188 11.9028797149658203
16.1624088287353516 4.90925979614257812 -15.8598079681396484
-42.4358406066894531 -3.4339599609375 -20.7125167846679688
-27.7974739074707031 -0.352202832698822021 19.7436046600341797
5.0272979736328125 -10.9115762710571289 -14.9346551895141602
34.6161766052246094 -20.7325267791748047 -4.08551168441772461
-5.43005609512329102 -0.724526703357696533 7.12574005126953125
6.51795291900634766 -32.5245552062988281 -0.0202273521572351456
-9.73400497436523438 2.1908118724822998 7.02440214157104492
42.8181686401367188 -30.3839302062988281 1.94216609001159668
1.09109115600585938 -0.795320868492126465 -8.459869384765625
0.449102044105529785 -0.680011153221130371 7.26542139053344727
14.8519105911254883 2.18487906455993652 -15.3482398986816406
-31.6603126525878906 -33.4234275817871094 0.249054521322250366
-24.5389747619628906 -21.8132591247558594 -6.02176237106323242
31.6328506469726562 -28.3273849487304688 -1.92502701282501221
4.97974061965942383 -32.4259376525878906 3.4628593921661377
41.7929573059082031 21.2974185943603516 -7.34194087982177734
-26.4638614654541016 -0.741834104061126709 -14.1897096633911133
-43.3459892272949219 -5.43479442596435547 -19.7836570739746094
35.3879508972167969 18.0600051879882812 22.4503326416015625
-20.4860935211181641 11.1413393020629883 -9.26341152191162109
20.6450843811035156 -4.81187725067138672 -15.4560718536376953
19.9700355529785156 3.62292599678039551 -14.5653905868530273
26.4755535125732422 14.9657135009765625 8.41151142120361328
24.6663494110107422 18.7878170013427734 -7.76782703399658203
-41.6998825073242188 17.5513572692871094 -4.18022775650024414
-29.0000972747802734 1.73979043960571289 19.1860923767089844
39.1987190246582031 -34.158782958984375 -0.148219257593154907
-47.2563514709472656 6.645599365234375 -7.92005681991577148
35.798858642578125 4.61251068115234375 -11.6477241516113281
13.4333515167236328 -32.59033203125 -2.24495983123779297
-26.3007621765136719 -24.6810016632080078 7.14907598495483398
28.7991046905517578 -4.93991518020629883 5.78449344635009766
6.61603450775146484 4.29496908187866211 -9.43799495697021484
-19.8249340057373047 13.7188787460327148 -3.8198094367980957
-33.5040512084960938 24.3960342407226562 15.8102293014526367
29.7484855651855469 13.8349552154541016 -24.9115734100341797
27.6354045867919922 12.6888389587402344 11.5729293823242188
16.3313751220703125 -30.0792407989501953 -7.55785894393920898
-45.6767158508300781 6.84200620651245117 10.5976228713989258
5.98248147964477539 2.85924577713012695 8.26047706604003906
-48.4174041748046875 -11.7655658721923828 -3.56627702713012695
46.2871208190917969 -5.97652196884155273 6.82651805877685547
-5.14017772674560547 -30.7726554870605469 -15.0958681106567383
-40.4056396484375 17.4093723297119141 -7.28251123428344727
30.0276908874511719 25.3832626342773438 5.58616828918457031
26.4978427886962891 33.3725929260253906 10.4605016708374023
33.1457786560058594 31.131744384765625 -1.15565848350524902
-22.0822010040283203 15.0988616943359375 -3.8297581672668457
7.77934598922729492 7.3480076789855957 -9.31093502044677734
25.4078292846679688 29.9548816680908203 -14.9954814910888672
-35.1783790588378906 -21.1097335815429688 -6.50604772567749023
36.963775634765625 1.16014003753662109 -3.87670373916625977
-44.8465766906738281 9.17588424682617188 16.6039276123046875
11.6294584274291992 -7.65438556671142578 -16.8818626403808594
38.0598945617675781 10.431208610534668 12.4308938980102539
31.4490623474121094 12.6806812286376953 18.7559261322021484
35.6884269714355469 27.8309211730957031 -6.93397808074951172
-52.4576759338378906 -4.89176750183105469 -4.78514575958251953
28.7032566070556641 33.7519683837890625 -0.148668289184570312
56.29620361328125 -16.2274265289306641 -1.63732516765594482
24.9536495208740234 -3.32457637786865234 12.0493850708007812
7.69847011566162109 -13.532989501953125 14.4295902252197266
48.5054550170898438 0.334029912948608398 3.05087161064147949
-4.1013798713684082 -31.7243080139160156 -15.3550529479980469
-25.0766048431396484 13.6209049224853516 2.24128556251525879
9.82878494262695312 -32.5763206481933594 0.0710350945591926575
34.4235191345214844 21.8873844146728516 12.0558032989501953
53.587677001953125 -15.8400392532348633 -1.85496103763580322
19.8772392272949219 3.73060989379882812 14.4410858154296875
30.0868053436279297 -16.4355010986328125 -2.39503836631774902
27.9988670349121094 -20.8087177276611328 1.96198129653930664
-32.5533409118652344 4.63116455078125 -20.7600898742675781
51.6925582885742188 -1.1635357141494751 2.97879362106323242
-38.1234130859375 10.1957931518554688 12.7398147583007812
-52.3290519714355469 -12.4326896667480469 2.81462383270263672
-35.5698890686035156 -8.23471927642822266 4.63770246505737305
-27.7710800170898438 9.91647052764892578 -11.2569208145141602
2.73932695388793945 5.98762893676757812 6.7556452751159668
-36.084625244140625 1.18200552463531494 4.87245559692382812
16.3941459655761719 0.552336692810058594 -15.4326372146606445
36.8826675415039062 -3.0547788143157959 7.96553945541381836
34.0328750610351562 8.82278537750244141 13.8493947982788086
45.9725494384765625 12.4999570846557617 8.61370563507080078
21.5183258056640625 2.2706148624420166 -11.3462142944335938
-35.8927726745605469 -17.3897819519042969 8.28095149993896484
46.5831832885742188 -11.4724197387695312 -7.35437107086181641
-32.6105232238769531 6.20073461532592773 9.3395538330078125
-1.48979544639587402 11.4392147064208984 2.9783327579498291
-13.8779458999633789 -21.1184253692626953 -9.60657978057861328
-43.5322189331054688 -29.1223220825195312 -1.32714295387268066
25.0935554504394531 34.3653678894042969 12.9423074722290039
-36.4477729797363281 -15.7097721099853516 7.66101646423339844
-47.6781654357910156 -12.3673677444458008 -0.503395199775695801
-46.6878929138183594 -12.8726558685302734 0.86366349458694458
38.228179931640625 3.031524658203125 -1.49627685546875
-30.4301357269287109 -30.0959796905517578 1.10288727283477783
35.7470550537109375 -1.51909875869750977 -8.6131439208984375
26.1865329742431641 29.3290500640869141 -14.6448822021484375
21.5667324066162109 2.10677933692932129 -11.1571073532104492
36.2711715698242188 19.5496845245361328 14.9869661331176758
-21.7886924743652344 -14.6799612045288086 9.93325424194335938
-49.5860519409179688 9.83475971221923828 1.41589200496673584
-22.7091598510742188 -1.53935718536376953 9.81713485717773438
5.83701086044311523 -6.7289886474609375 14.7821483612060547
-20.4990768432617188 -23.7914772033691406 7.14368295669555664
-6.52909135818481445 -28.8440589904785156 7.29180526733398438
9.13691997528076172 13.1099004745483398 -8.95046806335449219
21.6470069885253906 -24.8425445556640625 1.64498245716094971
-9.53162193298339844 6.52180814743041992 4.85565805435180664
-40.9520378112792969 3.82747054100036621 19.1131858825683594
-34.6295204162597656 23.7766704559326172 14.6647586822509766
39.0981330871582031 12.2467031478881836 16.2716350555419922
-26.5544033050537109 12.8214540481567383 7.27393627166748047
20.9757099151611328 -14.8442401885986328 12.2994060516357422
37.9163665771484375 -21.1554450988769531 3.02825069427490234
-6.99650382995605469 -25.5764675140380859 -12.5650959014892578
-6.44649457931518555 1.18580067157745361 6.96366405487060547
13.1739635467529297 -12.4495429992675781 15.0433473587036133
-23.4382801055908203 -22.2085056304931641 -10.5279045104980469
-29.7867546081542969 10.6869821548461914 13.6218709945678711
31.5589160919189453 28.8133583068847656 -10.3128499984741211
12.7803354263305664 6.73583078384399414 -15.2122230529785156
30.1666736602783203 -22.1588859558105469 -2.44966244697570801
-18.3037281036376953 -13.0453662872314453 11.3857021331787109
-16.8637847900390625 5.44262504577636719 8.25295543670654297
-6.92153167724609375 -24.646514892578125 -8.47324848175048828
-31.6381397247314453 35.7184295654296875 10.3447990417480469
36.5942535400390625 13.4643583297729492 -17.9675979614257812
7.99310541152954102 -8.03637027740478516 -16.6991634368896484
-44.9875640869140625 8.05547618865966797 8.23142910003662109
-8.04528045654296875 -28.9360466003417969 -16.7866706848144531
24.3923816680908203 0.0524423196911811829 12.6797895431518555
-35.021484375 -15.5204706192016602 -13.1299257278442383
37.5716819763183594 -30.1644420623779297 1.91275227069854736
38.3385238647460938 13.6166162490844727 -17.1499252319335938
34.9567298889160156 17.6371498107910156 -24.1794700622558594
-26.4581451416015625 15.4936323165893555 -4.87702846527099609
-29.8768787384033203 -30.9277667999267578 1.2454981803894043
8.06763267517089844 9.08534526824951172 -9.21639251708984375
47.6893043518066406 13.0812435150146484 -6.08310174942016602
-0.20778384804725647 11.170806884765625 4.87923479080200195
-24.2091560363769531 -31.1017284393310547 -1.00128841400146484
33.0462799072265625 22.3378582000732422 14.8354778289794922
43.7907447814941406 19.4982166290283203 -6.05081844329833984
-6.57873153686523438 9.59666538238525391 1.17527651786804199
49.3950347900390625 -13.7743749618530273 -1.20605885982513428
-19.1456127166748047 -24.3626613616943359 -9.49022865295410156
-33.0793342590332031 23.6207275390625 10.938685417175293
40.16339111328125 0.37964785099029541 5.49818563461303711
-45.9120445251464844 0.687771439552307129 4.05894851684570312
23.4884357452392578 35.6837844848632812 -14.6735067367553711
-33.098785400390625 36.0201835632324219 15.0776681900024414
-3.44839835166931152 -9.52625465393066406 9.57982826232910156
-20.7941913604736328 14.6690044403076172 0.271243274211883545
-42.6081924438476562 -7.77275514602661133 -20.4807281494140625
23.0908641815185547 12.3033227920532227 -15.2971105575561523
24.1808586120605469 39.1439170837402344 -7.43439626693725586
-44.7275390625 9.32271099090576172 16.69097900390625
-31.6987571716308594 16.0158100128173828 13.0624294281005859
27.7363395690917969 -5.15692281723022461 10.7515993118286133
0.117068007588386536 12.3189420700073242 -5.20895147323608398
21.4301071166992188 20.2016487121582031 -4.36848306655883789
2.95121383666992188 -4.02995777130126953 -10.8993415832519531
-24.3082656860351562 13.065068244934082 5.99515533447265625
33.8525772094726562 6.08957338333129883 12.3219366073608398
25.8227863311767578 -20.419677734375 2.87156295776367188
-26.8119316101074219 12.1186332702636719 -11.8006601333618164
11.4674882888793945 -16.0819568634033203 13.9980363845825195
36.1851615905761719 6.73670434951782227 11.8357210159301758
-35.160980224609375 -33.1296348571777344 -0.958601474761962891
-14.0244474411010742 -12.0720462799072266 -11.5223855972290039
50.3181686401367188 -5.16806268692016602 0.907788395881652832
53.3427581787109375 -4.06824541091918945 2.3550879955291748
-38.9430961608886719 -12.3567390441894531 3.94330000877380371
-36.4108543395996094 5.50822210311889648 18.9366989135742188
-42.589935302734375 6.55056476593017578 6.7788233757019043
22.1416683197021484 12.0838775634765625 -15.8142929077148438
-8.810302734375 0.598340928554534912 -7.95881843566894531
17.6777706146240234 14.3473386764526367 -13.8502635955810547
1.58487904071807861 -32.1303634643554688 -16.0558109283447266
21.4421024322509766 -24.8666820526123047 -6.98334217071533203
-32.2516212463378906 -26.5841712951660156 0.153799086809158325
30.0764408111572266 30.3343448638916016 -10.4366436004638672
-47.9250106811523438 0.295525163412094116 -8.48441600799560547
34.6001701354980469 4.61004114151000977 11.0081672668457031
30.7632312774658203 31.7682228088378906 -2.01735639572143555
-43.670501708984375 4.89053106307983398 9.87060928344726562
9.91391181945800781 -28.9303207397460938 7.44659996032714844
36.2043418884277344 0.894345939159393311 -7.61177968978881836
42.9865188598632812 5.85566806793212891 -5.41558122634887695
49.3408775329589844 -3.89500737190246582 6.67863655090332031
19.8841342926025391 -32.1968574523925781 -2.48043727874755859
-45.4966964721679688 -4.38138580322265625 -21.6954288482666016
-34.6170921325683594 16.8939266204833984 12.6348533630371094
21.5082187652587891 -12.3400459289550781 13.3542060852050781
13.3396015167236328 14.6519899368286133 9.75960826873779297
-30.6314582824707031 -7.7853245735168457 -19.4517974853515625
-40.0143394470214844 -4.95300388336181641 1.1194148063659668
-46.9303817749023438 12.8431758880615234 -9.43113136291503906
24.91595458984375 17.5095634460449219 -7.73336267471313477
-3.51216912269592285 -31.0561580657958984 -14.0750637054443359
-42.8303565979003906 -16.6532764434814453 0.861170530319213867
-37.9926338195800781 -23.8314723968505859 2.05043649673461914
2.77858996391296387 -6.153961181640625 11.6049051284790039
22.7541427612304688 39.6585197448730469 0.0543224252760410309
-44.5883445739746094 -4.6038966178894043 11.5865497589111328
-32.2434234619140625 10.5478143692016602 10.6546430587768555
-5.22907018661499023 -31.0326290130615234 -15.7842416763305664
-50.2436866760253906 -1.33265745639801025 -3.55978894233703613
9.72027873992919922 18.55615234375 -5.86644077301025391
-4.67447853088378906 -11.3366909027099609 10.9575042724609375
30.0795783996582031 26.9557723999023438 -22.7590656280517578
-28.7595996856689453 6.20247220993041992 9.50371837615966797
-38.9135780334472656 -11.252720832824707 -6.74515867233276367
35.1967086791992188 -5.26343917846679688 -8.64619636535644531
-44.826629638671875 12.1592082977294922 -11.6514005661010742
-50.3793106079101562 6.36828994750976562 -0.241638168692588806
-23.1397743225097656 -0.405875742435455322 8.00588130950927734
14.1616096496582031 7.72138166427612305 -16.210113525390625
-42.0439796447753906 -15.8201570510864258 0.994589626789093018
37.6042556762695312 12.000880241394043 15.9390926361083984
34.7240562438964844 13.3841180801391602 22.0406265258789062
-48.5392990112304688 6.98182535171508789 3.92708039283752441
-10.9242172241210938 6.69797658920288086 -6.42654275894165039
-44.936248779296875 17.1046371459960938 -6.28897190093994141
-40.7355804443359375 -8.42639541625976562 -19.6329975128173828
22.6676044464111328 -5.30018329620361328 -14.7139167785644531
19.0822696685791016 7.20233058929443359 -16.0600719451904297
5.96159887313842773 -15.2902021408081055 11.4582700729370117
32.3053741455078125 14.8260259628295898 -5.89536762237548828
-27.5745868682861328 8.99272918701171875 18.1735000610351562
-10.7264986038208008 -27.6264362335205078 6.49077129364013672
-36.7151756286621094 -24.2764015197753906 3.8821713924407959
-32.5167694091796875 29.3994140625 14.9804344177246094
-46.4501495361328125 -7.93574762344360352 -18.4002761840820312
28.6311473846435547 33.71533203125 2.21632957458496094
25.3856143951416016 -24.0326080322265625 -0.590933680534362793
-30.2937526702880859 6.45753288269042969 7.83103132247924805
25.10968017578125 16.4211750030517578 6.51160097122192383
-47.9649200439453125 13.2850475311279297 -3.79565596580505371
-42.7351417541503906 -21.8983669281005859 0.328491330146789551
0.799585461616516113 -10.113743782043457 -11.39324951171875
-4.71837949752807617 -11.0595149993896484 11.9922380447387695
19.2757072448730469 -17.6146945953369141 -12.4059925079345703
-31.0342388153076172 26.1194095611572266 11.4037208557128906
1.44667768478393555 -32.3956756591796875 2.89535260200500488
7.06583166122436523 6.70506429672241211 8.02391338348388672
26.8936080932617188 35.4832916259765625 1.98246049880981445
31.6993198394775391 23.3130245208740234 14.2516975402832031
-26.7553787231445312 2.59817886352539062 17.0043582916259766
-31.1043281555175781 -31.2528743743896484 1.37902486324310303
-45.9640655517578125 5.54820919036865234 15.2969217300415039
42.8295516967773438 -7.33218240737915039 8.01118087768554688
-40.6391487121582031 -7.35592317581176758 0.332769423723220825
47.4740257263183594 -31.9347858428955078 1.35124444961547852
-11.9436006546020508 -15.0057239532470703 -11.5391941070556641
-43.5906639099121094 17.7559375762939453 7.12268447875976562
-25.653106689453125 5.90988016128540039 8.03609275817871094
-23.6759147644042969 5.33785915374755859 -11.0561542510986328
8.58088111877441406 2.98893594741821289 -10.9005317687988281
29.7758522033691406 28.2093887329101562 16.3392086029052734
-2.95724701881408691 -25.6626243591308594 7.1830592155456543
28.8284244537353516 7.93078708648681641 -15.6073627471923828
-36.5294570922851562 18.0056095123291016 5.96361541748046875
-3.21881008148193359 -30.3957500457763672 -15.4618082046508789
-34.2999725341796875 -6.06429529190063477 -20.5337390899658203
-12.818598747253418 -13.7496252059936523 -11.559941291809082
-40.2567634582519531 -2.76213288307189941 -20.7063941955566406
-42.5355911254882812 -13.1007490158081055 -2.15175104141235352
18.2860965728759766 8.16339969635009766 15.0932102203369141
17.4396133422851562 2.39084577560424805 -15.5408754348754883
-34.2457084655761719 -23.4942455291748047 -3.00044536590576172
-20.7592411041259766 14.6844911575317383 -1.00251936912536621
36.36181640625 -8.00141429901123047 9.15800666809082031
12.3905820846557617 -19.19964599609375 -12.6379985809326172
-28.2325344085693359 -21.5326328277587891 7.36261653900146484
-21.7951297760009766 -23.1331920623779297 -9.44678211212158203
-32.5075454711914062 -12.8089008331298828 7.581512451171875
26.4425468444824219 36.9854583740234375 6.14670991897583008
28.5953445434570312 27.5784206390380859 -12.4862060546875
20.808837890625 -8.51593971252441406 14.4238138198852539
-48.8738861083984375 -4.48181390762329102 7.7045745849609375
34.3002700805664062 -9.54769229888916016 3.61202216148376465
25.6158504486083984 -17.1400241851806641 5.75110101699829102
-10.3222055435180664 -9.7194366455078125 -10.844386100769043
1.18763291835784912 -18.3151988983154297 -12.3782825469970703
38.2962074279785156 3.28165006637573242 -2.91421747207641602
-31.7911605834960938 17.9587554931640625 5.70220184326171875
22.2414016723632812 -9.61340522766113281 13.7491703033447266
-28.2917804718017578 -2.14032864570617676 -21.1238746643066406
-12.9803094863891602 -7.0641021728515625 -11.0221328735351562
25.3049697875976562 -13.8034753799438477 10.5902090072631836
-25.4310111999511719 13.4894905090332031 -2.422088623046875
31.7291469573974609 28.2488651275634766 -6.56981229782104492
32.9249420166015625 25.1104621887207031 11.400334358215332
4.81202316284179688 15.5599040985107422 -7.36765861511230469
25.2707462310791016 23.3554611206054688 -0.873429417610168457
17.8268508911132812 5.52207422256469727 -15.4951295852661133
29.7065315246582031 30.7696552276611328 9.2368621826171875
-46.4295501708984375 -8.55352687835693359 -19.7675533294677734
-30.604949951171875 10.3686122894287109 11.8738727569580078
2.47876381874084473 13.697199821472168 -7.01226186752319336
27.1096305847167969 37.0586166381835938 0.220386311411857605
30.6912918090820312 11.1622257232666016 -14.7929534912109375
-35.1442184448242188 7.00016498565673828 18.7878532409667969
40.914825439453125 14.67950439453125 -14.9389934539794922
-20.8403205871582031 -4.40435552597045898 -11.5025167465209961
21.2931251525878906 -12.4439401626586914 -14.1222553253173828
47.6511497497558594 -14.197235107421875 -4.57823276519775391
39.5703582763671875 -23.8094100952148438 -1.66777932643890381
27.1880664825439453 -19.6836681365966797 -2.37122416496276855
44.0602073669433594 -5.02710771560668945 -8.10761165618896484
39.9845695495605469 14.3497333526611328 -14.1176614761352539
-30.3094558715820312 36.9349403381347656 9.59047317504882812
-46.2548408508300781 7.35279035568237305 6.69677877426147461
-24.7830772399902344 -6.81199216842651367 -10.5328922271728516
-18.0374832153320312 -4.79364013671875 12.5391120910644531
-36.0064468383789062 11.2675409317016602 12.0148639678955078
-37.2246055603027344 -24.4327793121337891 1.87489151954650879
-41.0125846862792969 11.8574199676513672 -11.6806659698486328
-24.4195976257324219 -31.2615852355957031 -0.748464703559875488
-42.1257286071777344 17.2844314575195312 7.97841691970825195
31.5835456848144531 15.8016633987426758 -16.8346595764160156
-25.3369407653808594 7.77366876602172852 9.35612201690673828
40.8322296142578125 23.2623195648193359 -3.25039911270141602
