ply
format ascii 1.0
element vertex 788
comment vertices
property float x
property float y
property float z
end_header
-11.3297367095947266 -26.528900146484375 -68.7023696899414062
9.67930316925048828 -43.8638076782226562 174.888397216796875
5.74586248397827148 -67.9725799560546875 -97.0918045043945312
14.0399494171142578 138.58978271484375 -39.2376670837402344
7.94411277770996094 159.826751708984375 -104.607536315917969
-8.71456241607666016 74.2083969116210938 11.5669746398925781
-20.3352546691894531 143.321945190429688 129.091354370117188
-3.05945587158203125 -3.34007048606872559 63.2223777770996094
4.00824689865112305 -183.871170043945312 -20.9041614532470703
-2.96121025085449219 -90.3917236328125 -66.2861328125
12.3710508346557617 21.4241619110107422 -188.79376220703125
10.2572174072265625 135.988876342773438 -14.7069501876831055
-0.218478396534919739 -32.0234413146972656 -97.92669677734375
-28.2767086029052734 -15.51922607421875 -42.638580322265625
-24.4324550628662109 -189.20166015625 -28.7582855224609375
14.1701774597167969 133.583770751953125 -109.868324279785156
12.7846765518188477 -147.28790283203125 18.2174072265625
-1.07408857345581055 106.499420166015625 31.0837593078613281
-4.527496337890625 -36.3310890197753906 -106.426338195800781
-9.54159641265869141 -44.469146728515625 186.98883056640625
13.428532600402832 107.444747924804688 110.672142028808594
13.3024044036865234 -93.267364501953125 -117.045448303222656
7.74403142929077148 -118.855621337890625 148.54864501953125
-26.5949745178222656 173.504852294921875 -78.503692626953125
11.5651826858520508 189.727157592773438 -32.762603759765625
13.1702966690063477 -121.255905151367188 22.5770149230957031
13.9090251922607422 -2.78004670143127441 -121.345695495605469
13.1193571090698242 -125.777946472167969 -46.51654052734375
-10.9268550872802734 171.819625854492188 -78.0552825927734375
13.9377689361572266 -17.9382095336914062 -106.509201049804688
8.13517475128173828 101.242080688476562 -110.676841735839844
-3.13099312782287598 -91.528778076171875 -46.3794403076171875
8.92718124389648438 -78.0121383666992188 159.000244140625
-20.7352504730224609 35.5544853210449219 190.619644165039062
1.15146279335021973 37.4232559204101562 -105.258392333984375
13.9594497680664062 26.0001239776611328 -132.672348022460938
6.81482791900634766 -115.165306091308594 47.1206092834472656
3.48250365257263184 56.58160400390625 184.134048461914062
10.2321653366088867 130.2098388671875 -13.0883464813232422
-28.1731433868408203 -53.0880126953125 -12.082423210144043
13.5664167404174805 -74.1690521240234375 -92.8676223754882812
-8.66284751892089844 31.9910755157470703 63.6762161254882812
11.7306137084960938 -105.74151611328125 162.583419799804688
-28.5209331512451172 -22.569122314453125 -27.6036472320556641
12.3919897079467773 -109.689132690429688 124.616226196289062
12.4093179702758789 -161.08404541015625 65.9446868896484375
-13.2207345962524414 -99.6966018676757812 164.326156616210938
-3.48393797874450684 -55.0628547668457031 26.5912723541259766
-8.07222175598144531 63.1729698181152344 48.6141281127929688
14.0944175720214844 153.009201049804688 -108.721458435058594
-16.20428466796875 185.0975341796875 -51.8335113525390625
9.48162841796875 -46.9174346923828125 163.022811889648438
13.5199403762817383 -81.7723770141601562 -85.4860610961914062
-4.22957897186279297 -43.7186126708984375 -103.43182373046875
13.3462429046630859 154.09625244140625 82.4279556274414062
13.5035333633422852 66.2605667114257812 119.849105834960938
11.0227975845336914 63.6075286865234375 136.051910400390625
-10.2674064636230469 18.0358390808105469 63.9487380981445312
12.29779052734375 -7.05034780502319336 191.315994262695312
-32.0749282836914062 18.4024143218994141 -185.628555297851562
12.52496337890625 -153.00042724609375 65.7917556762695312
-2.48852300643920898 72.066192626953125 -52.2166748046875
-3.1282346248626709 -55.0083961486816406 -40.5592842102050781
-27.2649173736572266 -3.89927840232849121 -23.34405517578125
-0.904685020446777344 109.153846740722656 -29.4272975921630859
-27.7612514495849609 92.8857421875 -167.401702880859375
14.0945549011230469 89.713897705078125 -140.147750854492188
-8.92359066009521484 51.5421562194824219 -100.195602416992188
4.74259710311889648 -103.831291198730469 -99.6204757690429688
-7.66948652267456055 67.9855880737304688 -173.260772705078125
-14.0020875930786133 40.3198661804199219 -181.048126220703125
13.1126995086669922 -100.064041137695312 80.8138809204101562
-4.75533008575439453 176.2642822265625 73.6216659545898438
12.7158679962158203 -55.6388206481933594 150.95526123046875
-2.68070769309997559 48.1852226257324219 -27.3935394287109375
1.64748072624206543 -2.08839535713195801 -186.160812377929688
-0.928505361080169678 163.196807861328125 99.933502197265625
-13.9423513412475586 34.2915534973144531 190.164810180664062
7.34506320953369141 41.1155776977539062 -116.291297912597656
13.5202550888061523 6.24447011947631836 125.881980895996094
-21.8489990234375 -107.036392211914062 -156.531524658203125
0.159508049488067627 0.523652017116546631 115.393699645996094
-2.57537031173706055 81.4475250244140625 52.5450668334960938
-2.86720705032348633 52.6204299926757812 85.0710220336914062
5.77859592437744141 -156.514633178710938 42.8609580993652344
11.5666112899780273 78.628204345703125 171.132904052734375
-3.03552818298339844 -6.28515052795410156 73.112091064453125
12.9036769866943359 -133.97308349609375 31.5692138671875
14.1291103363037109 71.1600799560546875 -164.187942504882812
5.34697628021240234 -41.9486808776855469 -136.872177124023438
12.8130331039428711 -38.4308052062988281 155.932464599609375
-2.91880464553833008 40.2312393188476562 58.5829124450683594
13.6486415863037109 124.885337829589844 72.2874526977539062
-12.2308168411254883 -153.082550048828125 -112.400840759277344
-3.3558812141418457 12.8520679473876953 -26.4525680541992188
12.4164628982543945 -170.093978881835938 51.969268798828125
10.4990062713623047 182.077957153320312 -34.4502754211425781
13.8488187789916992 0.585430324077606201 -149.49481201171875
-9.89681625366210938 53.2363739013671875 -70.7368927001953125
-24.7765083312988281 -24.0035972595214844 -50.0899810791015625
13.6722021102905273 185.320877075195312 -38.6913909912109375
-11.8493080139160156 -87.758941650390625 -22.3565559387207031
13.2596549987792969 -76.8218994140625 99.1046142578125
13.2852449417114258 51.4455833435058594 139.481964111328125
-20.3792953491210938 177.284393310546875 72.556488037109375
-3.37885022163391113 -107.583709716796875 37.1276092529296875
13.1922931671142578 67.7241363525390625 146.885940551757812
-19.7154197692871094 28.5978183746337891 193.669952392578125
12.7253303527832031 76.6795654296875 177.252792358398438
11.5820217132568359 -48.5687141418457031 -91.8466339111328125
-3.26261591911315918 -25.9265193939208984 49.0663909912109375
-4.92429494857788086 57.8473930358886719 -176.909881591796875
5.09260702133178711 -66.0371170043945312 -177.147628784179688
14.1933107376098633 98.319061279296875 -149.12945556640625
-7.7061004638671875 -5.20084667205810547 114.019065856933594
-1.80250322818756104 56.4252967834472656 -85.7861862182617188
13.3000421524047852 -110.96343994140625 -13.9109210968017578
4.51778221130371094 -61.4100456237792969 -156.315750122070312
-32.8067779541015625 -169.815780639648438 -80.4474029541015625
-20.0869960784912109 -150.121536254882812 -116.218574523925781
13.5041437149047852 76.6391067504882812 118.575767517089844
13.9058656692504883 14.0570077896118164 -161.428421020507812
-3.63965106010437012 172.723464965820312 91.175048828125
-7.90083074569702148 27.7041549682617188 109.061454772949219
13.7650146484375 102.094467163085938 80.53741455078125
14.0933313369750977 80.2903900146484375 -117.648277282714844
-11.5029935836791992 -91.78509521484375 1.63403737545013428
10.3602123260498047 62.5420646667480469 94.3872451782226562
8.37952613830566406 85.3779830932617188 -90.0520858764648438
-2.3656313419342041 66.8296966552734375 -54.7916793823242188
4.18531608581542969 -132.158309936523438 -90.07208251953125
13.760685920715332 184.018890380859375 -15.0271635055541992
-9.06553363800048828 -27.3699169158935547 94.2284469604492188
9.07015514373779297 -53.2021217346191406 135.212631225585938
-27.0405387878417969 -33.3110237121582031 47.1671676635742188
12.5871181488037109 10.1710309982299805 189.402557373046875
8.28505229949951172 -109.932235717773438 153.202621459960938
4.96051836013793945 176.16583251953125 -74.6100540161132812
-16.8544635772705078 -58.1252708435058594 21.8293075561523438
14.015538215637207 56.5421791076660156 -143.584121704101562
9.48890209197998047 -35.2374076843261719 143.177398681640625
13.1205301284790039 -123.383720397949219 -77.6475906372070312
7.8247675895690918 79.2862396240234375 -116.307266235351562
12.5481395721435547 -181.3271484375 -44.9556808471679688
-11.2107810974121094 -93.5090255737304688 22.0396728515625
-24.3560543060302734 140.532379150390625 -124.56671142578125
6.553558349609375 -192.310333251953125 3.98221325874328613
5.6339268684387207 60.625762939453125 190.739288330078125
-3.43613147735595703 -4.19084548950195312 42.2883033752441406
-1.02313971519470215 188.044174194335938 -37.7587394714355469
13.1431903839111328 0.873328983783721924 145.85699462890625
6.03456640243530273 93.4812240600585938 168.044082641601562
13.3802690505981445 -99.7486572265625 -150.521759033203125
10.7703981399536133 37.2128334045410156 150.454559326171875
14.09130859375 75.9999542236328125 -154.69873046875
11.6692667007446289 64.821136474609375 -81.0635528564453125
13.5701007843017578 -88.7228622436523438 -68.320068359375
3.6732635498046875 -144.8702392578125 -96.2163467407226562
7.64698553085327148 50.6776046752929688 -105.735137939453125
4.67815732955932617 -28.9089450836181641 -175.109878540039062
12.9951372146606445 -139.35540771484375 -51.7690315246582031
1.12343108654022217 113.437149047851562 10.7228889465332031
0.32653653621673584 -112.714523315429688 -7.67980575561523438
6.94861888885498047 -179.688735961914062 75.7517166137695312
9.32211208343505859 -40.5302810668945312 135.842315673828125
13.9809150695800781 170.977310180664062 -50.9945526123046875
-11.2992038726806641 -110.613059997558594 20.9631576538085938
12.8172092437744141 -164.498046875 -83.2984771728515625
-20.0106372833251953 142.995437622070312 -127.054710388183594
4.98943376541137695 -65.2588882446289062 -129.599472045898438
-17.4921379089355469 -102.041259765625 -155.75421142578125
-2.69791364669799805 76.7426528930664062 18.0283050537109375
-20.187225341796875 59.1917991638183594 -4.20421075820922852
13.9733371734619141 131.295257568359375 17.5487327575683594
10.5562419891357422 177.596450805664062 -25.5712127685546875
13.968287467956543 152.866012573242188 -33.1249427795410156
12.8542156219482422 -149.65673828125 -33.1928482055664062
-3.32218551635742188 15.4394712448120117 15.0841560363769531
8.06048107147216797 90.0543441772460938 -109.653640747070312
-2.71723818778991699 35.2970199584960938 -33.9899978637695312
10.4515905380249023 148.379562377929688 -7.61651420593261719
-8.30319499969482422 104.083999633789062 -21.8323326110839844
13.2214956283569336 110.239051818847656 132.430587768554688
-11.5035104751586914 -106.285057067871094 18.2457542419433594
13.2262716293334961 95.311553955078125 138.252716064453125
12.5502595901489258 -157.552276611328125 49.8253631591796875
-6.54932165145874023 1.68073666095733643 -190.86688232421875
-2.15541934967041016 103.929237365722656 34.4504966735839844
8.85084247589111328 -63.6967926025390625 133.318466186523438
5.95518875122070312 -106.087066650390625 160.337265014648438
-11.9625663757324219 -59.4053115844726562 -74.5699691772460938
9.08948230743408203 173.259109497070312 -72.93218994140625
13.1263923645019531 111.013236999511719 152.391860961914062
-1.69604301452636719 177.398269653320312 -72.2323760986328125
8.41192531585693359 -96.663421630859375 144.240264892578125
3.90916204452514648 -8.25541019439697266 4.88234424591064453
-8.93204116821289062 154.628921508789062 121.052314758300781
12.0978260040283203 -96.1014022827148438 155.762405395507812
-17.3727664947509766 75.831390380859375 177.975509643554688
5.77271318435668945 13.7258481979370117 -166.548446655273438
-11.6224822998046875 49.3713455200195312 194.328536987304688
-17.7390937805175781 -189.077545166015625 0.668335974216461182
13.7691783905029297 101.69830322265625 78.4821853637695312
11.3385334014892578 67.208404541015625 160.016586303710938
-10.3715677261352539 -111.205329895019531 23.2809696197509766
-11.2651882171630859 147.094482421875 123.848007202148438
4.85391139984130859 -144.333236694335938 -40.4226150512695312
8.41984081268310547 -100.035293579101562 172.594619750976562
-24.7076206207275391 -161.74298095703125 -93.3423843383789062
-8.22763252258300781 101.321571350097656 -9.65691184997558594
10.9059743881225586 96.4202041625976562 68.6006088256835938
13.4280986785888672 24.3049068450927734 113.531608581542969
12.6330032348632812 -177.50994873046875 -52.3107070922851562
13.8660764694213867 0.49020799994468689 -158.598114013671875
13.2704639434814453 -117.961868286132812 -2.6164698600769043
0.363609254360198975 32.2254066467285156 -187.997634887695312
11.7098217010498047 147.125564575195312 99.6942367553710938
-2.79070115089416504 -28.6652965545654297 -184.060104370117188
-9.88558483123779297 -139.515777587890625 132.1944580078125
8.8523712158203125 137.997055053710938 -105.712974548339844
-25.7299556732177734 -127.218246459960938 -135.820938110351562
-26.9572410583496094 14.2620258331298828 -190.383102416992188
-11.1406888961791992 -89.5130462646484375 23.5611953735351562
10.414794921875 26.5392303466796875 125.253128051757812
9.13549232482910156 151.593353271484375 125.924240112304688
-10.3485326766967773 144.625076293945312 -124.695182800292969
4.06714868545532227 -177.728347778320312 -27.4580707550048828
-11.0065679550170898 -1.39565300941467285 -82.035919189453125
5.05522584915161133 -80.326690673828125 -112.894096374511719
13.3277072906494141 -45.2621383666992188 -95.2027969360351562
-26.9112071990966797 2.52662467956542969 -9.17772197723388672
-0.454683542251586914 -44.0048408508300781 194.966644287109375
-12.8930549621582031 -58.6119728088378906 182.989181518554688
13.328181266784668 -38.5144081115722656 121.870048522949219
-17.0155048370361328 -96.1146926879882812 -163.99774169921875
7.48244524002075195 -104.047210693359375 82.25799560546875
13.4225530624389648 -87.7222671508789062 -89.9511795043945312
11.0006198883056641 24.9058818817138672 110.092765808105469
13.1244993209838867 -120.631736755371094 -99.473358154296875
-3.05872106552124023 -70.7922744750976562 -42.210357666015625
12.9224386215209961 28.1550064086914062 166.949264526367188
-3.08813118934631348 -62.7307968139648438 -60.7667617797851562
13.6740512847900391 -46.5770454406738281 -167.503738403320312
13.4709949493408203 136.064071655273438 87.0422592163085938
-3.96263265609741211 -184.927734375 -47.4417877197265625
-0.386330544948577881 -51.7991065979003906 193.07550048828125
-1.98950374126434326 121.730705261230469 156.758377075195312
8.98911380767822266 -89.2305755615234375 65.7260589599609375
7.60749292373657227 -113.405838012695312 111.497856140136719
-0.867458939552307129 -10.9795207977294922 -186.118133544921875
11.6983528137207031 130.980865478515625 131.733291625976562
6.28240251541137695 -132.988876342773438 39.7247200012207031
-28.8665084838867188 -54.6786003112792969 -37.1353302001953125
-1.116912841796875 183.480178833007812 -45.7302017211914062
-4.25505447387695312 97.30596923828125 -164.493515014648438
-2.2111666202545166 56.1713752746582031 -80.4756317138671875
-7.61798000335693359 -187.6148681640625 -23.4242649078369141
-3.03351497650146484 1.93181872367858887 80.65972900390625
13.7484493255615234 148.138900756835938 34.043853759765625
12.5072612762451172 -177.37823486328125 4.47336578369140625
13.1593389511108398 -40.5229530334472656 130.136764526367188
13.5006008148193359 -74.1324539184570312 -104.08013916015625
-11.9470491409301758 -61.2819328308105469 -70.19256591796875
-12.5213813781738281 -9.69798374176025391 -190.807479858398438
13.0300655364990234 -120.698173522949219 53.6508941650390625
13.9611072540283203 29.8015613555908203 -167.876296997070312
9.84150028228759766 166.02618408203125 -71.0147247314453125
13.4066009521484375 -15.7025928497314453 127.220787048339844
13.8107814788818359 -51.7591896057128906 -96.9524765014648438
-26.4979801177978516 -39.6420021057128906 43.1436347961425781
-2.92069649696350098 38.5124130249023438 59.139892578125
-2.93657183647155762 21.3601474761962891 69.4985427856445312
-2.98994684219360352 32.2276954650878906 89.7998275756835938
-3.10709643363952637 -70.737548828125 -12.661686897277832
12.8488636016845703 -140.14923095703125 24.1975536346435547
3.5272986888885498 -110.086929321289062 -148.802947998046875
13.3311805725097656 -93.3110427856445312 -95.9290771484375
-20.9193630218505859 171.878799438476562 -78.4594268798828125
-22.3942775726318359 -85.2872085571289062 177.827163696289062
-24.7616806030273438 -179.977981567382812 -63.1814537048339844
12.9042768478393555 -38.8317527770996094 148.522262573242188
13.7237415313720703 130.141006469726562 56.1976318359375
-2.94675135612487793 23.9206733703613281 198.893905639648438
-2.98934459686279297 -70.3551025390625 -35.9632797241210938
5.38751840591430664 -68.2413330078125 -109.863288879394531
4.69506740570068359 21.8747711181640625 -189.274993896484375
10.9568099975585938 150.190231323242188 28.7718124389648438
-3.18322515487670898 -62.0356903076171875 -7.30107688903808594
14.1086025238037109 125.26983642578125 -2.08936524391174316
-8.97994327545166016 -0.645172059535980225 76.6786575317382812
-1.9163128137588501 182.941268920898438 53.6434593200683594
-8.62846660614013672 75.4380416870117188 185.189804077148438
4.81804180145263672 34.6393241882324219 -182.959869384765625
-10.8537044525146484 175.082992553710938 85.1378936767578125
5.31256628036499023 -176.769439697265625 43.2560081481933594
9.881805419921875 162.517715454101562 -51.9940605163574219
-5.01019191741943359 -94.1444549560546875 -60.9190635681152344
10.2700910568237305 -6.31176233291625977 169.599334716796875
-18.1660842895507812 -58.9441375732421875 -44.2370452880859375
-18.5697460174560547 -8.08010768890380859 -190.908676147460938
14.0364866256713867 134.787979125976562 -18.2005786895751953
-9.18411540985107422 85.4288787841796875 -64.614013671875
-9.86819648742675781 56.0112838745117188 -75.732147216796875
-7.78678464889526367 58.0947036743164062 81.4515380859375
-23.0688610076904297 -109.034858703613281 158.855239868164062
3.65311431884765625 -98.0368423461914062 -149.40386962890625
5.4055943489074707 -94.0523834228515625 57.74652099609375
11.0010013580322266 182.248916625976562 18.6943473815917969
-3.17790341377258301 -85.4320068359375 -22.8924121856689453
6.44277811050415039 -17.4149112701416016 -115.366401672363281
6.10681676864624023 8.77289009094238281 -147.149276733398438
-15.1388454437255859 189.674575805664062 19.5370616912841797
-3.44485902786254883 -11.3490428924560547 -30.0715675354003906
-2.47803163528442383 31.2392597198486328 -83.16571044921875
13.4962968826293945 -55.9519424438476562 -133.334304809570312
13.6048965454101562 -67.1611404418945312 -85.3981857299804688
-3.08485627174377441 21.1362342834472656 -16.536163330078125
-27.5192317962646484 -32.8935661315917969 34.6790046691894531
-13.1668539047241211 149.963394165039062 -118.619834899902344
3.68033242225646973 -113.048385620117188 -135.13568115234375
-2.82247638702392578 12.5198698043823242 -51.4184379577636719
10.2909307479858398 15.7640190124511719 132.993133544921875
-1.22135686874389648 29.4832592010498047 -108.695297241210938
-15.1993265151977539 58.0434646606445312 24.3751049041748047
12.7012882232666016 -65.4128875732421875 145.206893920898438
-3.27405166625976562 -44.5948905944824219 -26.3952083587646484
-19.3165340423583984 113.856033325195312 -148.1622314453125
-29.4246158599853516 -171.894027709960938 -81.776702880859375
11.1809597015380859 65.4109268188476562 146.0380859375
13.6623859405517578 170.054550170898438 23.9000949859619141
13.6005039215087891 -60.8547248840332031 -107.244216918945312
7.943206787109375 -118.409141540527344 137.938644409179688
-27.0568275451660156 0.426557064056396484 -17.2981853485107422
2.96454548835754395 58.7897109985351562 -94.941741943359375
6.51402664184570312 -158.670639038085938 97.8135147094726562
-2.27503848075866699 54.5343475341796875 -41.1267509460449219
11.2166967391967773 48.5448493957519531 169.845565795898438
-18.6103954315185547 82.5410995483398438 174.995590209960938
12.9649677276611328 -7.06551885604858398 157.793899536132812
13.8613481521606445 -26.2910804748535156 -110.893661499023438
12.4956111907958984 -169.668045043945312 29.0948467254638672
10.3291454315185547 174.01953125 -23.9675655364990234
2.67211151123046875 108.964508056640625 -151.80706787109375
-23.3274383544921875 131.060211181640625 -133.981964111328125
12.9137630462646484 -146.643569946289062 -46.6179161071777344
-7.59679079055786133 52.9401817321777344 99.9131927490234375
-13.3156232833862305 -178.520736694335938 -58.8912010192871094
11.3868522644042969 162.178756713867188 61.0231742858886719
-19.0341815948486328 60.078338623046875 5.14669990539550781
-0.536434710025787354 -181.616744995117188 -51.4091224670410156
-3.6789548397064209 -185.984481811523438 -33.3131904602050781
1.55281960964202881 -127.991165161132812 151.989669799804688
1.13231337070465088 -2.4956059455871582 11.6086788177490234
5.21514129638671875 -94.6554183959960938 -85.7647476196289062
-8.89831447601318359 183.969802856445312 -54.7038116455078125
2.10427021980285645 8.95442581176757812 -101.940048217773438
-3.45487546920776367 -45.2461433410644531 0.757700979709625244
14.1542749404907227 85.50732421875 -157.5634765625
14.0216560363769531 28.1816844940185547 -119.63275146484375
-2.45935964584350586 17.1884517669677734 -98.4433364868164062
-4.5030364990234375 181.45635986328125 68.5560455322265625
14.3137931823730469 139.930572509765625 -119.196090698242188
-2.29100561141967773 101.479957580566406 1.34449601173400879
-8.1216278076171875 44.871246337890625 78.7804946899414062
13.6062421798706055 95.8668670654296875 100.888717651367188
-7.85277462005615234 187.237228393554688 -42.5175514221191406
-27.1948165893554688 -9.61470127105712891 -14.8525094985961914
-2.16093897819519043 61.765655517578125 -78.211273193359375
13.3159427642822266 90.1966400146484375 132.27294921875
4.51712369918823242 -178.290802001953125 6.69718265533447266
-4.87089824676513672 -94.9246826171875 175.495941162109375
-20.9789848327636719 46.5313262939453125 -34.4997978210449219
-3.2807002067565918 -26.9740257263183594 -44.3056869506835938
9.21398258209228516 155.81988525390625 -86.93310546875
-10.2162113189697266 42.4678001403808594 -86.6415786743164062
10.8272809982299805 175.98333740234375 10.7140817642211914
-13.6515665054321289 188.663772583007812 -37.1626815795898438
3.87833476066589355 -65.1112136840820312 -173.597686767578125
-3.13044333457946777 -47.6774139404296875 -51.7286529541015625
13.4322090148925781 -100.397483825683594 -58.6520614624023438
-3.3301081657409668 -43.9962272644042969 91.0900192260742188
-17.7174797058105469 187.158615112304688 -44.41900634765625
7.38348197937011719 59.0591621398925781 -125.653556823730469
13.3238067626953125 -115.509605407714844 -12.1968965530395508
13.1423988342285156 74.8731002807617188 152.32720947265625
-27.1720943450927734 -21.6462364196777344 45.6817207336425781
-3.42390727996826172 -10.6446285247802734 -12.1664161682128906
-3.01982474327087402 23.7095718383789062 25.5424442291259766
10.9600362777709961 103.829437255859375 70.8307037353515625
-2.81219220161437988 -8.90753936767578125 -87.1302261352539062
-3.28004741668701172 -119.630325317382812 150.462860107421875
-2.91937088966369629 39.9582786560058594 66.7031097412109375
-17.2114849090576172 25.0033702850341797 57.8103523254394531
-2.78802108764648438 -7.59991741180419922 -89.9172515869140625
-27.0595684051513672 41.6568527221679688 -19.2430095672607422
13.9917984008789062 37.1271438598632812 -157.446273803710938
9.75671863555908203 -30.5661869049072266 159.811782836914062
13.5111255645751953 105.350814819335938 104.022514343261719
-14.0579614639282227 47.7349510192871094 187.331832885742188
13.9404535293579102 27.7330455780029297 -147.2584228515625
-27.2826671600341797 -69.4531097412109375 -26.5937652587890625
13.5535106658935547 111.092353820800781 93.4987564086914062
14.0326519012451172 29.2400188446044922 -119.397201538085938
11.4817047119140625 108.657707214355469 118.097129821777344
-12.4459066390991211 -171.675460815429688 -82.1647796630859375
14.1817541122436523 113.111778259277344 -131.573776245117188
9.08947849273681641 109.283485412597656 -68.0934982299804688
8.83139610290527344 104.203376770019531 -78.2663650512695312
-9.29532337188720703 71.5849761962890625 -35.0822105407714844
-3.29880523681640625 27.7931976318359375 -16.7574443817138672
-3.39648580551147461 -32.4308738708496094 -29.2514247894287109
14.1007003784179688 109.155509948730469 -100.100189208984375
-0.856003344058990479 23.0320072174072266 -189.373886108398438
-2.25457167625427246 97.3897628784179688 -0.620417594909667969
6.76964473724365234 -143.318954467773438 88.28668212890625
0.556495368480682373 -60.0279006958007812 190.71966552734375
8.88967800140380859 -52.9807853698730469 109.980850219726562
13.1049413681030273 128.325820922851562 131.809112548828125
-2.35669255256652832 80.4112701416015625 -40.8579597473144531
11.0207462310791016 88.894012451171875 95.3864212036132812
-3.4702155590057373 -4.08527994155883789 -22.8020267486572266
4.17275381088256836 -120.763900756835938 -145.298431396484375
10.4174718856811523 8.85887336730957031 -190.009933471679688
13.4728422164916992 -78.740447998046875 -96.3338470458984375
7.39265584945678711 38.515045166015625 -110.855499267578125
-8.58444881439208984 36.21295166015625 64.6242828369140625
12.9339170455932617 -134.87786865234375 24.4828853607177734
-27.227081298828125 53.3063507080078125 -177.422821044921875
11.1058988571166992 -47.2431869506835938 192.93389892578125
-3.04051828384399414 18.219696044921875 90.3205337524414062
4.19376087188720703 -135.83740234375 -86.1502151489257812
-10.5373058319091797 22.9391536712646484 -81.7778778076171875
-3.14661741256713867 188.485626220703125 42.7879142761230469
9.52244377136230469 121.136032104492188 -50.5706520080566406
13.2403688430786133 114.6676025390625 128.406097412109375
-7.12839078903198242 -145.668289184570312 125.085289001464844
-9.76270294189453125 136.203369140625 -128.52215576171875
9.90654182434082031 158.736190795898438 106.27655029296875
8.52243518829345703 112.907157897949219 -97.9279708862304688
14.0820531845092773 87.0111618041992188 -126.548690795898438
13.4946165084838867 176.327224731445312 44.4509010314941406
14.1817035675048828 66.3079757690429688 -101.745140075683594
-12.0681571960449219 -69.4610977172851562 -61.8548812866210938
9.06399250030517578 -60.3015785217285156 147.545135498046875
4.92566347122192383 -145.71978759765625 -37.1197319030761719
-3.1706383228302002 -33.8842239379882812 91.9297332763671875
3.70465469360351562 -160.860107421875 -77.8523712158203125
-2.8416743278503418 -16.0170917510986328 -96.721466064453125
-10.972935676574707 7.26353931427001953 -109.175529479980469
9.03677177429199219 -48.6454124450683594 120.557106018066406
-5.46930646896362305 -185.590927124023438 52.3822975158691406
14.3169727325439453 112.030685424804688 -147.356765747070312
-4.88963890075683594 -89.5830001831054688 178.357330322265625
9.84039974212646484 -13.1404485702514648 138.320602416992188
-3.67018342018127441 -180.23406982421875 -55.0474739074707031
-2.29065656661987305 94.6909332275390625 -15.2272024154663086
-33.4091224670410156 -107.765663146972656 -154.700973510742188
-23.7393264770507812 31.5828609466552734 -182.39520263671875
13.3441629409790039 -112.1090087890625 -13.0611648559570312
12.7954654693603516 -155.398910522460938 -29.8179664611816406
-7.44552135467529297 96.7310409545898438 54.3475265502929688
-3.07556843757629395 20.5472564697265625 54.658447265625
-16.4750404357910156 180.320144653320312 72.2520751953125
5.78699684143066406 28.996124267578125 -174.145431518554688
-22.9699306488037109 183.8297119140625 -57.1020393371582031
11.2370996475219727 46.27081298828125 172.370162963867188
-10.152552604675293 41.711181640625 -68.19073486328125
12.3588428497314453 -160.342681884765625 76.8694610595703125
-3.20711016654968262 -91.3403701782226562 -65.0715789794921875
-3.19249606132507324 -40.1969375610351562 64.8226699829101562
-8.34597396850585938 7.49041366577148438 106.102325439453125
13.8977479934692383 8.47495651245117188 -135.090179443359375
-3.13895487785339355 -91.8951187133789062 52.9509086608886719
8.21815204620361328 112.824012756347656 -111.343185424804688
-2.99627447128295898 17.6598377227783203 87.5044937133789062
13.0671205520629883 -32.5290679931640625 140.261795043945312
5.42229032516479492 -138.860092163085938 132.340362548828125
-15.3941068649291992 11.3891324996948242 199.869613647460938
-21.5771141052246094 -27.8543510437011719 196.415054321289062
12.6677761077880859 -24.7958965301513672 -100.191879272460938
13.1682071685791016 106.370262145996094 -22.3360824584960938
-7.88505125045776367 19.9975109100341797 112.332916259765625
-26.3781261444091797 -174.851608276367188 80.7165069580078125
13.7293052673339844 158.370529174804688 27.440582275390625
-3.13080906867980957 16.5788745880126953 17.5996818542480469
-27.1460819244384766 -9.88070869445800781 -11.3909006118774414
13.5128030776977539 78.6305007934570312 116.523246765136719
-12.0212974548339844 -55.4869461059570312 -90.193603515625
12.8873567581176758 44.9652442932128906 171.762481689453125
6.2114410400390625 -137.822662353515625 40.8958396911621094
10.374934196472168 132.478622436523438 -4.4167027473449707
11.9738016128540039 -41.0019760131835938 190.531036376953125
-22.6277408599853516 167.77880859375 -86.4627914428710938
7.81274271011352539 85.698516845703125 -120.832572937011719
10.0618858337402344 -85.2574844360351562 71.2024688720703125
5.56100893020629883 -78.1727142333984375 -93.6380386352539062
-10.9326410293579102 -93.9440841674804688 42.6404495239257812
-3.53269863128662109 -48.1534614562988281 11.7785425186157227
4.47705602645874023 40.9058647155761719 -186.104354858398438
-15.8534116744995117 -188.321197509765625 -33.02996826171875
-3.15970444679260254 -35.1569404602050781 -51.7288780212402344
13.8894891738891602 149.4703369140625 -3.33035516738891602
13.2505254745483398 -116.046157836914062 25.0972213745117188
14.0439643859863281 73.991851806640625 -141.243743896484375
13.5140485763549805 -67.5441360473632812 -158.570632934570312
-26.4426174163818359 -118.126823425292969 -144.068557739257812
5.14542102813720703 -21.6103572845458984 -165.083816528320312
11.3805904388427734 141.47564697265625 66.9721832275390625
-28.4885616302490234 86.0973739624023438 -170.976791381835938
-7.39605474472045898 80.552734375 72.1920623779296875
10.7080583572387695 45.9474525451660156 131.13671875
1.14942479133605957 -26.4072818756103516 112.059547424316406
-28.9589099884033203 -57.3705558776855469 -38.8787002563476562
13.7952184677124023 104.564834594726562 74.9870452880859375
10.1891164779663086 10.5797185897827148 129.979415893554688
7.53890180587768555 84.0323028564453125 -137.8701171875
10.1131076812744141 -21.1159629821777344 178.546707153320312
14.2535219192504883 74.2482528686523438 -89.1034469604492188
-6.78208160400390625 -181.642288208007812 58.2490463256835938
-3.19444036483764648 -9.22413063049316406 10.3789825439453125
14.1879043579101562 110.388389587402344 -138.191940307617188
12.7002401351928711 -110.350868225097656 101.426467895507812
-27.2545452117919922 -27.1466541290283203 -3.35632848739624023
8.28922271728515625 106.181167602539062 -158.964508056640625
5.9077458381652832 172.91241455078125 -81.48809814453125
-2.45228147506713867 138.987594604492188 140.552688598632812
-9.36841773986816406 -34.8142013549804688 82.5211410522460938
-10.0018424987792969 190.149383544921875 8.13637638092041016
-22.2621746063232422 189.889007568359375 31.5668544769287109
-1.01826071739196777 -76.2121734619140625 -81.9925079345703125
-9.32057952880859375 -28.0747051239013672 82.2005844116210938
-2.39405703544616699 97.6649017333984375 31.5532817840576172
-3.38386988639831543 8.555511474609375 17.5778923034667969
-17.1669979095458984 29.4074420928955078 -51.5829010009765625
3.99516773223876953 -141.120635986328125 -87.8984909057617188
-3.1735837459564209 48.2137298583984375 31.5910854339599609
-7.39779949188232422 5.06861495971679688 111.524612426757812
-2.4218294620513916 65.754852294921875 -40.6224861145019531
-20.1430912017822266 -30.6890983581542969 -188.6514892578125
10.1387615203857422 133.624496459960938 -20.2738533020019531
-3.08498644828796387 0.993698656558990479 -43.5230293273925781
-3.19020557403564453 35.5355110168457031 3.67663192749023438
-3.28260445594787598 32.5821495056152344 7.00030803680419922
-3.49520468711853027 9.48215866088867188 -17.7522335052490234
14.1449699401855469 54.3913307189941406 -107.07550048828125
-2.2548370361328125 100.296669006347656 -0.899523675441741943
-24.7055339813232422 -26.3644790649414062 -183.831588745117188
-29.8740520477294922 71.3874130249023438 -172.195632934570312
13.2990493774414062 -97.0612564086914062 -132.273910522460938
-7.09172391891479492 106.494918823242188 39.9979476928710938
-11.0081090927124023 164.229339599609375 105.188362121582031
13.1612138748168945 -115.422393798828125 -103.299575805664062
-2.27126955986022949 100.486160278320312 4.80983304977416992
-18.0307865142822266 125.749275207519531 153.41680908203125
7.23304367065429688 49.677215576171875 -127.457229614257812
13.3822441101074219 -78.0267105102539062 -125.753341674804688
-30.3317203521728516 -37.1999893188476562 -187.9881591796875
13.412261962890625 -74.2029342651367188 -129.853439331054688
-3.20150470733642578 32.61212158203125 -10.8422050476074219
-26.7267704010009766 -182.103286743164062 -46.6530075073242188
13.9538345336914062 21.5735454559326172 -177.514755249023438
4.30476903915405273 -52.1165237426757812 -176.350128173828125
-11.171473503112793 -5.38835000991821289 -97.61236572265625
12.4345569610595703 -156.138259887695312 72.8523483276367188
-3.05639290809631348 4.41632080078125 64.0447235107421875
-3.10202622413635254 -62.1813735961914062 -18.5899124145507812
11.0928640365600586 114.384124755859375 71.2578659057617188
-8.27027797698974609 100.998809814453125 -12.7157278060913086
5.42565250396728516 -138.85418701171875 -16.8136043548583984
-9.75642776489257812 37.6980094909667969 -187.003189086914062
-1.90153169631958008 46.4037246704101562 187.169387817382812
-29.6067886352539062 61.6684951782226562 -175.192337036132812
-7.62613105773925781 72.1236419677734375 74.4109649658203125
-5.86736392974853516 115.775764465332031 -151.76617431640625
-1.32752609252929688 23.9863853454589844 -99.9725723266601562
10.9755001068115234 116.594985961914062 59.6290321350097656
-2.47134065628051758 38.5239830017089844 -60.6768417358398438
11.7108402252197266 98.1075210571289062 159.905288696289062
5.6967620849609375 -66.8540267944335938 -91.4032516479492188
-14.6933002471923828 152.063034057617188 -116.119163513183594
13.1821832656860352 143.544906616210938 115.046211242675781
-8.69621849060058594 97.569488525390625 -41.2198066711425781
4.97198009490966797 -79.4249496459960938 -116.013534545898438
13.7514305114746094 140.55230712890625 45.709564208984375
-7.65192794799804688 65.533172607421875 81.3522186279296875
13.6519527435302734 81.214447021484375 103.075302124023438
13.8608665466308594 138.721664428710938 25.0672492980957031
-7.10371017456054688 -54.2958564758300781 192.258987426757812
-2.23694539070129395 56.223052978515625 -79.33135986328125
7.85066652297973633 106.722816467285156 -126.396049499511719
10.5059337615966797 116.6873779296875 16.1400985717773438
13.5622501373291016 115.074371337890625 92.3181228637695312
5.91040468215942383 -146.199478149414062 33.1046066284179688
8.33556747436523438 -30.6620121002197266 107.451065063476562
-17.8770561218261719 -95.7343673706054688 -163.901473999023438
14.0808248519897461 101.580856323242188 -100.535324096679688
4.10250186920166016 -87.5497512817382812 -148.305755615234375
-3.24481058120727539 -91.6087417602539062 44.0041351318359375
10.0098228454589844 -29.9446258544921875 180.694656372070312
5.85971355438232422 50.0941505432128906 -178.705108642578125
-8.31072521209716797 72.9780654907226562 26.9348182678222656
-3.24304890632629395 -25.2010345458984375 51.4639816284179688
12.9985113143920898 109.446800231933594 9.82538318634033203
-26.7173576354980469 6.71019506454467773 -19.90093994140625
7.8531646728515625 79.5813446044921875 -114.256149291992188
-15.896824836730957 185.644989013671875 -39.1670379638671875
-28.3421058654785156 -35.8398628234863281 -16.8062610626220703
-8.86507606506347656 -11.8751564025878906 92.0639114379882812
9.60241127014160156 123.965446472167969 -45.1642112731933594
3.54605603218078613 -121.13067626953125 -138.25628662109375
-8.13282966613769531 104.337265014648438 -8.57103919982910156
-1.17249822616577148 -108.782318115234375 33.1133232116699219
7.56349563598632812 60.5092926025390625 -118.09613037109375
0.661818504333496094 -78.7600555419921875 -69.1653900146484375
14.0889291763305664 97.9916152954101562 -120.073165893554688
0.594783008098602295 -189.861038208007812 -3.49370789527893066
12.8458747863769531 -47.9802474975585938 147.455825805664062
13.80487060546875 58.3199996948242188 102.613525390625
10.3594064712524414 119.893760681152344 9.83385276794433594
2.20571756362915039 109.5460205078125 13.8845911026000977
12.3272609710693359 -85.46240234375 -62.4119987487792969
-11.502655029296875 -75.9088821411132812 -9.11516475677490234
2.15024280548095703 -83.6107101440429688 -74.3741378784179688
-0.924213528633117676 -175.70001220703125 75.1284713745117188
10.1131582260131836 169.06719970703125 -53.0312042236328125
-14.4613866806030273 -174.514358520507812 -68.7918701171875
13.0952167510986328 144.69378662109375 125.244857788085938
-8.66392135620117188 135.888397216796875 143.894851684570312
11.1471757888793945 126.901618957519531 69.2584762573242188
13.8196630477905273 -39.1111679077148438 -180.305496215820312
8.41156387329101562 103.072723388671875 -31.1494560241699219
-15.8330717086791992 -168.729995727539062 100.240402221679688
-3.32677912712097168 -25.2919635772705078 43.9837799072265625
-3.22609043121337891 -79.546356201171875 -6.48862314224243164
-30.3902912139892578 -156.209762573242188 -101.904998779296875
-10.6712617874145508 22.7902069091796875 -94.9357147216796875
5.51230812072753906 -152.610122680664062 18.2657718658447266
-15.5779914855957031 32.9556045532226562 197.107070922851562
5.58780336380004883 -119.387802124023438 -31.5815620422363281
-26.2845630645751953 34.9175643920898438 43.0660285949707031
-6.49923992156982422 105.161918640136719 -41.5647087097167969
-11.4342660903930664 -31.1846504211425781 -69.962860107421875
1.74104487895965576 179.576766967773438 64.0867156982421875
-9.34097766876220703 -27.8632888793945312 -188.93206787109375
12.3389072418212891 -166.442764282226562 69.425384521484375
-9.51169872283935547 68.5270614624023438 -59.6772499084472656
8.44933223724365234 103.941970825195312 -97.4813385009765625
-26.8648204803466797 -12.7556228637695312 23.5178680419921875
-31.7808589935302734 -24.8169021606445312 -189.29412841796875
-2.9192359447479248 30.0773868560791016 77.2722854614257812
10.1379308700561523 6.06786298751831055 135.055130004882812
-12.7254867553710938 -166.244964599609375 -85.9283370971679688
5.12756252288818359 -23.0253505706787109 -165.556564331054688
-9.26264572143554688 143.41973876953125 135.637359619140625
-19.6111927032470703 -157.097213745117188 -106.868804931640625
5.18706178665161133 -13.0968914031982422 -169.032546997070312
-3.219970703125 -96.6168746948242188 10.8271617889404297
-14.9092655181884766 -184.775390625 46.48443603515625
-7.61848831176757812 68.8642578125 78.7563400268554688
-22.757232666015625 193.160751342773438 -2.41091585159301758
14.0059776306152344 154.583175659179688 -54.8039741516113281
4.93402099609375 -165.130615234375 -94.128692626953125
6.23273134231567383 -163.62933349609375 85.3755416870117188
-14.7195444107055664 54.6078109741210938 -28.0706558227539062
8.945037841796875 55.3782882690429688 -86.7092742919921875
10.0929470062255859 3.79805374145507812 130.469528198242188
13.908228874206543 153.732040405273438 -14.0874500274658203
10.592742919921875 55.1880760192871094 105.487716674804688
4.52596712112426758 -162.561477661132812 -26.3513031005859375
-22.1509304046630859 -42.5765838623046875 191.900222778320312
9.41052722930908203 104.539764404296875 -46.3441619873046875
-18.0175304412841797 108.615859985351562 -157.570755004882812
11.0943660736083984 54.0019569396972656 154.79833984375
-28.0278720855712891 -3.60804104804992676 -36.8489341735839844
11.2182273864746094 33.3387870788574219 183.981002807617188
-12.2736272811889648 -86.4477386474609375 -57.0871620178222656
-4.26816606521606445 154.536300659179688 121.264762878417969
13.2667856216430664 -115.524703979492188 -44.8013877868652344
13.1283016204833984 -126.362709045410156 -41.1031074523925781
-2.44187307357788086 77.03948974609375 -12.4214534759521484
9.08801460266113281 131.42950439453125 -78.3693084716796875
8.981414794921875 -175.752578735351562 85.6844329833984375
11.0641536712646484 125.357780456542969 63.8246574401855469
8.94626712799072266 146.6700439453125 -108.073287963867188
-25.9018154144287109 -104.189315795898438 -154.45721435546875
-9.40623760223388672 190.016754150390625 11.2792606353759766
14.0324811935424805 131.7098388671875 -134.59466552734375
0.540070116519927979 -166.393875122070312 94.68548583984375
-8.77930355072021484 -169.829818725585938 88.2128829956054688
-22.7289009094238281 18.8576107025146484 -189.949981689453125
-15.6287250518798828 84.1329193115234375 181.2734375
13.9970064163208008 155.878646850585938 -45.4596824645996094
-20.2270088195800781 161.05279541015625 110.415092468261719
-8.06041812896728516 17.8486862182617188 110.248626708984375
-13.5432672500610352 109.430557250976562 166.353988647460938
-9.04169464111328125 81.4768142700195312 -33.7021942138671875
13.8426074981689453 -30.0140876770019531 -110.865348815917969
14.1924142837524414 159.389755249023438 -95.012420654296875
-3.38446640968322754 -77.1029281616210938 60.4707908630371094
13.2528142929077148 2.44434070587158203 139.732589721679688
10.5242185592651367 33.4518203735351562 127.9404296875
13.7710456848144531 110.082588195800781 72.16851806640625
-2.41959619522094727 35.6261940002441406 -71.8145294189453125
13.948246955871582 24.4973697662353516 -161.9027099609375
8.4459381103515625 -108.183502197265625 8.88753032684326172
-0.956466197967529297 191.355712890625 -17.2999038696289062
14.0305490493774414 150.225982666015625 -61.4256248474121094
13.5256843566894531 168.618377685546875 50.9005279541015625
-13.0255565643310547 123.464447021484375 -145.5836181640625
11.3373556137084961 165.181472778320312 57.1241340637207031
-8.19836997985839844 10.3439826965332031 110.310157775878906
5.45173358917236328 -47.2243614196777344 -128.2999267578125
10.702239990234375 -6.2552485466003418 199.128997802734375
14.0838737487792969 89.5074234008789062 -111.676338195800781
8.49260520935058594 -68.0685043334960938 107.472152709960938
-21.3183135986328125 -36.36456298828125 -44.3247795104980469
2.21347308158874512 162.694503784179688 100.562698364257812
-20.9241199493408203 22.5869960784912109 192.226547241210938
8.66126060485839844 -190.436508178710938 33.0271072387695312
10.624171257019043 182.174713134765625 -23.5324192047119141
-22.2757415771484375 -191.738311767578125 -4.20395088195800781
-10.8507013320922852 43.6075935363769531 195.808013916015625
10.7590847015380859 113.211753845214844 38.3531837463378906
12.578033447265625 -173.346572875976562 -11.5997419357299805
10.0806484222412109 -14.2076272964477539 162.741668701171875
7.34310150146484375 137.92559814453125 -127.095199584960938
-16.5435638427734375 -185.714813232421875 -32.6135635375976562
-26.5486354827880859 -9.91994667053222656 57.4197883605957031
11.7003955841064453 143.089630126953125 96.1154327392578125
-8.73142910003662109 86.3778839111328125 -19.0543594360351562
-3.2596282958984375 -15.8120441436767578 -42.7966537475585938
-27.1069908142089844 32.7661819458007812 -41.4476737976074219
10.0565261840820312 122.201980590820312 -18.4405975341796875
-11.2527389526367188 -69.8058624267578125 1.1652071475982666
13.6321649551391602 -70.7791061401367188 -167.564208984375
-2.7407529354095459 72.08245849609375 20.7856960296630859
-9.23127841949462891 -11.0673923492431641 71.5833282470703125
-21.5604763031005859 23.0603752136230469 -52.2531356811523438
12.3137636184692383 -151.472869873046875 94.0332565307617188
-28.4166831970214844 -36.1186599731445312 -1.57244741916656494
12.2703800201416016 -171.717849731445312 72.5481338500976562
10.3676786422729492 -6.58186244964599609 183.979446411132812
0.948733508586883545 -91.430694580078125 68.8644790649414062
10.75042724609375 152.509536743164062 11.4564943313598633
-12.0825061798095703 -65.2152328491210938 -77.0715179443359375
8.97502231597900391 -79.0883255004882812 163.08013916015625
4.61355686187744141 -86.697265625 -124.498634338378906
13.7534189224243164 85.4668502807617188 93.138336181640625
-17.4259815216064453 -176.740829467773438 -71.1749496459960938
-26.5383319854736328 -55.8408775329589844 7.80731487274169922
-33.4421882629394531 -105.840904235839844 -154.693771362304688
3.81777691841125488 -182.9288330078125 -31.7120571136474609
13.2297458648681641 -91.9400253295898438 67.7892532348632812
13.011199951171875 -131.748123168945312 16.2857189178466797
8.56431484222412109 123.448188781738281 -109.153465270996094
13.4630670547485352 -0.319297999143600464 127.829673767089844
7.05440092086791992 -124.7530517578125 84.9610214233398438
-8.6826934814453125 87.2077789306640625 -16.2456378936767578
9.791900634765625 -24.1675567626953125 189.248519897460938
-18.1734676361083984 41.9582252502441406 45.9760246276855469
-15.603846549987793 -20.6633796691894531 198.649627685546875
10.3739194869995117 -82.2244033813476562 74.6802978515625
-1.24875068664550781 169.804000854492188 87.7975234985351562
13.1106538772583008 -125.874832153320312 -59.8807830810546875
-2.30675268173217773 91.9521484375 -20.5192737579345703
10.7289237976074219 135.964859008789062 19.2647514343261719
-26.9053115844726562 2.71429848670959473 -10.6199016571044922
-2.28233647346496582 113.743049621582031 -1.46447443962097168
-2.49103879928588867 117.823028564453125 -149.770904541015625
-22.5241718292236328 -73.7130966186523438 -170.84637451171875
4.96418237686157227 -109.528602600097656 -82.1205902099609375
10.5352258682250977 178.35687255859375 -3.94207763671875
-11.3997812271118164 -93.3028717041015625 9.432525634765625
10.3219518661499023 146.634750366210938 -122.770408630371094
-13.9665412902832031 190.364959716796875 3.19304394721984863
-6.45538806915283203 40.6147918701171875 -181.289566040039062
13.7601585388183594 -22.1746006011962891 -153.659835815429688
13.5082969665527344 -74.4146270751953125 -101.483856201171875
-10.3791542053222656 -21.1484832763671875 -110.573013305664062
-2.65361595153808594 16.8689327239990234 -57.6502723693847656
-3.13142228126525879 -5.49891376495361328 58.2500114440917969
-1.21630823612213135 -186.452972412109375 49.0242156982421875
-7.58104085922241211 74.189422607421875 72.2602081298828125
13.4464578628540039 112.614593505859375 108.504051208496094
-7.36413383483886719 64.687774658203125 93.9939804077148438
5.11613368988037109 -192.28857421875 4.69711923599243164
14.1744422912597656 71.3751754760742188 -167.378387451171875
-3.11449122428894043 -54.4688339233398438 -38.6561470031738281
