ply
format ascii 1.0
element vertex 784
comment vertices
property float x
property float y
property float z
end_header
-5.79426670074462891 -36.3669509887695312 -5.46421432495117188
-12.1484479904174805 45.1018829345703125 3.79427909851074219
-15.6027402877807617 -32.2262115478515625 -8.25020790100097656
7.06265544891357422 40.0428695678710938 3.00191044807434082
42.6278533935546875 -15.817082405090332 10.3038473129272461
29.4498519897460938 7.43173837661743164 24.0976009368896484
36.1584701538085938 -15.5236539840698242 21.9391822814941406
8.40072917938232422 41.5587539672851562 12.7768974304199219
-14.8041982650756836 41.6964683532714844 7.06502914428710938
-2.26392436027526855 -36.5134811401367188 -8.63376998901367188
-22.1492996215820312 -31.0210132598876953 -9.46245288848876953
33.9504280090332031 29.1971340179443359 -13.4887113571166992
34.9965095520019531 -2.0823521614074707 26.2600860595703125
9.34431362152099609 39.0912322998046875 2.32280778884887695
-21.6649627685546875 -30.5772857666015625 4.61869001388549805
25.8899688720703125 28.4430160522460938 -3.74766397476196289
-45.8985862731933594 -24.6652183532714844 -5.61059379577636719
-33.9135093688964844 -31.5053291320800781 -10.9719419479370117
43.4980583190917969 17.661102294921875 14.2837009429931641
29.0632610321044922 19.6411190032958984 -13.6282482147216797
-96.9673385620117188 -9.76854610443115234 -1.47482681274414062
36.7140655517578125 -3.99076461791992188 13.4499883651733398
-1.50017380714416504 -36.4018669128417969 -6.72005367279052734
41.5938949584960938 0.838529646396636963 20.6640701293945312
-33.7143669128417969 32.9510726928710938 10.8400554656982422
-69.1416854858398438 -18.9286994934082031 -0.732344627380371094
-31.2942352294921875 -29.3846473693847656 -4.20680809020996094
-14.4975862503051758 -35.7368736267089844 -3.4160315990447998
-20.8237972259521484 42.1900444030761719 -10.7920331954956055
25.4147129058837891 9.28277301788330078 5.91875123977661133
-52.7117424011230469 -21.8905296325683594 -9.42142868041992188
37.9938545227050781 2.07747364044189453 -11.9025545120239258
28.4881362915039062 4.29153728485107422 23.2527942657470703
-91.5271224975585938 -11.2451639175415039 -12.0466995239257812
-39.9897499084472656 37.0153694152832031 6.07459545135498047
21.8441829681396484 -30.0507602691650391 14.5215415954589844
-91.8831787109375 -6.04712629318237305 2.38172554969787598
22.0511207580566406 34.3562126159667969 -4.84237766265869141
-55.4824752807617188 -23.6346015930175781 0.0982412993907928467
-12.1818962097167969 44.0279541015625 -9.73316669464111328
-27.7036380767822266 -32.6005058288574219 1.32005918025970459
-74.0572662353515625 -15.2156190872192383 9.88278770446777344
11.2382726669311523 -31.1773262023925781 -3.0952141284942627
41.7425994873046875 16.0657463073730469 -14.6142091751098633
-25.3932380676269531 -33.8562507629394531 -10.8566665649414062
-17.3032112121582031 41.1256790161132812 1.90446591377258301
38.2396163940429688 -16.1551361083984375 0.593390762805938721
38.2618446350097656 8.15444755554199219 6.2066798210144043
40.6484832763671875 5.48073387145996094 -16.7944507598876953
-6.35001468658447266 -33.2250518798828125 6.07617712020874023
15.6589059829711914 -30.3505039215087891 -12.6807746887207031
-21.9187240600585938 -33.8417396545410156 6.79900455474853516
-31.4446563720703125 -32.5083427429199219 -10.7934131622314453
31.5315132141113281 -15.6452178955078125 -17.8119773864746094
40.2854156494140625 -20.4066619873046875 7.85129451751708984
-90.7988739013671875 -9.258819580078125 10.0363693237304688
-43.9659652709960938 -28.3983478546142578 -7.89938592910766602
-40.8722419738769531 -24.8083038330078125 -0.419877886772155762
-38.2494773864746094 36.7445640563964844 -3.00617027282714844
-89.665740966796875 -8.07561969757080078 -2.43959403038024902
39.5261268615722656 13.4836444854736328 3.16391825675964355
10.6616687774658203 -34.6230812072753906 2.75433254241943359
-8.11513710021972656 -33.0367050170898438 -9.43514156341552734
28.9136066436767578 27.9663944244384766 -6.03642034530639648
24.1508808135986328 -20.1526412963867188 -6.19498443603515625
20.6605033874511719 -32.1111679077148438 -11.3478193283081055
-94.277496337890625 -7.77687644958496094 -10.0681533813476562
34.3842735290527344 -17.0123691558837891 -15.4241218566894531
37.7201499938964844 -22.4353885650634766 -5.32906723022460938
39.6543769836425781 -2.89690685272216797 16.7643928527832031
-81.118560791015625 -15.0389890670776367 -1.61277663707733154
33.8730354309082031 -23.5135250091552734 -15.0788612365722656
32.2098464965820312 -26.4183063507080078 1.16751885414123535
21.6158256530761719 -27.8197555541992188 3.95897746086120605
-40.1796951293945312 39.0946998596191406 -0.539383649826049805
-26.9596424102783203 35.6712150573730469 9.60685157775878906
-52.9953079223632812 -22.0806179046630859 -7.84268760681152344
-46.7462425231933594 -23.9410858154296875 -10.0774784088134766
-23.8210983276367188 37.4223098754882812 2.20317268371582031
-4.44865894317626953 -36.6354560852050781 -9.30915451049804688
24.9994621276855469 3.10053634643554688 7.92355012893676758
16.6732597351074219 36.9982261657714844 -9.23024463653564453
23.8852577209472656 -9.93803787231445312 -11.5417861938476562
24.2642173767089844 -25.5399723052978516 14.0668706893920898
12.2578086853027344 -34.2865028381347656 2.88868093490600586
-10.9631109237670898 -34.9574546813964844 -10.6557855606079102
-88.8267974853515625 -13.0871458053588867 -3.66155076026916504
-60.0541419982910156 -21.9709644317626953 -5.53036212921142578
-29.6561088562011719 -31.4688644409179688 9.01243972778320312
20.4113941192626953 31.4266300201416016 5.70940637588500977
23.8675899505615234 -11.8837203979492188 4.75717782974243164
38.9319648742675781 26.4298000335693359 -9.13203048706054688
18.1133861541748047 35.01568603515625 6.67910242080688477
40.2075271606445312 11.7176990509033203 21.2924690246582031
2.10089492797851562 41.3609695434570312 1.59470021724700928
16.0690746307373047 39.1075172424316406 14.8702011108398438
26.0538101196289062 15.4936685562133789 3.51840305328369141
37.8861579895019531 -11.6256122589111328 10.0967159271240234
-34.614837646484375 42.7467575073242188 -7.59262990951538086
3.63293838500976562 -32.5684547424316406 10.4442253112792969
44.783599853515625 18.6947059631347656 8.37812423706054688
43.2078781127929688 7.75519752502441406 -16.1657524108886719
-23.8192768096923828 -34.0162200927734375 -4.43458414077758789
12.8032741546630859 38.2865867614746094 -5.36725282669067383
25.1384983062744141 6.53240299224853516 3.67392373085021973
24.8735198974609375 2.89062047004699707 3.31903243064880371
33.3727035522460938 13.8573398590087891 22.1542758941650391
-51.30133056640625 -25.3182926177978516 -3.96927762031555176
12.7066049575805664 -34.1923904418945312 -12.8320627212524414
2.93668413162231445 -32.5446968078613281 -8.39086532592773438
3.28901791572570801 -32.4036178588867188 3.511810302734375
35.9949798583984375 6.56860971450805664 -1.03230166435241699
22.5726509094238281 -28.4476375579833984 9.31917095184326172
38.484344482421875 -3.82426571846008301 -14.0967893600463867
29.9914016723632812 16.8449001312255859 -18.1270389556884766
-21.1267890930175781 37.4412384033203125 -8.65961074829101562
27.5120887756347656 5.44362783432006836 -20.1606788635253906
24.8401107788085938 6.78210258483886719 -12.4534206390380859
44.8716087341308594 13.4699172973632812 14.4182281494140625
33.9215774536132812 9.07283687591552734 24.6434402465820312
38.3942337036132812 -20.4687767028808594 -11.0995721817016602
-32.895843505859375 -26.6325416564941406 9.15880584716796875
38.6105880737304688 25.5619754791259766 1.54460442066192627
-74.8858489990234375 -16.4968585968017578 1.47941410541534424
34.7503433227539062 -11.6891574859619141 23.5911464691162109
45.2049140930175781 17.9181785583496094 7.6017756462097168
40.1004600524902344 22.8100719451904297 12.43902587890625
-17.2731781005859375 41.32659912109375 7.67935419082641602
-1.70770847797393799 45.1197242736816406 -1.08611154556274414
-83.6432723999023438 -7.59294652938842773 6.32973861694335938
24.7517299652099609 2.52168560028076172 -0.932921946048736572
16.8770961761474609 -29.6783237457275391 9.27163505554199219
5.96244668960571289 -32.04034423828125 -3.05660724639892578
20.2944984436035156 -27.5890007019042969 1.15381896495819092
-66.7554931640625 -14.6481952667236328 10.2298164367675781
37.5096969604492188 27.4497261047363281 -0.946493744850158691
-53.5959701538085938 -23.4364585876464844 4.14281797409057617
25.1220951080322266 4.11994409561157227 12.6073751449584961
-90.4563980102539062 -5.96964120864868164 5.56618452072143555
-28.9625930786132812 45.491912841796875 6.6514592170715332
-13.2429733276367188 -35.9572257995605469 -4.54677295684814453
37.6019248962402344 -22.7121028900146484 7.48408889770507812
36.8698005676269531 28.1901302337646484 -2.33942461013793945
-16.5876941680908203 -35.7945899963378906 -8.99403190612792969
36.5827369689941406 -16.7934589385986328 -15.1322307586669922
-45.0486831665039062 -23.3313827514648438 -0.305136054754257202
38.1188163757324219 -12.0950555801391602 10.4336919784545898
4.29622173309326172 -35.2971000671386719 11.8978948593139648
-40.0002670288085938 38.174957275390625 12.5004520416259766
38.4138603210449219 -13.8836231231689453 17.7031593322753906
-21.3739585876464844 44.5809249877929688 -4.99667930603027344
35.6630706787109375 17.7114105224609375 -18.5873279571533203
-25.4443244934082031 47.1574516296386719 6.91340112686157227
-37.8768463134765625 -29.7958793640136719 -6.66428756713867188
-79.2681121826171875 -12.0809040069580078 -5.63628911972045898
29.8510646820068359 -26.8672542572021484 -3.18177986145019531
-65.3795318603515625 -20.2955245971679688 -7.16885042190551758
-56.5054779052734375 -20.2900676727294922 -7.08776473999023438
40.3904571533203125 6.52125215530395508 15.4158058166503906
24.4872398376464844 -23.4896011352539062 9.68450546264648438
8.04032325744628906 43.6435279846191406 -7.83924579620361328
25.7390327453613281 -21.6658916473388672 8.61309909820556641
26.9616374969482422 26.6830348968505859 6.69142532348632812
40.0089569091796875 13.8831863403320312 -2.22839546203613281
22.6071643829345703 30.0631351470947266 13.7369823455810547
27.8457660675048828 27.5180244445800781 -2.86464118957519531
39.0225906372070312 -21.184112548828125 10.2212305068969727
24.7906703948974609 0.768576323986053467 6.34716367721557617
-20.8334693908691406 47.2787895202636719 6.51461887359619141
-40.5818328857421875 -23.5916080474853516 7.36448383331298828
-21.6887302398681641 47.7445411682128906 0.387356579303741455
18.1292839050292969 34.2370452880859375 -3.06631135940551758
12.7506580352783203 39.0580711364746094 13.1516513824462891
28.9181232452392578 0.629344642162322998 -23.53204345703125
24.7419776916503906 3.25001764297485352 -2.93245983123779297
40.0149116516113281 9.81763458251953125 -20.7532978057861328
13.176177978515625 -28.311279296875 -10.4751129150390625
36.8809471130371094 -14.1889009475708008 21.4843902587890625
19.5327568054199219 39.2461128234863281 2.80861520767211914
39.966339111328125 2.86949038505554199 23.0877285003662109
11.7981595993041992 41.5072059631347656 12.8097190856933594
2.41891288757324219 -35.9396209716796875 7.16113805770874023
-48.0756111145019531 -21.6452541351318359 5.19395923614501953
22.2213058471679688 30.7074909210205078 -5.842987060546875
-12.2756690979003906 -36.3789138793945312 -10.4026546478271484
18.9527111053466797 32.9906692504882812 12.3134822845458984
-25.5270977020263672 46.5587806701660156 -8.59716606140136719
37.3729209899902344 4.59354257583618164 -3.48514080047607422
24.2451229095458984 -4.71145868301391602 1.20736289024353027
36.8389320373535156 -13.8068637847900391 -20.1612415313720703
42.5346221923828125 20.8867263793945312 11.7047710418701172
27.4385471343994141 -27.7621192932128906 -13.8656215667724609
38.6817703247070312 4.15833425521850586 13.7502298355102539
27.1558189392089844 13.5930423736572266 14.3782768249511719
28.5937633514404297 12.6172590255737305 18.3835315704345703
34.2558364868164062 -8.39815616607666016 4.96483707427978516
37.6383399963378906 28.1407432556152344 -9.05156707763671875
39.7024383544921875 -22.4684219360351562 -1.76978766918182373
8.03700828552246094 39.8040847778320312 -5.85387849807739258
-61.228607177734375 -21.9970493316650391 -2.39285898208618164
23.9935150146484375 -21.2913570404052734 2.93665289878845215
24.7908134460449219 -5.22627925872802734 15.9669065475463867
-9.43574047088623047 44.397552490234375 8.42744922637939453
-47.4253768920898438 -25.7578239440917969 -11.4048318862915039
-11.8875102996826172 45.1606674194335938 1.70638573169708252
-31.0892066955566406 -29.5518703460693359 10.4616003036499023
9.81480503082275391 39.0956649780273438 -1.61693823337554932
35.9016304016113281 15.7235136032104492 21.2203083038330078
-36.2065238952636719 42.0943107604980469 -2.73513460159301758
21.2724475860595703 38.5811538696289062 -1.47059512138366699
-60.8920631408691406 -21.58453369140625 -11.5516748428344727
36.2914810180664062 -2.63582539558410645 -12.3298721313476562
17.9790802001953125 39.82928466796875 8.44343185424804688
32.5276374816894531 -25.8827228546142578 -4.22060585021972656
22.1558589935302734 30.5422992706298828 1.37448418140411377
6.71873617172241211 -32.0551605224609375 7.62310361862182617
-20.4299049377441406 39.0331382751464844 -10.2385520935058594
37.5699043273925781 -13.1237668991088867 6.80188560485839844
39.2791862487792969 -22.8083686828613281 -1.10704290866851807
12.7684097290039062 -34.1425285339355469 1.78677082061767578
-55.6606521606445312 -20.1939239501953125 10.5106887817382812
27.1315269470214844 18.3134574890136719 -11.5316267013549805
27.6885852813720703 20.8244457244873047 8.28953742980957031
11.9814443588256836 -31.0407543182373047 -7.21372890472412109
-47.8379631042480469 -26.735198974609375 -4.25148200988769531
26.4139137268066406 -30.4752826690673828 5.02598857879638672
40.3595695495605469 -10.5239028930664062 -12.2540388107299805
-22.503021240234375 -30.0191364288330078 7.40108442306518555
40.4332656860351562 14.4616775512695312 3.85109353065490723
-74.6198654174804688 -15.9888515472412109 4.71767616271972656
-10.8548908233642578 -35.456268310546875 -3.66621208190917969
-48.273468017578125 -25.2949333190917969 6.76322221755981445
-70.308349609375 -19.0745220184326172 -11.5011024475097656
-77.5292205810546875 -11.44378662109375 0.442100942134857178
-26.8564472198486328 44.5886878967285156 13.5691556930541992
4.9896693229675293 44.038055419921875 10.7337541580200195
27.2821693420410156 5.25153398513793945 -19.7753353118896484
25.7963657379150391 4.68598794937133789 -17.4383907318115234
-15.3222026824951172 44.8292655944824219 5.28691816329956055
-12.8693084716796875 -33.0710411071777344 -6.98311662673950195
28.7742404937744141 23.0883502960205078 -11.5912876129150391
-40.4477310180664062 38.43182373046875 -7.9570612907409668
-15.6706342697143555 -32.3991470336914062 -4.25341939926147461
35.6919288635253906 -16.0269145965576172 20.0036582946777344
33.9352684020996094 -17.2824020385742188 20.2739753723144531
-43.1626968383789062 -28.5186023712158203 -6.59685754776000977
-58.0401649475097656 -18.8321094512939453 -0.981611371040344238
-11.8255157470703125 43.2328338623046875 -3.82155728340148926
5.15203094482421875 40.7259941101074219 2.93924641609191895
22.4017086029052734 -32.2686500549316406 13.4284610748291016
40.9714164733886719 6.1129307746887207 16.1402759552001953
17.2484397888183594 36.2329025268554688 7.40284824371337891
38.7184829711914062 -2.11851716041564941 -14.5676736831665039
29.1659908294677734 30.7193336486816406 -13.2705955505371094
29.8745021820068359 15.8782835006713867 20.4465732574462891
-91.9132614135742188 -12.2458915710449219 -11.7898635864257812
45.0918426513671875 17.4076137542724609 -8.04309844970703125
37.4481620788574219 5.61071443557739258 12.2874298095703125
-45.886962890625 -24.9836902618408203 4.87914609909057617
35.6752815246582031 6.63202619552612305 -3.05707836151123047
1.87539100646972656 -36.0626220703125 9.01998138427734375
29.6990966796875 30.3983860015869141 -12.9380416870117188
21.1440296173095703 37.9651641845703125 15.6417360305786133
28.58282470703125 16.4874858856201172 -16.1927032470703125
23.9544334411621094 -23.2363643646240234 0.268199801445007324
27.3425865173339844 -1.02076447010040283 21.8125820159912109
36.6010513305664062 11.018956184387207 5.62926387786865234
35.5662803649902344 -23.4598026275634766 3.12589693069458008
10.8065099716186523 -31.2744407653808594 -6.33236455917358398
-39.8758506774902344 -28.5943088531494141 2.98299002647399902
-38.7844085693359375 35.8143577575683594 10.9824008941650391
38.8604927062988281 6.81321001052856445 23.1422939300537109
-36.3525199890136719 -26.3620090484619141 0.466008305549621582
24.8585205078125 -19.08099365234375 11.3420848846435547
-52.6076774597167969 -24.2144107818603516 -4.17737245559692383
28.1474094390869141 -9.18558025360107422 24.7712688446044922
-92.4603729248046875 -10.00421142578125 5.27068328857421875
40.6510963439941406 -5.59529447555541992 20.5175094604492188
16.0335979461669922 -26.8831901550292969 -0.00238334503956139088
-38.5763015747070312 36.1818351745605469 -1.73588097095489502
-39.5627555847167969 -26.8776569366455078 -10.2481412887573242
-58.7682113647460938 -20.5906410217285156 4.26150798797607422
-74.3071136474609375 -18.0209693908691406 -6.03336715698242188
-22.0002880096435547 48.1776123046875 8.05759525299072266
-51.9144401550292969 -25.1889705657958984 -2.59557604789733887
0.147850453853607178 43.5178565979003906 -9.79626369476318359
40.5384140014648438 -20.4024391174316406 6.68164730072021484
17.9787693023681641 35.5808029174804688 -4.79366159439086914
39.9279670715332031 13.0228767395019531 -20.2688045501708984
37.4496269226074219 2.92814373970031738 5.5383152961730957
26.8217678070068359 35.1630668640136719 -1.84090471267700195
35.9230270385742188 8.90500068664550781 -2.90269255638122559
-23.7937660217285156 37.2755050659179688 -0.977229535579681396
37.8257179260253906 -14.9970474243164062 4.30572366714477539
-87.4479446411132812 -12.2147064208984375 2.36638593673706055
9.29731273651123047 40.1419715881347656 -9.53643703460693359
-56.7395553588867188 -23.7440109252929688 -3.82777070999145508
-23.9742565155029297 -33.9249687194824219 -3.53031778335571289
-33.96966552734375 39.4684524536132812 -10.5997953414916992
-39.7000846862792969 -26.1850948333740234 -8.4178314208984375
41.1833686828613281 -17.3355808258056641 12.1091833114624023
25.1405887603759766 -3.73312258720397949 -16.9016494750976562
12.8018150329589844 41.81951904296875 1.97265243530273438
18.0983085632324219 34.7813720703125 5.74009943008422852
-5.3400731086730957 45.5578422546386719 -6.20579147338867188
-18.22503662109375 39.8845787048339844 8.7122650146484375
-34.7840576171875 44.7093887329101562 -1.36822068691253662
34.0919227600097656 -8.82867145538330078 5.91501951217651367
21.9945487976074219 36.3675460815429688 -1.24627482891082764
-44.7147064208984375 -23.7439670562744141 -2.79244637489318848
-24.5775279998779297 47.0425605773925781 -2.04710221290588379
-20.8631935119628906 47.6826400756835938 9.80123615264892578
38.2633438110351562 -9.32792568206787109 22.0735435485839844
-0.585893571376800537 44.8851356506347656 10.2391014099121094
-39.4831771850585938 -29.2206363677978516 -1.71916306018829346
40.0282745361328125 -6.70615911483764648 15.8593626022338867
36.2711868286132812 -21.4497013092041016 -10.7914199829101562
-71.2151870727539062 -19.9570274353027344 -11.0893373489379883
6.72379636764526367 44.0765571594238281 -8.902557373046875
16.3204746246337891 -26.9495449066162109 7.58998537063598633
21.8320426940917969 35.0785102844238281 -2.4298398494720459
38.975555419921875 -0.234281852841377258 15.358393669128418
30.0143051147460938 -26.084686279296875 -15.0301303863525391
-37.8717842102050781 41.7330474853515625 -8.6470794677734375
-34.6671829223632812 -29.6415729522705078 10.7412519454956055
-57.9606513977050781 -20.9122142791748047 4.67761611938476562
39.1168022155761719 -18.6797428131103516 1.07434165477752686
35.1046066284179688 -13.0874147415161133 2.61308431625366211
15.6826725006103516 -30.0960178375244141 -10.5318470001220703
28.4042682647705078 29.6282291412353516 0.168572962284088135
24.5589523315429688 -17.5128192901611328 2.04613256454467773
24.1987419128417969 -3.01085114479064941 -6.87032842636108398
15.4520483016967773 40.8014335632324219 -11.9169416427612305
-87.0778274536132812 -12.8191137313842773 -11.8860111236572266
30.6866016387939453 17.3959083557128906 -18.5742855072021484
22.7597713470458984 -24.8564300537109375 -3.99991178512573242
-30.0949134826660156 42.9701194763183594 13.6805505752563477
37.5163002014160156 -14.6935520172119141 -1.54495847225189209
8.79247379302978516 43.0714187622070312 11.905390739440918
-35.5179100036621094 38.0862998962402344 -9.27313804626464844
40.8489456176757812 7.11727714538574219 15.5103397369384766
-73.8771514892578125 -18.7749156951904297 -11.4232721328735352
-8.56462001800537109 45.2389259338378906 10.4467840194702148
-60.0757637023925781 -20.9180049896240234 7.76284027099609375
32.4516067504882812 32.1065559387207031 15.9881172180175781
18.4048004150390625 -29.6293544769287109 -3.83962225914001465
38.2362937927246094 -5.83310651779174805 7.74778079986572266
25.4785289764404297 12.4022073745727539 -7.22496747970581055
17.0891342163085938 -26.4814643859863281 -12.1470928192138672
0.461679458618164062 45.2341766357421875 -8.91164112091064453
38.4600944519042969 -14.2831430435180664 7.22720861434936523
32.1047592163085938 -11.199345588684082 23.7779140472412109
-76.3038330078125 -8.61498451232910156 9.34829330444335938
-85.8612823486328125 -13.5905284881591797 -11.7731866836547852
-0.628195345401763916 45.1021232604980469 -3.29143667221069336
25.8741607666015625 11.6913785934448242 9.96274852752685547
24.0337963104248047 -27.7820014953613281 -0.66032487154006958
42.8492393493652344 18.9960346221923828 -2.06899905204772949
25.8493156433105469 34.7173614501953125 -9.19283294677734375
-1.2947235107421875 -35.1711082458496094 11.0020694732666016
-21.4646663665771484 38.4143524169921875 13.5040073394775391
36.7964363098144531 -2.52339506149291992 -12.6163539886474609
-38.780181884765625 40.7282600402832031 2.97883939743041992
24.1922950744628906 -13.1594781875610352 9.54033279418945312
32.6046943664550781 -26.5052680969238281 -11.240077018737793
-27.1158046722412109 36.8648033142089844 5.10113382339477539
-32.6114349365234375 38.5993232727050781 -3.83260464668273926
-79.73651123046875 -14.6513462066650391 2.59073209762573242
18.3827228546142578 -30.9980583190917969 14.0023317337036133
25.4457874298095703 2.84669995307922363 17.7156314849853516
-3.26515769958496094 -33.4556961059570312 10.4993486404418945
29.3346481323242188 -26.7073078155517578 -7.42629337310791016
26.3310050964355469 -22.8816318511962891 -14.5954389572143555
-44.0854606628417969 -27.9507999420166016 -4.31922101974487305
27.2961196899414062 35.73455810546875 -11.870086669921875
18.9544467926025391 -29.9722671508789062 -0.26071399450302124
26.3673477172851562 14.7761678695678711 11.0239706039428711
27.3724956512451172 -7.54413461685180664 22.0424785614013672
-78.8463211059570312 -14.4357013702392578 -12.1116056442260742
15.513270378112793 -31.2214889526367188 -6.55754518508911133
24.2859916687011719 -9.09760570526123047 11.6108503341674805
25.7235641479492188 -21.4374141693115234 10.4367961883544922
-84.6953277587890625 -10.6191949844360352 -7.11269235610961914
25.4421615600585938 3.24210381507873535 17.5541667938232422
38.2937812805175781 26.1162509918212891 -3.17888164520263672
-34.8789253234863281 34.8841133117675781 -0.49784204363822937
38.6561012268066406 8.25179672241210938 10.7472295761108398
21.0895214080810547 -28.9383010864257812 13.6271820068359375
-33.0462913513183594 33.6474151611328125 8.13871383666992188
25.6644916534423828 11.4371480941772461 7.6807708740234375
35.8240547180175781 10.5659465789794922 23.7361793518066406
38.3767509460449219 -9.01420307159423828 21.8926944732666016
26.8024330139160156 29.4404125213623047 4.52626848220825195
38.2825736999511719 6.16575098037719727 12.9116859436035156
23.940216064453125 -5.71201181411743164 -10.8543100357055664
24.6377048492431641 -17.0748748779296875 2.32422518730163574
-95.6499557495117188 -6.55449581146240234 -6.34169292449951172
23.7515602111816406 29.9546546936035156 -3.16155648231506348
-9.04167461395263672 -36.2900352478027344 -10.7748136520385742
-40.082977294921875 37.80804443359375 12.7001962661743164
33.5370597839355469 29.3749485015869141 -8.35119438171386719
37.371490478515625 12.7388687133789062 -21.1491565704345703
37.7102241516113281 -0.819994091987609863 -12.724578857421875
-16.5028114318847656 44.6898574829101562 10.3515853881835938
8.48724937438964844 39.5130996704101562 -2.50691366195678711
-26.7728843688964844 46.7037467956542969 -0.598850607872009277
37.2570762634277344 11.224726676940918 -21.9421882629394531
-60.6490364074707031 -17.6008167266845703 0.856769323348999023
-63.6770858764648438 -18.4037494659423828 -10.9263830184936523
33.3279457092285156 30.7891826629638672 -9.11825084686279297
21.9928112030029297 36.3928642272949219 -10.2417688369750977
27.2792854309082031 19.2085323333740234 -5.52869272232055664
-36.4092674255371094 41.1871414184570312 4.97090578079223633
-17.8595943450927734 -31.3998222351074219 8.26377582550048828
14.0789279937744141 41.4062843322753906 0.636888086795806885
16.7927074432373047 36.4609603881835938 5.31889963150024414
-19.5282649993896484 41.4808616638183594 -2.23097991943359375
22.3227100372314453 -28.3019676208496094 -1.4323883056640625
-6.32416772842407227 41.9416313171386719 12.0839128494262695
-49.5575141906738281 -24.8444919586181641 6.62500476837158203
3.40905547142028809 -35.8021430969238281 5.18170070648193359
28.0546531677246094 35.3261222839355469 2.1569526195526123
-37.2645683288574219 36.3111572265625 3.20675182342529297
18.6829185485839844 32.7387466430664062 4.73067474365234375
-37.1384429931640625 36.3894271850585938 3.84385418891906738
-85.616851806640625 -12.6646909713745117 2.85799241065979004
-6.35066127777099609 -33.1761589050292969 2.38692402839660645
-4.05748367309570312 -33.4795646667480469 3.42193150520324707
24.0583572387695312 -31.1909217834472656 -11.6001567840576172
35.5453414916992188 28.5603313446044922 -7.6767730712890625
21.9703426361083984 35.7569427490234375 13.0840330123901367
-20.5640220642089844 43.9495048522949219 12.4651203155517578
39.5036849975585938 -3.25967526435852051 -15.5852365493774414
32.7148895263671875 -17.0285663604736328 17.0768833160400391
-49.8407211303710938 -20.301055908203125 8.89643669128417969
37.8743553161621094 26.7282924652099609 -0.198217540979385376
-34.096832275390625 43.8349571228027344 13.0628852844238281
39.7710952758789062 13.3394536972045898 -4.83499288558959961
-62.5032119750976562 -17.0737857818603516 10.6416835784912109
37.0601654052734375 -14.1100025177001953 1.40891098976135254
32.9564628601074219 20.5518474578857422 -15.5546846389770508
-11.3738164901733398 -34.2282791137695312 -6.77332496643066406
38.079132080078125 -4.73945856094360352 -13.3167800903320312
-69.6338577270507812 -12.4513397216796875 9.37846469879150391
11.8751592636108398 -34.3274497985839844 -1.40777444839477539
-95.2919387817382812 -11.0010690689086914 -5.50980472564697266
-91.9921188354492188 -5.01007223129272461 5.60176897048950195
-90.2504959106445312 -7.975616455078125 11.0834236145019531
-36.0921897888183594 -24.8370647430419922 9.76943683624267578
-23.0339012145996094 -30.3454246520996094 2.42790722846984863
-21.9738864898681641 44.6159248352050781 -1.55097734928131104
28.2939739227294922 27.3270282745361328 -8.37569808959960938
28.8073768615722656 25.5388469696044922 -13.2218875885009766
45.1343269348144531 15.7871484756469727 -10.1414690017700195
-1.37140262126922607 -36.28350830078125 -3.42690157890319824
32.7685279846191406 11.8604574203491211 23.4974594116210938
-22.2487239837646484 -30.9246273040771484 -3.09753632545471191
5.33562231063842773 -32.2950363159179688 -10.4826269149780273
37.8471565246582031 -1.37171447277069092 -13.1812400817871094
-8.78616714477539062 42.027984619140625 7.18250942230224609
-39.4370651245117188 37.5427780151367188 7.8715057373046875
-78.2117767333984375 -14.7261295318603516 4.79756879806518555
38.6528739929199219 2.73352622985839844 6.3493342399597168
32.6544723510742188 -3.19766950607299805 26.5320987701416016
-35.0911026000976562 -27.148681640625 -2.75509214401245117
21.8971595764160156 35.4927291870117188 1.38282132148742676
13.4056510925292969 37.71075439453125 6.28482770919799805
0.0536865927278995514 44.7964439392089844 6.82000064849853516
35.9885673522949219 -22.6365470886230469 10.2657442092895508
-84.619415283203125 -12.276092529296875 6.18450927734375
0.143996119499206543 40.9049034118652344 10.1265726089477539
-12.4886989593505859 44.7378311157226562 12.51519775390625
-11.0920066833496094 42.0386123657226562 2.21520113945007324
18.5119342803955078 33.3737068176269531 -11.4312868118286133
44.6360855102539062 18.7572422027587891 8.73542690277099609
23.3169822692871094 30.3610820770263672 -9.92051124572753906
36.9176177978515625 10.8504447937011719 23.4594612121582031
-36.2226295471191406 37.6823539733886719 -5.57482814788818359
27.1131439208984375 -29.60614013671875 1.70750832557678223
33.2885971069335938 -15.7037582397460938 -17.9221248626708984
-22.2201442718505859 47.361968994140625 -5.01726388931274414
-73.0209503173828125 -12.1860694885253906 10.3925485610961914
-9.35521030426025391 -33.1963882446289062 -4.63331031799316406
25.8978595733642578 -27.1869468688964844 15.2914886474609375
-5.08557701110839844 -34.2721710205078125 -4.2840733528137207
-32.0214691162109375 35.119903564453125 -8.28919506072998047
13.9297065734863281 -27.7540988922119141 2.98856115341186523
-23.5794620513916016 -33.3249626159667969 7.70800113677978516
41.0988006591796875 1.1189262866973877 21.5456275939941406
24.7739009857177734 -0.976227700710296631 10.5364828109741211
-2.60588288307189941 -36.3789901733398438 -4.41164588928222656
24.1156711578369141 -3.49558639526367188 -9.36647796630859375
13.0719022750854492 37.6897621154785156 11.2081947326660156
-50.6432151794433594 -24.9310035705566406 2.8635859489440918
33.458221435546875 -24.9136714935302734 -0.564986944198608398
-26.2191524505615234 -32.1677665710449219 7.54940128326416016
-97.295745849609375 -10.8055009841918945 -5.52325868606567383
-21.1041526794433594 -34.9487838745117188 -7.67320728302001953
-37.27581787109375 -29.8651332855224609 -0.833390951156616211
-28.5035552978515625 39.4127998352050781 13.747136116027832
33.2705307006835938 25.6904792785644531 16.4295463562011719
24.5447006225585938 -8.19746685028076172 14.3488054275512695
-22.8311729431152344 -30.5527591705322266 -0.129193469882011414
38.6993827819824219 2.87709140777587891 7.29490280151367188
-32.5533943176269531 -31.3530292510986328 -7.18508052825927734
-76.93707275390625 -15.2103118896484375 4.49786949157714844
24.5966720581054688 -4.29043674468994141 13.2262630462646484
19.175750732421875 32.2536277770996094 0.521528780460357666
-62.4835853576660156 -20.7100200653076172 -11.5534753799438477
15.7542457580566406 37.2263374328613281 -5.78253078460693359
-6.19598150253295898 45.5938796997070312 -6.52720546722412109
12.2418098449707031 41.9531822204589844 7.81153106689453125
-52.1844482421875 -22.2975311279296875 -11.1090211868286133
15.5620965957641602 -31.0233840942382812 0.682141363620758057
32.9563484191894531 0.203966438770294189 25.7955188751220703
28.2489547729492188 35.2412605285644531 3.27082228660583496
-15.1966285705566406 43.8030509948730469 12.5106992721557617
37.7458305358886719 1.31395494937896729 -2.95658254623413086
-26.5754489898681641 42.8974075317382812 -11.2128839492797852
24.3598117828369141 -24.0935230255126953 12.0688858032226562
1.36315882205963135 44.6543388366699219 9.13722991943359375
-21.5277099609375 44.1386604309082031 1.54669392108917236
8.53945255279541016 -31.9268608093261719 -13.3750858306884766
-15.9468011856079102 41.5799026489257812 -7.16582107543945312
-73.925262451171875 -10.648045539855957 8.17437267303466797
37.0714759826660156 2.62817597389221191 12.3061332702636719
-11.2437324523925781 43.9862518310546875 -5.1472783088684082
23.1970043182373047 -31.8512611389160156 9.67622852325439453
34.3531303405761719 -7.33004617691040039 -4.24114656448364258
-25.2043590545654297 -34.2664985656738281 -10.1363153457641602
24.2746696472167969 -15.4928264617919922 -8.84948825836181641
24.2232913970947266 33.6637954711914062 -11.5513334274291992
-37.9803085327148438 41.67523193359375 -7.43095827102661133
-26.6178035736083984 36.4292144775390625 -5.34976100921630859
25.9920024871826172 15.2004337310791016 -9.11727619171142578
24.2184810638427734 -2.86898159980773926 -6.44816827774047852
25.9434185028076172 16.0638809204101562 -1.10518217086791992
-19.4819355010986328 44.7961654663085938 -7.52240848541259766
37.3051109313964844 10.1993989944458008 -22.3627433776855469
38.1478462219238281 4.03252601623535156 1.02518308162689209
5.49699687957763672 40.9280662536621094 -4.54502201080322266
-19.1475715637207031 43.7698287963867188 6.44973993301391602
36.0288238525390625 8.99406337738037109 1.38898086547851562
-2.66303253173828125 44.3650360107421875 -2.40297746658325195
-47.2395286560058594 -20.4177627563476562 8.17806529998779297
27.63580322265625 -0.536022007465362549 22.0339584350585938
-31.5932559967041016 46.1326904296875 6.98765277862548828
4.06114006042480469 -32.6285591125488281 11.0839519500732422
24.8119964599609375 29.1772956848144531 6.88084793090820312
-1.64165246486663818 41.8800926208496094 1.19810497760772705
27.1052188873291016 -21.4042205810546875 -6.36546993255615234
27.5969963073730469 20.3314495086669922 6.61871671676635742
15.5435428619384766 -28.9908199310302734 14.7077169418334961
-25.8457736968994141 42.9202842712402344 -11.2032947540283203
8.5638275146484375 -31.7335014343261719 5.12782621383666992
38.9287147521972656 25.1289520263671875 -3.07929849624633789
-73.9595718383789062 -10.7842473983764648 7.39047527313232422
-7.28587913513183594 -33.1279678344726562 3.5401463508605957
-40.3817710876464844 37.8170967102050781 -1.27830719947814941
-0.686634242534637451 -36.2701148986816406 -5.50396966934204102
25.8289794921875 13.5399379730224609 4.50643014907836914
28.6381988525390625 -2.8348698616027832 24.8800106048583984
37.0703887939453125 10.4103307723999023 7.59067010879516602
38.7783203125 -17.836395263671875 15.3597593307495117
37.5752639770507812 6.21068382263183594 11.5031118392944336
24.4605083465576172 -16.5601444244384766 9.62038326263427734
-33.7701148986816406 -27.2795352935791016 -0.183130204677581787
27.3944759368896484 19.5755157470703125 -3.67998600006103516
-36.889434814453125 43.8977241516113281 -9.08643722534179688
34.2650222778320312 -6.45364093780517578 -8.17012691497802734
22.0402679443359375 -25.8373680114746094 -3.7176210880279541
42.6082420349121094 -14.1457605361938477 -11.4350299835205078
17.8734226226806641 40.0650863647460938 -2.98269009590148926
44.4335975646972656 20.8105049133300781 4.9146265983581543
2.89515590667724609 -35.8647270202636719 -5.90726852416992188
-9.21998500823974609 -34.4516334533691406 10.9341564178466797
-19.4403553009033203 -34.4400138854980469 -5.59732341766357422
43.3452110290527344 13.5886354446411133 -13.5496826171875
39.30621337890625 -21.6069908142089844 8.55082035064697266
18.3453197479248047 33.4072189331054688 5.04904031753540039
-35.5161399841308594 37.64703369140625 -1.27810013294219971
14.041996955871582 -33.8353462219238281 0.994047224521636963
26.2745323181152344 17.4516353607177734 2.4438173770904541
-22.2814788818359375 45.3272819519042969 4.93486547470092773
26.3170242309570312 17.6439838409423828 2.22122573852539062
15.8247003555297852 -26.855316162109375 -9.62369632720947266
38.9666213989257812 -15.8337411880493164 -14.9672670364379883
33.4002685546875 29.3831596374511719 -6.4591364860534668
-4.69314289093017578 44.2195358276367188 12.6968765258789062
39.5950126647949219 25.2968788146972656 -12.9676084518432617
25.2005805969238281 -30.6448345184326172 -14.0630092620849609
26.4599628448486328 34.8441963195800781 0.182992711663246155
24.3499565124511719 0.263544648885726929 -12.029022216796875
36.078582763671875 9.07294559478759766 2.38340306282043457
38.4195518493652344 0.725579261779785156 6.42404699325561523
-48.0003242492675781 -21.3755817413330078 6.44871950149536133
12.3623857498168945 40.6889114379882812 13.0144710540771484
-22.5605239868164062 45.3396987915039062 11.9296808242797852
20.093017578125 38.931396484375 14.8669719696044922
39.9790267944335938 0.125823467969894409 17.3141517639160156
6.62450551986694336 43.6216621398925781 9.24080371856689453
15.1964817047119141 -33.3360939025878906 9.87745094299316406
25.1411876678466797 3.59040951728820801 12.5984487533569336
15.4887008666992188 40.9655952453613281 -2.03367328643798828
34.0209007263183594 -12.2963991165161133 -20.8661460876464844
-14.9568548202514648 44.8653793334960938 7.34958553314208984
-4.77123689651489258 44.560455322265625 8.66412162780761719
-20.78466796875 44.25177001953125 1.47259151935577393
-20.047454833984375 38.6292800903320312 7.23644638061523438
28.7171840667724609 25.50909423828125 -6.15737295150756836
-6.50230121612548828 -36.3057060241699219 9.18311119079589844
32.1497993469238281 -21.4785079956054688 -16.3062400817871094
37.4915657043457031 -2.09173250198364258 -0.918492972850799561
24.3419246673583984 -5.98158645629882812 8.10117721557617188
11.5228900909423828 38.8179893493652344 -7.18010663986206055
-24.5335807800292969 37.0196342468261719 -3.14001965522766113
38.1032485961914062 5.59090280532836914 3.41963315010070801
24.4570331573486328 -1.76368248462677002 0.950862646102905273
-5.99881649017333984 42.1315345764160156 1.31040620803833008
-17.5549068450927734 41.9011764526367188 -6.68438529968261719
25.1436538696289062 4.25743865966796875 10.0647182464599609
20.5289058685302734 31.4542636871337891 1.30362951755523682
-76.2094039916992188 -13.52685546875 -10.1419391632080078
37.4188232421875 -2.35163068771362305 -5.72731590270996094
-82.0867919921875 -13.201848030090332 5.77044868469238281
45.0498733520507812 19.4857273101806641 4.45402860641479492
0.520342588424682617 -36.1544761657714844 -5.6867828369140625
39.7496452331542969 -8.74218845367431641 -18.6548671722412109
-42.0542640686035156 -24.9408817291259766 -5.01758909225463867
24.6359806060791016 -17.1581363677978516 2.07631754875183105
-37.7807197570800781 36.2474632263183594 -0.939932405948638916
31.1087455749511719 -3.90996098518371582 -23.2641239166259766
15.192774772644043 -33.1597862243652344 -8.92116546630859375
23.9082489013671875 -10.0181875228881836 2.77904295921325684
35.9489250183105469 -5.90865707397460938 -0.531079530715942383
-38.9402847290039062 -26.4923610687255859 -8.27908706665039062
38.3473396301269531 26.9050254821777344 14.7859983444213867
37.1861343383789062 -4.74706602096557617 -0.659798979759216309
-10.9021997451782227 45.1417961120605469 10.2711591720581055
41.78363037109375 16.4426078796386719 5.48666048049926758
24.1622371673583984 -5.23123884201049805 -14.4130582809448242
-91.9753875732421875 -10.5130538940429688 3.72051262855529785
-39.3421592712402344 36.2322502136230469 3.52947115898132324
-80.3649139404296875 -10.8247461318969727 -1.23543047904968262
39.8576774597167969 24.0530529022216797 13.4026269912719727
17.3708648681640625 36.3221473693847656 3.38807535171508789
38.6112098693847656 26.7585353851318359 10.3412895202636719
28.3458156585693359 27.9172611236572266 -10.1201982498168945
-8.30359745025634766 43.0782508850097656 12.4226675033569336
-88.0804443359375 -9.4642333984375 -9.14776706695556641
21.3182411193847656 -25.2534961700439453 5.92265081405639648
18.6438655853271484 32.8728103637695312 -0.225265711545944214
-9.88768577575683594 44.0066642761230469 -3.08968138694763184
37.3517570495605469 -0.94277489185333252 -9.0107269287109375
27.7642745971679688 -3.27214837074279785 22.6862869262695312
2.2150113582611084 -32.5711212158203125 -5.79782485961914062
19.2376384735107422 -30.8073711395263672 6.73669624328613281
-93.9960784912109375 -7.52603483200073242 -8.47990894317626953
-4.14246273040771484 42.038299560546875 2.98584628105163574
11.2265768051147461 41.1981277465820312 -10.0272541046142578
36.6973114013671875 -21.1736640930175781 12.4694204330444336
22.2660865783691406 -31.8439426422119141 -10.0536088943481445
32.0912704467773438 -20.8442173004150391 17.4849014282226562
-29.6799545288085938 35.6530227661132812 -8.25148868560791016
-26.0888710021972656 -30.3624324798583984 -4.15557765960693359
24.4105491638183594 -20.0373783111572266 -6.27549839019775391
36.8506889343261719 11.4070329666137695 -3.66242003440856934
24.6593494415283203 -18.7957706451416016 11.6539478302001953
37.2627067565917969 4.58545351028442383 8.31707668304443359
40.6334609985351562 -1.48230934143066406 -18.2903327941894531
-51.1085968017578125 -24.0386409759521484 9.12734699249267578
14.9949970245361328 -27.1933155059814453 0.624616742134094238
12.7544870376586914 37.7400398254394531 11.8463449478149414
-20.9708003997802734 -31.3246269226074219 -9.93389320373535156
-19.0007457733154297 43.4081382751464844 8.03242397308349609
-77.6360626220703125 -13.9997930526733398 9.39404392242431641
-32.8804397583007812 34.1509361267089844 7.67287826538085938
-88.5834808349609375 -12.7598772048950195 -1.87473201751708984
25.3276710510253906 31.0000934600830078 -11.4135255813598633
-5.92788314819335938 -33.2933578491210938 -2.12509989738464355
39.9855918884277344 24.2982711791992188 0.0175525471568107605
-28.1219348907470703 45.48828125 7.39026355743408203
13.3287239074707031 -28.4037876129150391 12.535487174987793
39.7898750305175781 24.5009841918945312 11.6834125518798828
-26.6746711730957031 40.1520347595214844 13.8472423553466797
25.1411018371582031 -24.3546295166015625 15.0729427337646484
-22.8425178527832031 -30.9437713623046875 -4.71202850341796875
42.4147109985351562 -12.4407587051391602 -12.6045589447021484
37.8232460021972656 2.98945403099060059 -6.929656982421875
25.8139190673828125 -7.49356603622436523 -17.0944576263427734
-23.9568386077880859 -33.1590385437011719 8.95551395416259766
-30.4118595123291016 -29.3040447235107422 -9.19805908203125
-4.34573030471801758 43.2588157653808594 7.10343074798583984
37.3356971740722656 4.27235269546508789 13.2396984100341797
17.4655780792236328 -29.0636806488037109 14.8558368682861328
-35.8402786254882812 42.4472274780273438 -9.83246421813964844
31.9674129486083984 -26.6935482025146484 2.44811010360717773
-59.3942985534667969 -22.3385887145996094 -11.4668569564819336
35.4308586120605469 19.4660015106201172 18.3400421142578125
-65.086456298828125 -13.8101301193237305 9.79601669311523438
-29.30322265625 45.7306556701660156 -9.57292270660400391
6.69847488403320312 -31.9901485443115234 -6.11048460006713867
-54.6737136840820312 -19.8841972351074219 0.397767245769500732
28.8655033111572266 23.8735466003417969 -11.8302879333496094
-18.2511196136474609 41.7421379089355469 -4.6191248893737793
-1.87871813774108887 41.9097824096679688 1.22125697135925293
-37.7390632629394531 -28.8099994659423828 8.75434017181396484
-32.9617652893066406 -29.6212291717529297 6.17759227752685547
20.7630844116210938 31.4459743499755859 -3.02957248687744141
-83.7318191528320312 -10.1974868774414062 -3.6116025447845459
-64.5639266967773438 -16.6962165832519531 3.81816959381103516
-72.9970703125 -11.4814023971557617 7.69725322723388672
27.0786571502685547 -29.2721157073974609 -13.7124767303466797
39.6030120849609375 6.77872467041015625 -21.2533512115478516
30.277252197265625 -26.9095134735107422 -4.06665563583374023
-42.948944091796875 44.468719482421875 13.510432243347168
42.3200759887695312 6.09311151504516602 19.6621131896972656
-37.1865386962890625 48.4322319030761719 11.0374546051025391
-7.44135284423828125 -36.2272071838378906 7.75424909591674805
44.7681350708007812 20.4877872467041016 -1.7733159065246582
-47.9848289489746094 -23.1611843109130859 -7.68204307556152344
-39.5226707458496094 39.1062507629394531 10.314788818359375
40.0889396667480469 21.5928878784179688 15.0131082534790039
21.8709926605224609 35.3587837219238281 -0.0419696420431137085
11.2271280288696289 -31.1977081298828125 -0.501654684543609619
5.97418022155761719 40.5085334777832031 5.11401796340942383
24.6333885192871094 1.89075767993927002 -2.04168486595153809
-28.8582992553710938 -32.7357673645019531 -4.47093915939331055
-71.6144790649414062 -14.3511028289794922 -3.84261918067932129
34.458984375 4.39284992218017578 -23.7003650665283203
-84.1810531616210938 -7.39563369750976562 6.42248630523681641
-3.15643835067749023 43.9293899536132812 12.6822662353515625
38.2686386108398438 5.57399511337280273 -1.21672892570495605
-33.5996780395507812 45.1192550659179688 -2.26438808441162109
13.2713727951049805 42.139434814453125 -10.1728782653808594
37.3070602416992188 4.41246938705444336 7.81275463104248047
-24.9550437927246094 -29.3627185821533203 9.34874248504638672
-34.9342803955078125 -29.6570758819580078 10.2265491485595703
36.7924995422363281 28.1579113006591797 2.40940594673156738
14.5594024658203125 37.6396598815917969 -4.74589157104492188
-89.253997802734375 -9.09878349304199219 -9.00788784027099609
-34.3841133117675781 -29.5873355865478516 10.8698148727416992
40.58856201171875 13.3462066650390625 -18.1749134063720703
-79.302337646484375 -11.0688314437866211 -0.70533221960067749
33.8624153137207031 -13.9801054000854492 22.2994728088378906
-63.9469375610351562 -19.5131168365478516 7.44176673889160156
43.2497711181640625 6.68503856658935547 17.7569770812988281
-84.4466705322265625 -14.6289072036743164 -4.75299310684204102
25.8892250061035156 -18.3091716766357422 -14.5149221420288086
24.0784320831298828 -8.51320552825927734 5.32482337951660156
-36.4613075256347656 43.2188987731933594 0.672761499881744385
15.0360383987426758 -33.335601806640625 -3.72565698623657227
43.71142578125 19.1888580322265625 11.6507291793823242
11.5076475143432617 42.2345314025878906 12.0187854766845703
25.2598533630371094 8.09644222259521484 4.42181491851806641
-37.3666419982910156 -27.3147430419921875 -6.3073735237121582
28.1199665069580078 -6.04747486114501953 24.0558490753173828
-94.0713729858398438 -8.88270187377929688 10.2548942565917969
-8.38472366333007812 -33.0621528625488281 0.199108526110649109
34.8384742736816406 13.0313816070556641 -21.3100795745849609
32.0735588073730469 6.47894906997680664 -22.8346748352050781
13.6477642059326172 -28.2764663696289062 14.0358152389526367
32.4146308898925781 -6.56701183319091797 -23.7576618194580078
43.2438545227050781 19.1042022705078125 1.40923476219177246
24.0891017913818359 -27.7704620361328125 2.92714524269104004
-19.0810031890869141 43.8267784118652344 -2.93651652336120605
45.2295570373535156 13.2173662185668945 11.9729328155517578
-63.8490753173828125 -20.5984077453613281 0.719114840030670166
-33.8069801330566406 33.7979812622070312 13.0247535705566406
-22.1976356506347656 45.7739334106445312 11.7965164184570312
30.470977783203125 -19.6240310668945312 17.5370578765869141
29.3948955535888672 13.1349468231201172 -20.0793132781982422
24.6893634796142578 4.72174072265625 -13.5390405654907227
1.4603571891784668 -36.0038871765136719 5.01834249496459961
38.98870849609375 1.90270435810089111 0.682609617710113525
-77.1274795532226562 -14.9949531555175781 5.32587623596191406
-0.604457437992095947 -36.3157196044921875 -7.55355453491210938
0.561107516288757324 -32.9893417358398438 -3.25785303115844727
38.4914054870605469 9.82405281066894531 -23.2670974731445312
-83.734375 -12.2619466781616211 7.54172897338867188
23.7933921813964844 -7.6311187744140625 -11.6798276901245117
-19.9894905090332031 -31.4765968322753906 -3.40745401382446289
-23.8315334320068359 -31.2013397216796875 -5.75950860977172852
-69.3644027709960938 -19.4835758209228516 -11.4928674697875977
