ply
format ascii 1.0
element vertex 783
comment vertices
property float x
property float y
property float z
end_header
-19.9435043334960938 36.388519287109375 11.19537353515625
20.9631805419921875 34.8416748046875 12.0922946929931641
7.99416065216064453 -43.1753959655761719 10.3466434478759766
0.367744654417037964 -5.17313432693481445 -9.8638916015625
-14.1290950775146484 -23.7772388458251953 14.3515958786010742
-7.60569000244140625 -10.7446517944335938 -9.58314609527587891
3.53901529312133789 41.9408798217773438 11.5067167282104492
-18.3768215179443359 -13.3327083587646484 13.5014858245849609
-25.7735691070556641 37.4015426635742188 -6.41023015975952148
-13.8779020309448242 46.3645133972167969 1.55708122253417969
1.58781850337982178 44.87506103515625 -8.62063980102539062
-26.3783130645751953 24.0251445770263672 -7.72614002227783203
14.2347993850708008 18.2479476928710938 12.9283638000488281
-25.9538784027099609 37.6079673767089844 -0.420168966054916382
-10.7332258224487305 7.4378657341003418 12.8814725875854492
26.7226715087890625 -9.22914695739746094 13.6655082702636719
9.12283992767333984 -35.0298538208007812 -7.98928070068359375
-1.91003859043121338 -0.186766549944877625 -10.0335197448730469
2.41721439361572266 40.5031242370605469 -11.9419975280761719
-27.9860706329345703 -14.0407066345214844 12.1463775634765625
-28.3729114532470703 -24.0000514984130859 -0.476643502712249756
28.3857707977294922 11.4258394241333008 2.86712336540222168
14.6248903274536133 -18.2233085632324219 14.575653076171875
6.62685060501098633 -19.4254875183105469 -8.82678508758544922
-28.2010097503662109 -22.1914157867431641 -3.84068632125854492
7.32047224044799805 -19.9171905517578125 -8.76040840148925781
-26.8317070007324219 10.1890630722045898 -5.64394474029541016
18.5700149536132812 -25.2317447662353516 -8.11954402923583984
27.6058025360107422 -4.2010807991027832 6.00650215148925781
1.5422976016998291 32.4399337768554688 11.5167036056518555
-24.7933769226074219 46.1090812683105469 10.5634136199951172
-25.5756511688232422 36.8021430969238281 -10.8822050094604492
-26.74957275390625 18.1595573425292969 4.84594631195068359
-26.7209358215332031 -28.4522056579589844 -8.83644008636474609
-14.9666290283203125 27.3161430358886719 11.7972946166992188
-26.6258602142333984 2.78139734268188477 12.4441947937011719
15.5992622375488281 -44.0293655395507812 -2.05386257171630859
21.3611736297607422 44.7015113830566406 9.93848991394042969
28.8138236999511719 20.1152210235595703 3.41481852531433105
-23.0385589599609375 -36.0777931213378906 14.6737480163574219
8.27723503112792969 15.9240560531616211 12.8788938522338867
-25.4586372375488281 -24.5762443542480469 -8.98489761352539062
-26.3776111602783203 23.9714622497558594 -3.88282203674316406
28.0497608184814453 6.21122217178344727 -4.38611125946044922
25.8323516845703125 -43.7686347961425781 4.83796787261962891
11.895115852355957 -43.8443527221679688 1.3801579475402832
27.4793624877929688 -3.62557244300842285 11.6244697570800781
-25.7423572540283203 25.8929538726806641 -11.1529502868652344
22.9426155090332031 9.26014995574951172 13.4325542449951172
-8.24624729156494141 -42.4070014953613281 10.8738241195678711
-26.8450527191162109 14.4110641479492188 3.14121317863464355
27.5646610260009766 -4.3877410888671875 -1.48842644691467285
-14.6382875442504883 38.85955810546875 -12.1542444229125977
12.6988277435302734 -1.40529513359069824 13.5875492095947266
-9.52032184600830078 1.32082462310791016 12.9681787490844727
-25.2144985198974609 -8.46461296081542969 -9.6057281494140625
8.88665485382080078 3.86283397674560547 -9.93498992919921875
-18.5997486114501953 31.0345268249511719 -11.9104642868041992
-24.2342338562011719 46.3653335571289062 10.3766584396362305
-28.3022842407226562 -26.4001235961914062 -6.13901805877685547
12.1264133453369141 44.2155418395996094 -9.72513294219970703
-7.70880985260009766 -23.0463981628417969 14.3930463790893555
22.9355812072753906 4.44679594039916992 -9.42910861968994141
9.50408363342285156 45.3318061828613281 7.13771867752075195
-27.8330268859863281 -17.065216064453125 -8.33448410034179688
3.15963006019592285 -20.3968162536621094 -8.85296440124511719
27.7413272857666016 -1.30485451221466064 -6.22122669219970703
17.0277767181396484 6.11878871917724609 13.4503889083862305
-7.33511829376220703 45.9312362670898438 9.02994537353515625
0.235893100500106812 30.4103450775146484 11.7190666198730469
2.92400622367858887 -27.5589885711669922 14.9893207550048828
-1.69552671909332275 22.73980712890625 12.2683391571044922
5.41262531280517578 -27.3855171203613281 -8.35942363739013672
19.9468364715576172 -5.6019139289855957 -9.14330387115478516
-12.1934070587158203 -42.8401412963867188 0.541483581066131592
15.0767593383789062 -7.81818628311157227 -9.2653350830078125
29.3064098358154297 30.1135826110839844 -3.8563992977142334
26.7136173248291016 -25.6192817687988281 5.36568880081176758
-4.65639209747314453 -43.2259292602539062 -6.20139122009277344
27.6477870941162109 -2.47562265396118164 -4.55220460891723633
-25.4473934173583984 35.7547721862792969 -11.3064203262329102
11.6371116638183594 -10.6583499908447266 13.9720554351806641
-22.7275104522705078 -20.9602432250976562 -9.13396644592285156
-25.4284572601318359 45.2325210571289062 0.341795802116394043
10.1193351745605469 45.4829521179199219 1.82084667682647705
26.1203346252441406 39.6457481384277344 11.9758615493774414
-28.4566421508789062 -29.5764045715332031 13.3569555282592773
5.11728668212890625 -8.87039470672607422 13.6905860900878906
29.4548072814941406 43.2937965393066406 8.67250347137451172
15.3123540878295898 32.0499343872070312 -11.5487804412841797
27.3702011108398438 -8.69094753265380859 8.43000030517578125
-0.250035345554351807 -31.7913837432861328 15.19281005859375
29.4673404693603516 38.0854148864746094 -7.36348390579223633
6.29963302612304688 -18.893463134765625 14.3589973449707031
9.23973751068115234 -34.3788032531738281 15.4958686828613281
-1.9930720329284668 21.2657413482666016 -11.0769748687744141
6.5214076042175293 -43.6879806518554688 1.14220428466796875
-17.397918701171875 46.1541061401367188 -4.06752300262451172
24.6508426666259766 1.65543925762176514 -9.24101829528808594
16.82122802734375 10.3774070739746094 -9.90758228302001953
0.000744896999094635248 15.3854150772094727 -10.3496694564819336
0.175340250134468079 -35.7185859680175781 -8.04195880889892578
22.7063350677490234 -32.0283164978027344 15.3606367111206055
-6.77643156051635742 43.42620849609375 -11.9337005615234375
-11.6385335922241211 26.5687332153320312 11.9250020980834961
29.214385986328125 27.7065830230712891 -2.92494511604309082
13.7521743774414062 45.0635643005371094 9.30269527435302734
26.4111137390136719 -36.6586532592773438 2.65609502792358398
-11.4534187316894531 -22.1186618804931641 -8.97793197631835938
-27.1226234436035156 7.2611079216003418 8.17366123199462891
20.1443977355957031 18.2048721313476562 13.0793724060058594
-4.27026987075805664 37.2451934814453125 -12.0889396667480469
28.3976058959960938 15.979853630065918 8.54365253448486328
29.3524665832519531 33.4020347595214844 -8.47222423553466797
-27.0546607971191406 8.71621990203857422 1.70926237106323242
-0.0218500439077615738 -24.2859420776367188 -8.65569782257080078
-15.6784152984619141 -32.9753303527832031 14.8404932022094727
-12.1038036346435547 -16.9579620361328125 -9.25032138824462891
29.4735260009765625 40.8667755126953125 -1.16905617713928223
-2.96586823463439941 -11.7721385955810547 -9.56278324127197266
-26.0731544494628906 -39.5422019958496094 -8.31035518646240234
19.4212646484375 -22.2564010620117188 -8.23544788360595703
7.642333984375 35.5905799865722656 11.6674728393554688
-7.19113063812255859 -18.4829425811767578 13.9784975051879883
28.026458740234375 5.4769597053527832 -4.19663810729980469
-25.7640056610107422 -4.96438694000244141 -9.74179840087890625
-23.8097743988037109 6.31147003173828125 12.6346311569213867
-23.5515403747558594 -41.6276283264160156 11.4730844497680664
23.7771835327148438 1.87833797931671143 -9.2923583984375
-15.7454700469970703 39.1234321594238281 11.2296009063720703
3.11763429641723633 -25.9065380096435547 -8.47189426422119141
16.1526470184326172 -43.9159088134765625 2.36980557441711426
-27.3770427703857422 1.1766437292098999 8.30568408966064453
13.3808650970458984 9.36487483978271484 -9.98658943176269531
16.7702178955078125 -34.3766860961914062 -7.81240987777709961
-15.9694271087646484 -42.4147758483886719 7.01401519775390625
-25.8601226806640625 32.1485939025878906 -9.54954147338867188
-14.8117332458496094 33.7846527099609375 -12.0587034225463867
21.6848926544189453 29.6750965118408203 -11.1147489547729492
8.99181365966796875 45.2900505065917969 -3.21382641792297363
-27.5940074920654297 -29.4298782348632812 14.013524055480957
-8.09015464782714844 0.114633463323116302 13.0053634643554688
-9.53468036651611328 7.59080266952514648 -10.3469028472900391
25.4497871398925781 44.7507743835449219 6.0525054931640625
5.25275659561157227 -1.49226784706115723 -9.87842082977294922
12.5771398544311523 17.3657131195068359 -10.1457490921020508
23.6312770843505859 -38.3808212280273438 15.6280908584594727
29.4686546325683594 42.1027030944824219 -1.06898629665374756
-19.99755859375 15.0486316680908203 12.4378414154052734
-11.6344547271728516 -41.958709716796875 13.0058517456054688
-19.8966102600097656 -42.1318397521972656 7.94372272491455078
7.04822778701782227 -10.4717607498168945 -9.42000198364257812
27.2953205108642578 -10.9352550506591797 7.35407495498657227
16.2848091125488281 -43.5722007751464844 8.65834331512451172
-15.3317766189575195 -2.87590289115905762 12.9837179183959961
-20.5367622375488281 -15.9952468872070312 -9.31400680541992188
3.97919631004333496 -43.4682579040527344 4.3941197395324707
-0.0741900429129600525 45.7809219360351562 -0.136109218001365662
-2.50153160095214844 -10.5962343215942383 13.5099916458129883
-27.9326972961425781 -12.5779314041137695 5.30638504028320312
-23.1127719879150391 1.0724109411239624 -10.0376577377319336
-15.7495479583740234 46.3844108581542969 6.29901647567749023
-20.0511207580566406 46.4935417175292969 0.90349423885345459
26.7401657104492188 -29.7848625183105469 -5.53231954574584961
0.51531517505645752 -32.4844474792480469 -8.15294170379638672
27.7856807708740234 0.692783117294311523 -3.70041275024414062
-12.1775531768798828 -6.92911195755004883 -9.77496623992919922
9.33595848083496094 -36.75848388671875 15.5499763488769531
25.7139892578125 -37.3958511352539062 -7.16048622131347656
18.7377986907958984 45.1502647399902344 3.58808302879333496
27.2010707855224609 -13.1520156860351562 7.09587240219116211
-25.1169795989990234 28.2935523986816406 -11.5727272033691406
-23.3896160125732422 -25.8774929046630859 14.1387109756469727
18.2358455657958984 -30.3471660614013672 -7.85883092880249023
11.8296871185302734 24.6103153228759766 12.5087366104125977
16.0982398986816406 -43.0374679565429688 14.433476448059082
-23.8415374755859375 -10.9794464111328125 -9.51602935791015625
14.3135404586791992 11.8674602508544922 13.1876258850097656
20.7834320068359375 -0.201900690793991089 13.6165990829467773
27.6117725372314453 -3.61835098266601562 4.88516330718994141
-25.8832340240478516 20.6474342346191406 -10.2091464996337891
3.62420153617858887 -41.4109992980957031 15.4061756134033203
28.9119358062744141 27.72314453125 5.84265708923339844
26.0654029846191406 -14.2793655395507812 -8.30893516540527344
-2.06967902183532715 -27.1012763977050781 14.8055143356323242
-3.5201261043548584 -12.0958547592163086 -9.53725624084472656
-20.9617538452148438 -41.1602821350097656 -8.22307491302490234
-5.26343488693237305 -21.506866455078125 -8.93368625640869141
27.0872097015380859 -19.9985294342041016 -7.01385974884033203
3.57241368293762207 -7.94954919815063477 -9.69373703002929688
-24.1840839385986328 10.9948797225952148 -10.4794330596923828
-24.3462085723876953 -29.6027145385742188 14.2554931640625
-11.0219888687133789 -10.4713449478149414 -9.5731658935546875
-12.9999780654907227 -42.4773216247558594 7.85020685195922852
-25.8443660736083984 38.0962295532226562 -3.00087308883666992
-1.45644748210906982 -22.7550735473632812 -8.76350593566894531
1.11591410636901855 -41.2425613403320312 15.361506462097168
-18.0626583099365234 46.2057228088378906 -3.65393352508544922
29.0676689147949219 27.7035560607910156 3.72700691223144531
-0.587555229663848877 8.44756698608398438 -10.257843017578125
-10.305302619934082 -27.9211139678955078 -8.67841720581054688
14.5852060317993164 -41.764556884765625 -7.50371980667114258
-22.7116966247558594 46.6308746337890625 5.74296712875366211
-9.79833698272705078 -13.3547906875610352 13.5477924346923828
4.37349843978881836 -12.7422695159912109 13.8539705276489258
3.41644406318664551 -29.2072296142578125 -8.30269050598144531
6.50937414169311523 42.2885627746582031 -11.7750272750854492
-28.6360397338867188 -34.262420654296875 -6.72433042526245117
17.0574378967285156 7.26822948455810547 -9.79666233062744141
11.3718671798706055 -30.7152652740478516 15.3267784118652344
2.19976449012756348 38.8665313720703125 -11.9750375747680664
-12.5796689987182617 -35.9723281860351562 -8.37396621704101562
-25.9896736145019531 34.8751907348632812 -3.75141739845275879
-11.5481243133544922 35.8498916625976562 11.2639026641845703
-3.22934412956237793 -34.1573753356933594 -8.18811798095703125
29.4718475341796875 39.8740692138671875 -2.63137030601501465
2.44617962837219238 -9.55221271514892578 -9.6598358154296875
-26.9495887756347656 14.0241861343383789 4.69736003875732422
16.8348026275634766 24.0493106842041016 12.63922119140625
26.2258930206298828 -37.069061279296875 10.9870147705078125
-11.1620054244995117 -26.5023841857910156 -8.75214576721191406
25.9556140899658203 -40.0607032775878906 12.6169595718383789
16.3291492462158203 24.0520305633544922 12.6189203262329102
7.61853170394897461 -1.71645271778106689 13.4132328033447266
29.4222984313964844 40.3806991577148438 3.99733424186706543
23.3532657623291016 -1.30818915367126465 -9.16788005828857422
25.0718231201171875 3.32508468627929688 -9.28887081146240234
-25.8760509490966797 13.7491683959960938 -10.5019617080688477
-21.0904464721679688 -30.1450595855712891 -8.74009037017822266
-26.3963871002197266 28.7951774597167969 3.25007319450378418
-5.10420656204223633 -11.2219171524047852 13.4887914657592773
0.315129011869430542 21.7488136291503906 12.3387451171875
12.4754762649536133 11.6217050552368164 -10.0454092025756836
11.3380413055419922 -12.1922664642333984 14.0520181655883789
-25.2202186584472656 -22.8449382781982422 -9.05428981781005859
-14.5363550186157227 27.7658958435058594 11.7840890884399414
-17.8969135284423828 -9.38619136810302734 13.2433977127075195
-24.4175281524658203 -37.43182373046875 -8.44121932983398438
27.7231769561767578 1.31331801414489746 -6.93403911590576172
11.9243812561035156 8.84729862213134766 -9.99072742462158203
26.8515815734863281 -26.1424503326416016 -3.52089357376098633
-4.9324803352355957 29.3445968627929688 11.7677383422851562
-16.2137203216552734 46.3599281311035156 7.64277410507202148
9.72897911071777344 -16.6167488098144531 -8.91639804840087891
-26.8157672882080078 7.84248065948486328 -9.58586502075195312
23.8890056610107422 43.6229515075683594 -10.2271041870117188
-17.6065864562988281 14.1573266983032227 -10.6470651626586914
12.0715570449829102 37.7069511413574219 -11.8077306747436523
-3.58724308013916016 14.9030055999755859 -10.4093914031982422
28.0340824127197266 5.82788944244384766 -2.45271396636962891
4.72438669204711914 -16.7633495330810547 14.1684780120849609
29.1979770660400391 27.0117645263671875 -3.50954651832580566
6.73638439178466797 10.8656120300292969 13.0712089538574219
-18.8013668060302734 -42.7071151733398438 -6.4438633918762207
-3.47667217254638672 45.3609848022460938 -6.79122066497802734
-11.5249366760253906 46.0039749145507812 -3.29472565650939941
5.23509407043457031 12.8965911865234375 12.9220829010009766
-27.4507293701171875 1.47270667552947998 11.1963129043579102
-5.5026249885559082 34.0984115600585938 -12.0544233322143555
10.6853179931640625 20.6155719757080078 -10.6921491622924805
18.7642135620117188 -44.1202964782714844 -3.01339602470397949
-25.0877418518066406 45.1974716186523438 -10.9875984191894531
-26.4091587066650391 23.3560142517089844 -8.22455406188964844
-18.2808914184570312 -41.1636848449707031 -8.16177272796630859
28.2049274444580078 10.1533107757568359 6.93382501602172852
-28.9569129943847656 -39.5853805541992188 6.43219852447509766
8.87617397308349609 45.0689468383789062 10.5427703857421875
-2.26757049560546875 37.1195068359375 -12.0622091293334961
21.2445869445800781 -36.7199249267578125 15.6462087631225586
-24.1528453826904297 46.6880035400390625 3.70091938972473145
28.3304843902587891 12.2564516067504883 -6.88057518005371094
-3.95302128791809082 -42.0900726318359375 14.3409080505371094
-13.701664924621582 -25.5824775695800781 -8.83802127838134766
-23.3338031768798828 -35.5838890075683594 14.6445064544677734
28.8741931915283203 44.7675132751464844 4.19149017333984375
-8.97963428497314453 -41.0394020080566406 15.1160421371459961
8.59060192108154297 -11.4246158599853516 -9.29757404327392578
-15.7646703720092773 -7.36411523818969727 -9.71233749389648438
-23.7184581756591797 40.2984542846679688 10.9812994003295898
15.2724199295043945 -20.8284549713134766 -8.44332313537597656
-4.1072077751159668 4.9785003662109375 13.0305500030517578
4.71321916580200195 45.5809211730957031 5.96481657028198242
-26.7558822631835938 10.8651418685913086 -7.66164827346801758
3.96060657501220703 13.4773674011230469 12.8636989593505859
24.9450664520263672 -2.54669594764709473 13.7490682601928711
-10.0838804244995117 -8.73907756805419922 -9.6372222900390625
13.4009943008422852 6.48418474197387695 13.3698883056640625
7.59390544891357422 -43.7339897155761719 -2.69436454772949219
-28.3287391662597656 -20.2056159973144531 8.18271732330322266
0.881618797779083252 -39.0987968444824219 15.4094085693359375
16.7658195495605469 25.3408679962158203 12.5418720245361328
1.53680634498596191 26.5187187194824219 12.0992412567138672
2.41412162780761719 -18.7716922760009766 -8.97048377990722656
-28.8903255462646484 -37.7569389343261719 8.91197872161865234
-22.8344039916992188 -30.4400596618652344 14.3950414657592773
13.9170856475830078 15.4412736892700195 13.0366268157958984
4.4448237419128418 16.9192028045654297 12.7068758010864258
-26.6298904418945312 18.5123538970947266 0.0133210066705942154
26.5403289794921875 -32.7729568481445312 2.46399092674255371
17.2081489562988281 44.5425987243652344 11.1252069473266602
-7.46255922317504883 -16.7720527648925781 13.8365602493286133
-22.6206169128417969 -41.8896636962890625 8.98755741119384766
-18.4391269683837891 37.22998046875 -12.1352567672729492
16.7324848175048828 -4.47364616394042969 -9.35035228729248047
-6.0482635498046875 9.19986057281494141 -10.3456087112426758
29.0799198150634766 24.4470100402832031 3.48788166046142578
23.272186279296875 -44.24737548828125 -4.35744428634643555
1.88823938369750977 45.6564598083496094 7.00336885452270508
-15.4163436889648438 35.5777969360351562 11.1998014450073242
22.0939617156982422 -4.08852720260620117 -9.12461566925048828
-27.4544734954833984 1.29762434959411621 10.5209941864013672
-25.5381908416748047 43.3797187805175781 2.8824772834777832
-26.8044605255126953 4.44299840927124023 -9.69670486450195312
-22.0936450958251953 13.5010976791381836 -10.6231145858764648
-14.4885396957397461 46.0643348693847656 -3.77588033676147461
-25.9946765899658203 35.7611961364746094 -2.0823357105255127
-2.7687678337097168 17.5752792358398438 -10.4155378341674805
25.9256515502929688 -38.3234786987304688 14.6505861282348633
-25.5170955657958984 43.8607101440429688 3.95751619338989258
15.9192390441894531 25.8233852386474609 12.519658088684082
-10.9415760040283203 40.7940483093261719 -12.1130075454711914
-18.1543159484863281 -30.7262382507324219 -8.70585346221923828
-14.9210796356201172 18.2478790283203125 12.4464225769042969
-23.9760704040527344 43.5001754760742188 -12.2101964950561523
-6.20166730880737305 33.5572547912597656 -12.0522527694702148
-11.1850042343139648 -2.13636326789855957 12.9925031661987305
1.15969944000244141 -17.7503108978271484 -9.085205078125
0.0142347654327750206 39.0619468688964844 11.512944221496582
27.2455310821533203 -15.4371118545532227 -5.63852787017822266
-3.42706942558288574 -42.0703620910644531 14.4767217636108398
29.4409637451171875 41.5178031921386719 2.82533502578735352
0.810079455375671387 5.1057581901550293 13.1580095291137695
25.6735134124755859 44.8023109436035156 5.51091337203979492
-1.6103823184967041 14.7839040756225586 -10.3751859664916992
-4.13653182983398438 -2.85395288467407227 13.1547336578369141
29.1113262176513672 33.7245826721191406 9.39074993133544922
14.5006046295166016 -5.17696619033813477 -9.4137420654296875
10.9558439254760742 -43.7818565368652344 2.9914705753326416
20.3641738891601562 -43.7672042846679688 6.89484643936157227
5.72146463394165039 29.0753002166748047 -11.6402034759521484
15.1567373275756836 -24.9089279174804688 15.0076160430908203
-3.32003545761108398 0.996026694774627686 13.0906143188476562
9.51389884948730469 24.4324417114257812 -11.1466732025146484
-26.5282173156738281 21.2793788909912109 -2.54887819290161133
-5.03247213363647461 -24.5867843627929688 -8.73581600189208984
-4.11217403411865234 -33.3802490234375 -8.24434757232666016
28.8407917022705078 25.3792896270751953 10.2661046981811523
17.9226169586181641 9.37909889221191406 13.3845462799072266
16.6278285980224609 43.8444976806640625 11.5221691131591797
14.3353357315063477 -6.36365699768066406 -9.37151336669921875
-27.7992401123046875 -10.781041145324707 4.1936793327331543
-8.52705860137939453 23.7880134582519531 12.1505622863769531
13.0601577758789062 37.1652336120605469 -11.7820672988891602
2.63030028343200684 -31.71002197265625 -8.18432998657226562
-12.1780071258544922 -2.05032801628112793 -10.0077438354492188
-1.59892797470092773 32.2516517639160156 -11.9582786560058594
-26.5622596740722656 21.0494346618652344 -1.39158010482788086
14.5423927307128906 -43.7957763671875 4.50031375885009766
4.0531306266784668 15.3786754608154297 -10.2714462280273438
-15.0584640502929688 -31.5465450286865234 14.7877931594848633
-6.3080143928527832 33.4996109008789062 11.2364082336425781
-27.43743896484375 -38.4299850463867188 -8.44939041137695312
-24.1773757934570312 45.7168197631835938 -10.071599006652832
-19.8794345855712891 46.4747161865234375 7.72292089462280273
-7.03276443481445312 -43.0425491333007812 1.6780468225479126
7.83781576156616211 45.3685646057128906 7.71363639831542969
15.9626264572143555 -35.0297508239746094 -7.82262325286865234
-9.64415168762207031 -3.71242380142211914 13.0461835861206055
18.7453536987304688 -21.2192630767822266 -8.30774974822998047
7.57636547088623047 34.2844047546386719 11.6319665908813477
13.7780065536499023 7.80307817459106445 13.3485565185546875
-12.3399219512939453 0.538105249404907227 -10.0988330841064453
27.0053157806396484 -21.4732570648193359 0.45114096999168396
-11.8966550827026367 43.1569061279296875 11.1820278167724609
29.2767238616943359 34.3177070617675781 4.53215265274047852
-21.0766983032226562 -39.3046722412109375 -8.29590988159179688
25.1888103485107422 -27.4163837432861328 15.1296329498291016
21.3577976226806641 11.5323410034179688 13.3413496017456055
22.3312301635742188 37.7692337036132812 12.018153190612793
-16.1241493225097656 43.7929573059082031 11.0814418792724609
20.0093173980712891 34.4339828491210938 12.0399312973022461
-12.8559951782226562 -13.4030294418334961 -9.417327880859375
-27.2774009704589844 1.08612394332885742 2.9027557373046875
-15.2869129180908203 46.3999519348144531 5.08540153503417969
27.6538333892822266 -2.31682825088500977 -6.40288925170898438
-19.5557689666748047 -38.6789436340332031 14.8993158340454102
27.1014919281005859 10.1511125564575195 13.3236207962036133
-23.8528556823730469 26.1464061737060547 -11.5577192306518555
28.4079380035400391 13.5377349853515625 -4.47721958160400391
16.8298664093017578 -28.9810733795166016 15.272303581237793
-0.111010469496250153 -43.3238410949707031 2.59171080589294434
16.1102123260498047 -32.9577903747558594 15.473933219909668
-16.0367965698242188 31.6615753173828125 -11.9763422012329102
-15.7406435012817383 -42.698394775390625 0.679993569850921631
14.4328069686889648 45.199127197265625 -1.64872372150421143
-9.92770576477050781 21.6369075775146484 -11.2999200820922852
-27.0945034027099609 9.30127334594726562 10.2817163467407227
-7.31286334991455078 43.735992431640625 -11.9188690185546875
6.14042377471923828 -34.0944938659667969 15.4186000823974609
-23.1941318511962891 -42.3295364379882812 1.70313441753387451
27.4417476654052734 -7.79230260848999023 4.93827724456787109
-6.71838235855102539 46.0645179748535156 0.251005113124847412
-5.97979640960693359 0.463205695152282715 13.0285501480102539
6.002410888671875 -43.6316032409667969 -1.52448749542236328
-12.0699605941772461 -32.7712211608886719 -8.48654270172119141
-6.20737695693969727 1.92302298545837402 -10.1361656188964844
-15.3391885757446289 -42.0465583801269531 11.0210790634155273
23.6585903167724609 -23.1218738555908203 -7.99589014053344727
3.51235842704772949 -23.2137889862060547 14.6389923095703125
27.0555515289306641 5.81440401077270508 13.4251689910888672
-6.72883892059326172 -32.6393699645996094 -8.32781982421875
-28.4909706115722656 -23.3415908813476562 6.94162273406982422
1.28783762454986572 21.6598606109619141 -11.0789518356323242
-14.7382612228393555 -39.5331192016601562 15.0762357711791992
8.61333751678466797 -5.0278019905090332 13.557673454284668
-22.2290172576904297 -38.682647705078125 14.8250598907470703
-22.4401893615722656 -19.0943584442138672 -9.20745563507080078
4.2615056037902832 -38.6046562194824219 -7.88200235366821289
24.3230056762695312 -15.006251335144043 14.5733203887939453
2.65663719177246094 -39.7983474731445312 15.4351129531860352
-5.32650089263916016 45.9373931884765625 -1.47669374942779541
28.097900390625 33.5829963684082031 12.1654682159423828
-25.4184131622314453 42.4505577087402344 -6.34789848327636719
20.0677833557128906 -35.8633193969726562 15.5801239013671875
-21.9313621520996094 -41.6966209411621094 11.3252849578857422
7.81933116912841797 -42.5541000366210938 -7.60098886489868164
4.60895252227783203 -15.0677433013916016 -9.22403144836425781
-6.67070484161376953 17.6112136840820312 12.5200643539428711
4.0356440544128418 45.3163642883300781 -4.7456355094909668
-8.89230537414550781 -15.7856903076171875 13.7712841033935547
28.4924449920654297 16.1584281921386719 -7.07701015472412109
18.8538532257080078 -1.46326792240142822 -9.39238166809082031
-12.5417165756225586 46.3259963989257812 4.473907470703125
-18.2425937652587891 -24.2896327972412109 -8.98058032989501953
-11.9597530364990234 43.367218017578125 -12.0459680557250977
7.04940605163574219 -43.7084693908691406 -1.49396359920501709
-26.867431640625 13.2809085845947266 6.98312139511108398
28.7271327972412109 18.7711029052734375 -0.225093334913253784
-14.1047496795654297 7.14170932769775391 -10.3812360763549805
10.4645166397094727 -14.6422433853149414 14.1864557266235352
5.80222654342651367 -10.6667842864990234 13.8002815246582031
-1.15438055992126465 -28.6169662475585938 14.9313077926635742
26.5871772766113281 -32.420013427734375 1.97464656829833984
-9.00284481048583984 14.9404592514038086 12.6178932189941406
-24.4395751953125 14.4503650665283203 12.3388471603393555
-16.8688716888427734 26.1215457916259766 11.9144315719604492
-17.8720912933349609 20.7241592407226562 12.1883955001831055
6.82675933837890625 44.6833648681640625 -8.49044990539550781
-17.6556129455566406 -26.0042457580566406 14.3886623382568359
-22.3891448974609375 46.6215438842773438 5.12044477462768555
-28.8116989135742188 -29.5966014862060547 7.88863658905029297
16.0481739044189453 -36.2887153625488281 -7.77179813385009766
12.7774591445922852 -19.1960296630859375 14.6024017333984375
-19.9679756164550781 32.8930130004882812 -11.9669103622436523
9.83655548095703125 40.538299560546875 -11.7954750061035156
-23.6242504119873047 16.0161037445068359 -10.7290124893188477
0.60590440034866333 4.56883049011230469 -10.1922731399536133
-15.1289215087890625 5.31456613540649414 -10.3065729141235352
-14.2452430725097656 -41.8788414001464844 12.6255998611450195
3.69296693801879883 41.1971054077148438 -11.8680849075317383
-25.05950927734375 -29.9396228790283203 14.2340250015258789
27.2903385162353516 -7.4300837516784668 -8.22330474853515625
-25.4121665954589844 45.0509223937988281 -4.00630378723144531
19.6911048889160156 31.9703922271728516 12.0493354797363281
-26.3196563720703125 6.47044563293457031 12.4374361038208008
-14.1734762191772461 6.70349836349487305 12.8330068588256836
15.0605306625366211 26.9789180755615234 12.415369987487793
-28.2291851043701172 -24.587249755859375 -6.54024791717529297
-28.1613883972167969 -17.1991901397705078 7.98638486862182617
-25.8825569152832031 -36.0110511779785156 -8.49681377410888672
15.1852531433105469 45.1020774841308594 8.10855960845947266
-24.8816699981689453 39.6435508728027344 -11.96990966796875
0.151465937495231628 13.9354677200317383 12.7945289611816406
9.35145759582519531 23.3057022094726562 -11.0173568725585938
-19.1401691436767578 33.1167335510253906 11.3095130920410156
-11.5393686294555664 2.58527207374572754 -10.1808919906616211
-1.77183330059051514 -37.4899330139160156 15.3383064270019531
19.9082565307617188 23.9930934906005859 -10.8280162811279297
8.40389537811279297 -35.8661308288574219 15.5033092498779297
-3.85153555870056152 -19.6246414184570312 -9.03978252410888672
-12.3456506729125977 -9.92713832855224609 -9.61272525787353516
21.5354728698730469 44.5849075317382812 -4.96303844451904297
-26.3424510955810547 33.1808319091796875 5.20566749572753906
13.2298202514648438 -15.6933393478393555 14.3957462310791016
27.4057388305664062 -10.0857763290405273 -5.48973560333251953
2.22278714179992676 -3.18002605438232422 13.3344898223876953
-18.2818984985351562 -38.781707763671875 14.9638814926147461
-26.3841476440429688 19.9227390289306641 -6.52780437469482422
26.6201801300048828 -32.497955322265625 -3.19943094253540039
19.4531192779541016 -43.267120361328125 13.3056430816650391
19.9840412139892578 18.9235649108886719 -10.306671142578125
17.5529842376708984 27.9875431060791016 -11.2045345306396484
13.5752315521240234 15.0069913864135742 -10.1582317352294922
21.2381019592285156 -31.2548618316650391 -7.7462153434753418
-27.9657230377197266 -12.8350162506103516 9.91932773590087891
-9.88856029510498047 -28.4210548400878906 -8.65488529205322266
6.31350994110107422 -23.5861549377441406 14.7215232849121094
-16.1830730438232422 -20.6222496032714844 14.0217599868774414
-12.1972532272338867 5.07294654846191406 12.9015474319458008
12.7508478164672852 -33.7362937927246094 -7.93168783187866211
-7.0387568473815918 -42.9498481750488281 -3.2133629322052002
-15.196803092956543 40.3641395568847656 -12.1639566421508789
29.2561435699462891 32.0202064514160156 4.02060747146606445
28.2551536560058594 8.70896339416503906 1.30036294460296631
-23.2993011474609375 23.9881610870361328 -11.4673624038696289
-28.0949745178222656 -15.9327507019042969 5.74669551849365234
17.3044776916503906 -44.0838584899902344 -6.06492519378662109
11.5316019058227539 45.1403961181640625 -3.93201684951782227
27.9641876220703125 8.73920822143554688 -8.63920974731445312
-16.0746860504150391 46.2577972412109375 9.54405784606933594
-25.4944915771484375 -41.8929710388183594 7.41977596282958984
28.9967250823974609 27.3934535980224609 9.31357955932617188
-23.9591503143310547 -40.7983627319335938 -8.27472305297851562
16.3723163604736328 -44.068206787109375 -4.68081188201904297
29.4889621734619141 37.6551780700683594 -4.72661256790161133
-2.81316423416137695 -15.4572277069091797 -9.33986091613769531
27.6675624847412109 -2.23283815383911133 4.9288640022277832
-0.230385556817054749 4.29926776885986328 -10.1876726150512695
26.671478271484375 -18.9262142181396484 13.2566366195678711
-17.7687225341796875 46.4662055969238281 2.34920120239257812
20.9857864379882812 -43.9765663146972656 3.11526370048522949
-7.07232809066772461 -4.5873112678527832 -9.87423801422119141
0.156435444951057434 36.7348823547363281 -12.0199794769287109
-3.9994652271270752 -11.5985746383666992 13.5442981719970703
-27.7355270385742188 -11.251800537109375 -2.93945884704589844
28.0041370391845703 5.08917951583862305 6.99475765228271484
27.4895725250244141 -6.27518939971923828 -1.63278889656066895
-2.2180945873260498 45.918975830078125 2.27829957008361816
0.181418538093566895 -14.0681047439575195 13.7902870178222656
-3.67338085174560547 45.2198028564453125 -7.9228367805480957
-24.8492355346679688 -38.1122207641601562 -8.38760948181152344
18.0834121704101562 -12.7538471221923828 -8.83287715911865234
-6.57310867309570312 17.3576335906982422 12.5266513824462891
26.1487636566162109 12.013819694519043 -9.64498996734619141
7.28551626205444336 4.47591638565063477 -10.0332822799682617
-25.8394966125488281 34.9611434936523438 -7.35763883590698242
-0.429685413837432861 -42.7142906188964844 -7.69924640655517578
6.99828243255615234 -38.469451904296875 15.5242767333984375
-18.2920093536376953 14.9319877624511719 12.4733304977416992
-2.05473899841308594 43.5500717163085938 11.3197669982910156
-18.4621963500976562 37.1430320739746094 -12.1305818557739258
-17.4696712493896484 30.2774238586425781 11.5453557968139648
9.66997528076171875 -26.2939815521240234 15.0119867324829102
26.207000732421875 -18.5093040466308594 14.2972650527954102
-27.4999828338623047 -6.55725288391113281 -6.25336885452270508
-27.7691459655761719 -9.08066177368164062 8.12644290924072266
-29.0621566772460938 -36.9355239868164062 12.7628908157348633
6.48515415191650391 -43.648284912109375 -0.529400169849395752
5.44157171249389648 35.5128555297851562 11.5881471633911133
19.3173904418945312 -19.6610698699951172 14.7638731002807617
27.7295856475830078 -1.71330296993255615 -0.00550052104517817497
-9.77248191833496094 -42.8863372802734375 -0.253714531660079956
4.44097328186035156 -21.1808986663818359 14.531280517578125
-28.1402645111083984 -16.9080657958984375 5.47374534606933594
20.758697509765625 43.8184890747070312 -10.0325145721435547
25.0937709808349609 -16.8190498352050781 14.6755208969116211
-15.301483154296875 -20.7172813415527344 14.0616750717163086
28.2338943481445312 10.5136528015136719 7.0142674446105957
-20.7112693786621094 7.36720132827758789 12.6838617324829102
-26.6858272552490234 18.1463432312011719 8.96557426452636719
27.6150550842285156 -3.72463059425354004 5.07879066467285156
-7.82697820663452148 0.375943273305892944 13.0019865036010742
26.5465717315673828 -30.7357559204101562 6.50076961517333984
-23.2137966156005859 7.67766952514648438 12.6233749389648438
16.2589797973632812 35.8940048217773438 11.9321985244750977
6.25850486755371094 -41.0231399536132812 15.4519214630126953
24.6573944091796875 -26.0492839813232422 -7.80707502365112305
1.64254546165466309 45.0398597717285156 -7.56997585296630859
4.33297824859619141 44.3997421264648438 11.3535642623901367
-12.088007926940918 25.5167217254638672 -11.6866035461425781
8.4491119384765625 -29.4633159637451172 -8.20747470855712891
-25.2817802429199219 9.83665370941162109 -10.4081888198852539
-1.04344034194946289 -10.0276098251342773 -9.65722179412841797
4.55161762237548828 -29.2001514434814453 15.09149169921875
-26.6500968933105469 14.2757730484008789 -5.88535833358764648
-15.787074089050293 -29.2117404937744141 14.6437816619873047
-15.48602294921875 -25.8473091125488281 -8.85148906707763672
-18.1932582855224609 -6.30554676055908203 -9.74802684783935547
-12.5726766586303711 3.84217143058776855 12.9160709381103516
24.9197235107421875 -40.8191909790039062 15.7310047149658203
22.2300815582275391 44.404815673828125 -5.99955224990844727
10.6524639129638672 -17.9300918579101562 -8.78054523468017578
-0.102285847067832947 1.69725334644317627 13.1861028671264648
18.6672344207763672 -19.3680667877197266 14.7350797653198242
24.0734653472900391 -43.8496513366699219 6.69258356094360352
-5.85271310806274414 41.6062774658203125 -12.0244207382202148
-19.5908279418945312 46.0229835510253906 -6.08210849761962891
-25.9850654602050781 33.9886589050292969 -5.05034112930297852
28.3924083709716797 11.6230106353759766 0.416725605726242065
6.6797184944152832 -5.5449671745300293 13.5442714691162109
-27.2944431304931641 -15.3613576889038086 13.3574323654174805
-12.0507612228393555 -3.64375543594360352 -9.94146442413330078
-1.85773587226867676 -32.074462890625 -8.22279167175292969
18.4137897491455078 23.4295024871826172 12.7109365463256836
7.83444070816040039 -30.6215496063232422 15.2863235473632812
-13.1392307281494141 -14.4909496307373047 -9.36575508117675781
-27.3081111907958984 2.78410649299621582 7.88507986068725586
11.2445335388183594 5.92479562759399414 -9.92807769775390625
-22.2879734039306641 35.9656791687011719 11.1614151000976562
-25.4669399261474609 42.7234535217285156 -3.29588937759399414
-28.7314739227294922 -35.4351615905761719 2.29291200637817383
-17.2461795806884766 28.1108226776123047 11.7388505935668945
-28.7848701477050781 -29.8296146392822266 12.8241825103759766
-4.04639816284179688 0.722619533538818359 13.0654382705688477
-28.2902812957763672 -37.3037910461425781 14.2813310623168945
-28.7072906494140625 -39.8931045532226562 -2.29633903503417969
-4.06958150863647461 7.82794761657714844 12.9971141815185547
-11.7460927963256836 15.3316164016723633 12.5812540054321289
20.8434219360351562 31.9987220764160156 12.1035318374633789
17.0649280548095703 -13.2873897552490234 -8.86174201965332031
25.0078716278076172 -44.2270164489746094 -1.3424447774887085
14.009312629699707 -3.89239835739135742 -9.506683349609375
0.512404561042785645 42.2649192810058594 11.4452095031738281
0.539344966411590576 13.7652406692504883 12.8161325454711914
9.33725166320800781 -40.8757476806640625 15.5413665771484375
-2.97450542449951172 45.6659049987792969 -3.76354694366455078
25.3752269744873047 44.31866455078125 -6.04914045333862305
-23.1718273162841797 -10.1761236190795898 13.3063411712646484
-27.7952346801757812 -13.2871723175048828 -3.91347789764404297
-16.0328006744384766 28.2689037322998047 -11.8543224334716797
5.10033941268920898 -40.0407638549804688 15.471308708190918
29.1057167053222656 23.4105854034423828 -5.90546894073486328
-10.9475574493408203 5.99058008193969727 12.8912286758422852
-28.6923065185546875 -39.5226097106933594 -1.14468860626220703
11.194636344909668 -19.7671546936035156 -8.64622879028320312
-5.04825305938720703 -42.55596923828125 10.9251899719238281
-21.654083251953125 -26.5600471496582031 -8.91720294952392578
0.960136473178863525 -24.8476123809814453 14.6952390670776367
-25.7070980072021484 35.5032958984375 -9.16228675842285156
27.9869651794433594 5.21846246719360352 7.86327886581420898
-3.38323569297790527 -21.5591697692871094 -8.91160011291503906
-10.9406156539916992 46.2577667236328125 4.52566432952880859
-17.9793262481689453 8.17636013031005859 -10.4104833602905273
26.2125091552734375 44.7759971618652344 -0.607845127582550049
6.93017148971557617 -41.3060874938964844 -7.71772146224975586
6.80193948745727539 -43.6741104125976562 -1.31382930278778076
3.7490546703338623 11.2129983901977539 -10.2566661834716797
27.4142322540283203 37.4118194580078125 12.0915098190307617
-4.15757322311401367 45.3906936645507812 -6.7528233528137207
-28.3297634124755859 -29.77569580078125 13.5494308471679688
-28.6321868896484375 -41.4081382751464844 2.62587690353393555
26.4435691833496094 -37.8538017272949219 -3.82094120979309082
26.4667434692382812 -34.6478233337402344 1.26384782791137695
1.03077268600463867 -9.98036479949951172 13.5744419097900391
-0.0760751217603683472 5.72815942764282227 -10.2140655517578125
-19.744110107421875 1.55121886730194092 -10.1183052062988281
4.11819601058959961 40.4387702941894531 -11.9114246368408203
-9.49903678894042969 25.1229972839355469 -11.6480464935302734
28.1524219512939453 12.3574848175048828 -8.02323722839355469
19.9909172058105469 44.4310150146484375 11.1507778167724609
26.9427833557128906 -20.1342315673828125 7.58576011657714844
-27.0754585266113281 4.50745773315429688 -5.90265321731567383
-10.3295526504516602 45.6197547912597656 -6.63028669357299805
15.9928340911865234 27.5000114440917969 12.4154987335205078
26.7451057434082031 -27.9604568481445312 1.92981982231140137
-20.132171630859375 -5.12714290618896484 -9.79223823547363281
16.7599010467529297 45.2239608764648438 4.38274955749511719
-23.1394233703613281 -33.4889144897460938 14.5609502792358398
-25.3741950988769531 44.6241073608398438 -5.0975947380065918
-7.82368898391723633 8.00292015075683594 -10.3358573913574219
-8.2121734619140625 -40.9406661987304688 15.1381301879882812
7.21424674987792969 -11.6281328201293945 -9.35071086883544922
-26.5443115234375 16.8278141021728516 -5.29411125183105469
-20.9529457092285156 10.6529388427734375 12.5697669982910156
23.2622795104980469 44.8433647155761719 -0.745492994785308838
-28.7809181213378906 -27.6368408203125 10.2972879409790039
26.7253265380859375 -23.48138427734375 9.396728515625
-25.9126396179199219 30.1942996978759766 -10.2809333801269531
-26.2868328094482422 25.5693759918212891 -8.23112106323242188
25.8155708312988281 -43.2061882019042969 5.63057804107666016
-13.0971012115478516 46.2896041870117188 6.59106922149658203
12.6868000030517578 36.9368247985839844 -11.7839193344116211
28.630279541015625 17.0530967712402344 1.10901558399200439
-13.5554981231689453 46.1655807495117188 9.35437393188476562
28.0156097412109375 7.15027713775634766 9.07608985900878906
5.99221897125244141 -35.5036125183105469 -7.98912572860717773
28.3705577850341797 17.6218585968017578 10.7682151794433594
-7.80204629898071289 44.896759033203125 -10.7301206588745117
-10.7449674606323242 -4.4599452018737793 13.0421895980834961
20.9925136566162109 -23.023040771484375 14.9751758575439453
24.7962417602539062 44.5128974914550781 -4.34206819534301758
25.7517204284667969 -33.0142631530761719 14.865513801574707
25.6129913330078125 18.5361614227294922 -10.1814022064208984
5.21519947052001953 -11.5019397735595703 -9.45605373382568359
-15.0348958969116211 -16.10723876953125 -9.29743289947509766
-28.3353328704833984 -23.0049419403076172 -2.01053094863891602
26.8299598693847656 -21.8057003021240234 8.6548919677734375
-26.9524402618408203 7.3301396369934082 -5.31519746780395508
27.3017787933349609 -13.7080297470092773 -2.86507630348205566
27.2868976593017578 -13.8010797500610352 -4.28653478622436523
-7.99408292770385742 46.0272216796875 -1.38239932060241699
29.4574985504150391 36.3798980712890625 -3.79457330703735352
-23.7293720245361328 -34.861419677734375 -8.57243156433105469
-4.96794462203979492 32.902740478515625 -12.0181179046630859
7.69117259979248047 40.0302886962890625 11.6375513076782227
-18.5357990264892578 46.295623779296875 -2.39027667045593262
-25.4085884094238281 42.8050689697265625 -6.08035469055175781
-27.8686904907226562 -15.6512222290039062 -5.54401540756225586
-27.6071186065673828 -6.05356216430664062 3.14174771308898926
17.9914665222167969 -32.8502540588378906 -7.7892298698425293
17.9861583709716797 -10.1439657211303711 14.1439170837402344
-27.6577110290527344 -8.25616741180419922 1.98046374320983887
-14.3143339157104492 25.1748600006103516 11.9694576263427734
-12.8502349853515625 46.0849113464355469 9.93641281127929688
1.92338645458221436 -41.5980682373046875 -7.75358724594116211
27.6427230834960938 -2.99418735504150391 -3.84957027435302734
-6.79276084899902344 21.22802734375 -11.1622276306152344
-20.8620529174804688 4.66193246841430664 12.7413225173950195
-1.8036426305770874 39.9144172668457031 11.4630069732666016
25.7906436920166016 -42.4735908508300781 14.1968746185302734
18.6446266174316406 -17.1614913940429688 -8.53239917755126953
9.75746631622314453 -43.7873687744140625 2.46916961669921875
27.5973415374755859 44.1040229797363281 11.2937002182006836
13.1214265823364258 -11.2950382232666016 14.0772590637207031
-23.9655628204345703 -41.4933891296386719 12.4071159362792969
8.46888542175292969 -27.2091178894042969 15.0407829284667969
17.5500106811523438 -38.3370742797851562 15.6482858657836914
-4.89842939376831055 2.40777754783630371 13.0384521484375
13.6018648147583008 -34.0438308715820312 15.5285873413085938
10.0990962982177734 3.6436772346496582 13.3862104415893555
15.2312412261962891 21.1060256958007812 -10.6695775985717773
15.0881118774414062 -4.01310205459594727 -9.43423652648925781
-1.85141837596893311 -29.7841663360595703 -8.35857963562011719
23.4449348449707031 14.9184637069702148 -9.88255023956298828
-13.5177574157714844 8.02995204925537109 12.8502845764160156
16.1236019134521484 -15.7564716339111328 14.4455928802490234
11.4112844467163086 -18.0674800872802734 14.490809440612793
-4.53697586059570312 -7.81822729110717773 -9.76541423797607422
-16.7680187225341797 37.0720062255859375 -12.1522426605224609
2.74882674217224121 -21.67938232421875 14.4680280685424805
0.415807187557220459 11.0883197784423828 -10.297480583190918
-8.44622421264648438 -13.4179792404174805 -9.42680168151855469
-27.2004299163818359 3.63457345962524414 4.65041112899780273
7.75901222229003906 -42.5443992614746094 14.6735410690307617
-28.5239105224609375 -25.3406639099121094 3.46080827713012695
-14.0478439331054688 -29.7382164001464844 14.7539434432983398
-18.86309814453125 23.3280162811279297 -11.5263271331787109
-2.10741281509399414 23.80084228515625 12.2492303848266602
-19.9937839508056641 -3.11078977584838867 -9.88631916046142578
-18.7826957702636719 29.2209644317626953 11.648646354675293
-14.3396224975585938 -42.7045364379882812 3.3142857551574707
-26.9989509582519531 6.49328041076660156 -4.56621646881103516
28.4249114990234375 12.1625423431396484 2.65823459625244141
27.9122562408447266 2.95452356338500977 -3.22328591346740723
27.8252696990966797 0.285865187644958496 -6.0363917350769043
20.8358440399169922 23.8510627746582031 -10.7777509689331055
-12.5476016998291016 17.098724365234375 -10.664393424987793
24.932098388671875 -25.3152732849121094 15.0411396026611328
28.4769115447998047 13.1047477722167969 2.85900592803955078
7.97645950317382812 -23.7415199279785156 14.7979621887207031
-27.8693370819091797 -9.64192676544189453 10.9558372497558594
20.5495758056640625 -42.4237594604492188 15.6901779174804688
18.5121307373046875 5.2182159423828125 -9.67277050018310547
-25.774810791015625 31.2035083770751953 -10.9667720794677734
7.00867462158203125 -43.6327590942382812 -6.44761896133422852
-26.3947525024414062 29.6427898406982422 -1.50853705406188965
19.8733711242675781 19.287811279296875 -10.3645496368408203
-20.9343910217285156 44.4022216796875 -12.1433839797973633
27.6585445404052734 44.4170074462890625 9.71683979034423828
28.1249141693115234 5.3566741943359375 2.21716523170471191
5.98885536193847656 -20.9813690185546875 -8.73519229888916016
-16.8835220336914062 -4.11372280120849609 13.0081920623779297
-7.45341300964355469 5.97484207153320312 12.9393091201782227
-28.1910037994384766 -23.7328701019287109 -6.89747953414916992
16.1594486236572266 18.2500514984130859 12.9641542434692383
23.9152297973632812 10.6347751617431641 13.393794059753418
-7.66670799255371094 -5.32964277267456055 13.1297111511230469
-27.7144279479980469 -9.98317718505859375 -3.18856143951416016
7.6095280647277832 -32.9561729431152344 -8.09176254272460938
28.4746799468994141 15.2245492935180664 -2.59530282020568848
21.6794109344482422 -30.0614528656005859 15.3022975921630859
-22.2664260864257812 44.5513496398925781 10.866058349609375
-17.6987438201904297 16.8942718505859375 12.3965787887573242
-20.9467620849609375 -42.5972404479980469 -4.74359989166259766
-28.6830615997314453 -25.83319091796875 11.2871923446655273
29.2215366363525391 36.1062164306640625 7.92023992538452148
25.7330245971679688 44.6193618774414062 8.12600803375244141
-25.9007015228271484 -3.85738134384155273 -9.78284645080566406
-22.6766586303710938 43.7503509521484375 -12.1970062255859375
16.5809230804443359 40.0978279113769531 11.8582935333251953
10.8193340301513672 -34.0025291442871094 -8.00549793243408203
-13.0193500518798828 -21.4157791137695312 -9.02696418762207031
-26.4837932586669922 13.1899032592773438 11.4858293533325195
