ply
format ascii 1.0
element vertex 775
comment vertices
property float x
property float y
property float z
end_header
-1.36439251899719238 -91.0015182495117188 -3.95020341873168945
5.16786527633666992 59.46649169921875 3.74005722999572754
-1.20153021812438965 9.74221134185791016 -4.20540428161621094
-2.31817030906677246 27.4224128723144531 -3.71544551849365234
0.0814293846487998962 -2.47547078132629395 4.15329265594482422
7.64272689819335938 50.1467742919921875 3.89484834671020508
11.7295007705688477 59.5007438659667969 3.91257977485656738
-1.81684243679046631 -27.8147926330566406 -4.40001249313354492
0.359613567590713501 -67.54168701171875 -3.02052760124206543
-5.91214466094970703 5.45456981658935547 5.28737545013427734
7.17946815490722656 59.815185546875 -4.02648830413818359
-1.03366994857788086 -74.4337158203125 5.38664054870605469
-1.97566187381744385 39.1406173706054688 -2.42818808555603027
-5.05197620391845703 -3.9210658073425293 5.13000202178955078
-4.95844364166259766 22.5768051147460938 -2.11855506896972656
-0.135225355625152588 -0.264761924743652344 5.71694040298461914
-0.866161048412322998 -1.74487388134002686 -1.16110861301422119
2.2541511058807373 68.2777786254882812 -3.60782432556152344
-0.20136357843875885 -22.8835048675537109 -5.59851884841918945
0.722146153450012207 -59.5624427795410156 -5.08131837844848633
-2.05844354629516602 -98.5640335083007812 5.78410053253173828
-2.28839945793151855 -73.9918975830078125 -4.82441806793212891
-1.24662816524505615 -3.47411108016967773 -4.89787960052490234
2.34195375442504883 56.6119880676269531 5.89527034759521484
-0.653898298740386963 -14.313633918762207 -4.34134817123413086
-2.1007080078125 -72.5988082885742188 5.55687427520751953
-2.3526303768157959 20.8065719604492188 2.65903520584106445
-3.00868058204650879 -67.4769210815429688 -0.142535433173179626
-0.451187372207641602 -75.5887069702148438 -1.52412402629852295
-4.18356037139892578 6.70980262756347656 6.67198562622070312
-3.54839849472045898 51.23388671875 3.88738822937011719
0.492778122425079346 -72.0863418579101562 1.22305488586425781
-2.39059996604919434 -72.4232711791992188 -4.63141202926635742
-1.24572288990020752 -24.1753559112548828 6.40829992294311523
-0.332060754299163818 -27.0896587371826172 5.10836696624755859
-6.2713775634765625 -0.315885692834854126 -3.4065089225769043
-1.72513401508331299 -67.4297943115234375 -4.59932088851928711
-0.792124271392822266 -20.5307979583740234 -0.0160238686949014664
1.04712915420532227 43.5225257873535156 3.75756096839904785
-0.778117895126342773 53.7834739685058594 7.96189785003662109
-3.44074010848999023 -14.2118558883666992 6.00285625457763672
-0.113236479461193085 -19.7048568725585938 -5.3265843391418457
-0.294932067394256592 -30.1583576202392578 0.953798115253448486
-2.9709618091583252 -59.3371543884277344 0.966101527214050293
-1.8070991039276123 -48.2819595336914062 -4.27630233764648438
-2.69358992576599121 -87.9118423461914062 0.44018399715423584
0.916629254817962646 -71.00689697265625 5.55473136901855469
0.850537002086639404 -89.3900833129882812 -4.61031389236450195
-2.69498133659362793 -95.6390533447265625 1.6415102481842041
-1.94030129909515381 11.4165983200073242 2.86313390731811523
-5.84493875503540039 21.6793098449707031 -1.42875504493713379
-2.03234004974365234 22.1824760437011719 2.00427603721618652
0.149668276309967041 -46.6736831665039062 -5.55659723281860352
9.61017513275146484 63.6196441650390625 -4.54820156097412109
0.600599110126495361 -53.2478904724121094 -3.73178744316101074
-0.933202505111694336 40.1846656799316406 -0.789413571357727051
-0.411050766706466675 48.27178955078125 5.86305379867553711
-2.38577175140380859 57.0349235534667969 -5.87111330032348633
1.0551762580871582 48.6496925354003906 -5.72925949096679688
-2.7469942569732666 21.6595058441162109 -3.75152397155761719
3.05425333976745605 59.7528839111328125 3.80604648590087891
-2.6219782829284668 -75.6937103271484375 2.92554283142089844
0.581003844738006592 44.8780593872070312 -3.43643760681152344
0.620643317699432373 59.7711105346679688 -5.95910263061523438
-1.14199304580688477 56.5933952331542969 6.85550212860107422
-1.84945487976074219 36.1565628051757812 3.46748876571655273
-3.08324003219604492 33.0480499267578125 -3.50279593467712402
-0.302179574966430664 -35.5390281677246094 4.94108486175537109
-1.30613481998443604 -8.34247112274169922 -2.32695436477661133
-4.59173011779785156 -6.50658321380615234 -5.15492868423461914
0.40693974494934082 -67.980072021484375 1.75469732284545898
-0.350885063409805298 -86.0901718139648438 -5.26519966125488281
-0.00261126854456961155 -43.1126670837402344 0.281653493642807007
0.452789455652236938 -42.9622650146484375 4.71714019775390625
-1.60694742202758789 51.2904319763183594 -6.83634185791015625
-1.0108027458190918 -42.4318351745605469 5.48302698135375977
-0.779734313488006592 -60.4979896545410156 6.25527620315551758
3.95950055122375488 50.3094940185546875 -3.66941213607788086
9.75268268585205078 60.2403488159179688 -4.52669334411621094
10.9705400466918945 46.6415863037109375 0.678094744682312012
-1.00526285171508789 -39.8321380615234375 -4.22542572021484375
0.701770603656768799 -88.1383819580078125 -3.88137197494506836
0.387751996517181396 -56.9467048645019531 1.71310806274414062
0.484562158584594727 -69.1029815673828125 1.19102370738983154
0.253669559955596924 -30.7602081298828125 -5.05724000930786133
-0.0867882966995239258 40.0379600524902344 -3.47727465629577637
8.94119930267333984 62.5947303771972656 3.7999579906463623
8.16110801696777344 68.512176513671875 -3.26435732841491699
-3.68255805969238281 28.2463531494140625 4.0765228271484375
-1.19868206977844238 -16.9658451080322266 0.0624388270080089569
-1.60422265529632568 40.4339637756347656 2.61710476875305176
-0.324554890394210815 8.14317989349365234 3.92917275428771973
-3.23104310035705566 -27.1982307434082031 4.77346467971801758
0.545964181423187256 1.23503315448760986 -1.79160928726196289
-2.84611392021179199 9.30670833587646484 5.25703716278076172
-0.239701315760612488 -56.6604270935058594 -1.95115888118743896
-1.26400399208068848 27.8653450012207031 -3.56701993942260742
-2.46913886070251465 16.0313510894775391 4.16342353820800781
-0.648023426532745361 7.54200839996337891 -5.56491374969482422
-3.43760824203491211 -12.812382698059082 -4.49267148971557617
-2.6110527515411377 68.1803436279296875 3.99501752853393555
3.34865927696228027 53.6814727783203125 -4.4720001220703125
-6.26405429840087891 12.2105207443237305 3.44179630279541016
-1.19531989097595215 -55.1983718872070312 -4.70539093017578125
-3.24571609497070312 -57.1315650939941406 -0.794422447681427002
-2.94704675674438477 17.1490631103515625 3.00402355194091797
0.365961790084838867 -0.683406949043273926 4.65213108062744141
-2.94616007804870605 -14.7851171493530273 -4.55452680587768555
-0.370345145463943481 -88.735382080078125 -3.28495407104492188
-3.18679976463317871 59.124725341796875 3.07082414627075195
-0.623000860214233398 -100.955360412597656 1.80378496646881104
10.1193504333496094 61.1392745971679688 3.23246884346008301
-1.8828195333480835 -46.4723434448242188 -5.5406341552734375
1.57389628887176514 61.8611221313476562 6.38216686248779297
8.41966629028320312 54.1302337646484375 3.79818391799926758
-0.45557752251625061 27.1099624633789062 0.726645529270172119
-6.34896326065063477 12.9844169616699219 0.107643000781536102
-0.0667061880230903625 -62.3139228820800781 -1.54644882678985596
0.205531790852546692 -6.32534360885620117 -2.67350292205810547
-2.05039787292480469 38.0055122375488281 3.42735171318054199
-0.390567809343338013 56.3495635986328125 6.74651384353637695
9.94906425476074219 50.4368782043457031 -0.893264591693878174
-2.28672289848327637 -88.0063552856445312 -4.74502420425415039
-2.96404623985290527 50.0053482055664062 -5.39960718154907227
10.8324480056762695 57.6238174438476562 -3.18477511405944824
3.34697246551513672 65.4320449829101562 3.76246142387390137
0.710176348686218262 -86.5548629760742188 -5.02441501617431641
-5.2424321174621582 -6.79196310043334961 3.2001039981842041
0.331248193979263306 -72.7189102172851562 0.585713326930999756
7.07447385787963867 69.0279541015625 -1.80347299575805664
-2.40087032318115234 -5.92935276031494141 5.42653274536132812
-1.3701096773147583 -89.2271347045898438 5.36150789260864258
0.584228336811065674 -48.8567543029785156 4.34039115905761719
-2.65164613723754883 4.61304044723510742 6.03644132614135742
-0.00738821877166628838 -31.5432529449462891 -5.57240200042724609
-0.414773911237716675 -56.2902870178222656 -2.27350640296936035
0.137748435139656067 -61.9199028015136719 -0.0708500370383262634
-0.933886051177978516 -12.8444004058837891 -4.96870994567871094
-3.18417000770568848 14.3673381805419922 -4.2528223991394043
-0.431696802377700806 32.3069114685058594 -2.32289552688598633
-1.04927694797515869 -45.3990516662597656 -4.04651737213134766
-1.06775641441345215 65.1234893798828125 6.02134370803833008
0.277999341487884521 -86.8118743896484375 0.990451455116271973
-0.999602377414703369 -57.0658988952636719 -4.76988601684570312
-0.875632047653198242 -55.6014289855957031 4.86214923858642578
-4.97943449020385742 37.3152008056640625 0.213355660438537598
0.713638424873352051 -97.9958953857421875 4.31795501708984375
-1.22020459175109863 26.4441051483154297 2.98681139945983887
-0.33985564112663269 -24.4013423919677734 2.46066141128540039
-3.528533935546875 59.6074676513671875 -4.62384891510009766
-2.04761815071105957 44.8044700622558594 -3.49893045425415039
-1.37983977794647217 -64.1899185180664062 -3.77708339691162109
0.254032790660858154 -87.204437255859375 -2.99364447593688965
2.1521918773651123 59.7915382385253906 6.01716089248657227
-3.6987297534942627 52.977142333984375 2.86685967445373535
-0.572507858276367188 -62.8705978393554688 -3.19827055931091309
4.13733720779418945 60.4692611694335938 -4.2678837776184082
-0.0988953635096549988 24.7745380401611328 1.17384099960327148
-2.26139521598815918 -69.3552780151367188 -4.98337507247924805
-2.64647793769836426 -84.975555419921875 2.12623476982116699
-1.71969234943389893 -90.6740646362304688 -3.90002131462097168
-2.89569640159606934 60.9692535400390625 4.61449527740478516
-2.6721956729888916 35.9194297790527344 2.39668130874633789
-3.43759417533874512 64.2393951416015625 -1.80744385719299316
-0.0939338505268096924 2.92261958122253418 -1.88817405700683594
-3.02131986618041992 45.093353271484375 3.5847620964050293
-5.28297185897827148 -8.90930461883544922 -0.50896751880645752
-0.894944727420806885 -8.98957252502441406 -5.0096583366394043
-0.0566853731870651245 -25.0360813140869141 -3.42059016227722168
2.42563366889953613 69.631103515625 3.92445588111877441
-3.01283621788024902 9.25845527648925781 6.52131223678588867
-1.98241865634918213 66.0918960571289062 -5.12140655517578125
1.33844482898712158 66.7422027587890625 6.36746501922607422
-1.58196711540222168 15.95831298828125 2.48561453819274902
-3.67788195610046387 0.941894173622131348 -5.76112031936645508
6.67517757415771484 52.2432899475097656 4.03808069229125977
-0.662370681762695312 -3.48768234252929688 5.446929931640625
-2.03197407722473145 30.2848682403564453 4.56366634368896484
8.75978469848632812 66.5440597534179688 -3.72764301300048828
-0.943017244338989258 67.3569259643554688 4.82585287094116211
0.401973962783813477 -32.0769081115722656 -3.38946890830993652
-0.778392672538757324 -87.3969802856445312 -4.17154169082641602
-0.541048705577850342 -95.0074844360351562 -3.95550107955932617
-2.47396492958068848 -28.0077400207519531 -4.32941865921020508
-0.865191876888275146 72.7385177612304688 -4.61632394790649414
-3.18430376052856445 14.8564605712890625 5.22234249114990234
3.6618506908416748 54.1850738525390625 -3.84299874305725098
-1.02618205547332764 -19.5748176574707031 0.404995888471603394
-1.19668018817901611 23.7677688598632812 -2.35277223587036133
-2.18494582176208496 18.3431339263916016 0.758222699165344238
-1.74445903301239014 4.38348245620727539 6.79617786407470703
8.51030826568603516 56.1865730285644531 -3.16910147666931152
-6.47308206558227539 4.33273649215698242 -1.14145755767822266
0.646500766277313232 -79.2052230834960938 2.53126740455627441
0.25159493088722229 -97.6860275268554688 0.878659248352050781
-2.68169569969177246 -88.5297698974609375 0.78496706485748291
-0.667816758155822754 9.27531623840332031 1.71509122848510742
0.363687217235565186 52.6962699890136719 6.86744546890258789
-2.82948946952819824 16.1982307434082031 -2.84430575370788574
0.87964397668838501 5.61728668212890625 3.01075148582458496
-0.595982491970062256 -61.7513999938964844 -6.20748472213745117
8.64630889892578125 66.355377197265625 2.95959115028381348
2.17919921875 51.3378639221191406 4.81321287155151367
-2.7639927864074707 13.4579238891601562 -3.41356682777404785
-0.574367523193359375 63.8858795166015625 7.07818031311035156
-1.70187437534332275 -60.0586624145507812 5.47088956832885742
0.643115878105163574 -52.2891426086425781 5.25822210311889648
1.06630516052246094 -70.3590927124023438 -3.42600631713867188
0.814302802085876465 -91.3563156127929688 -4.87714195251464844
-2.10916256904602051 -16.4450263977050781 1.34128975868225098
-3.2593379020690918 -57.0845909118652344 -0.838430702686309814
-1.52656126022338867 40.5771408081054688 4.48769617080688477
-4.34968328475952148 -12.9815330505371094 -4.49600601196289062
-1.1289592981338501 48.0999412536621094 -5.69501733779907227
0.0479163043200969696 31.0211753845214844 2.81238198280334473
-0.93706214427947998 -37.5523834228515625 5.47875785827636719
0.0397178120911121368 55.2427940368652344 -5.05219459533691406
4.05570507049560547 63.2969131469726562 -4.49936532974243164
-0.431524902582168579 -69.5481719970703125 -3.68519711494445801
4.67900753021240234 48.0866470336914062 1.21144330501556396
-1.12130272388458252 -5.36129331588745117 -2.3313601016998291
-2.08246135711669922 38.4186820983886719 -3.59239006042480469
0.670614242553710938 -74.2764816284179688 3.44660115242004395
11.260645866394043 65.0986862182617188 -4.41329622268676758
-2.91443920135498047 -72.5714950561523438 -0.284305274486541748
9.69884777069091797 50.6765480041503906 -3.0870201587677002
-1.67794477939605713 53.0374603271484375 -6.91869020462036133
-0.990230202674865723 -23.7179927825927734 0.355548202991485596
5.05995464324951172 51.4024085998535156 -3.56994462013244629
-0.711043000221252441 -32.0716590881347656 -1.30627095699310303
0.497206538915634155 -0.018598778173327446 6.70158863067626953
-0.56096947193145752 39.0385551452636719 -1.2945178747177124
0.891406595706939697 -84.579742431640625 5.83166408538818359
-1.91206097602844238 -0.776028454303741455 1.78560125827789307
0.62854766845703125 -1.02583622932434082 1.97341334819793701
-0.991045355796813965 -6.51273345947265625 -1.83642578125
11.0049781799316406 49.6202278137207031 4.273895263671875
6.10853290557861328 68.6519088745117188 3.08325505256652832
-4.47375917434692383 0.955041110515594482 -6.34752464294433594
5.77164554595947266 67.4525604248046875 4.16079235076904297
-0.657908916473388672 -94.0843505859375 6.25298357009887695
-1.09811699390411377 -13.3629732131958008 5.03198575973510742
-1.70513832569122314 2.12245535850524902 8.08599472045898438
-1.04905533790588379 64.4801177978515625 -6.15407848358154297
6.23142099380493164 60.332427978515625 -3.89887309074401855
6.71864986419677734 68.50030517578125 3.2005469799041748
-1.09179425239562988 -66.8775787353515625 -4.32526063919067383
1.08481681346893311 44.2514724731445312 1.5731351375579834
-4.01045322418212891 -27.1074485778808594 0.258695393800735474
-2.92075848579406738 -49.861297607421875 3.33160758018493652
1.35020220279693604 42.4577178955078125 1.74550378322601318
-2.65060687065124512 -87.3080520629882812 1.99210822582244873
-0.27784159779548645 -8.90576934814453125 6.12727451324462891
0.303206503391265869 45.6170578002929688 3.38539314270019531
-1.6105048656463623 27.4400520324707031 1.04460525512695312
8.24154376983642578 65.11151123046875 3.01281213760375977
-4.02127361297607422 15.7105436325073242 3.09750270843505859
3.6310274600982666 55.9332923889160156 -4.14712142944335938
-2.76732182502746582 -44.0988044738769531 -4.54547595977783203
5.66968345642089844 53.7526016235351562 -3.92910599708557129
-2.45215725898742676 -62.8904876708984375 -4.17886972427368164
-2.07973408699035645 25.3600311279296875 -2.3405153751373291
-2.72083020210266113 13.7987709045410156 4.63854598999023438
-0.835117161273956299 70.2182464599609375 4.39119815826416016
-2.17298364639282227 -76.3666534423828125 5.78008651733398438
-4.76472091674804688 -6.76799488067626953 4.87022542953491211
9.43798923492431641 50.6807937622070312 -4.20962190628051758
-0.888051331043243408 -39.927093505859375 -5.70136785507202148
-2.86131048202514648 -15.3956232070922852 -5.02572345733642578
-0.692006468772888184 -74.8848724365234375 4.76000308990478516
0.0909470096230506897 5.30499649047851562 7.10207557678222656
-2.97916603088378906 -77.1126708984375 -0.824593186378479004
0.667057156562805176 -79.9175491333007812 6.07484340667724609
-3.07568788528442383 47.0639686584472656 -4.04953670501708984
0.564777374267578125 -1.09314405918121338 -2.26113176345825195
0.772276580333709717 -67.78302001953125 -3.92033123970031738
-2.90685606002807617 20.8631954193115234 3.73192954063415527
-3.73094558715820312 24.9838085174560547 4.60600137710571289
-5.48721122741699219 17.4210014343261719 -2.4064643383026123
0.716875553131103516 -72.2668304443359375 5.38227415084838867
0.833668768405914307 4.40794610977172852 5.43481540679931641
-0.100149475038051605 -37.7230758666992188 0.988030314445495605
0.385679334402084351 -33.9270439147949219 -4.80372285842895508
10.0487632751464844 49.606781005859375 -2.05239772796630859
-1.2824866771697998 3.02004742622375488 5.75389528274536133
10.4720773696899414 48.2905921936035156 3.25447177886962891
11.186492919921875 59.4054985046386719 3.00465559959411621
-0.669038832187652588 -64.291961669921875 4.79910039901733398
0.0560247562825679779 5.96862316131591797 5.5239710807800293
0.897508740425109863 -99.6177825927734375 -0.996105611324310303
-0.188015148043632507 6.95823907852172852 3.29557132720947266
-5.93118906021118164 1.76554310321807861 1.51496648788452148
-5.71618318557739258 -4.30543279647827148 -3.99101996421813965
-6.42869997024536133 11.825566291809082 0.0631252750754356384
1.33813893795013428 47.8652877807617188 4.29885149002075195
-1.69145858287811279 -71.1300277709960938 4.76437187194824219
-3.20338797569274902 -63.3915214538574219 -1.25629377365112305
0.630925118923187256 -51.1608963012695312 4.1735987663269043
-1.94783341884613037 -6.08804035186767578 -6.01241779327392578
-1.12336695194244385 -32.34674072265625 6.45206594467163086
-0.502957761287689209 -74.7745132446289062 -6.18053960800170898
-5.33941268920898438 31.7483673095703125 -0.0992216542363166809
5.21428537368774414 57.6161575317382812 -4.69141054153442383
-3.3011314868927002 15.5336780548095703 3.9515831470489502
0.559033632278442383 4.94845151901245117 -4.06082916259765625
8.58512210845947266 51.1262016296386719 -3.2429354190826416
-6.00818777084350586 17.9353389739990234 0.689303040504455566
-0.446770697832107544 6.63716983795166016 6.70530271530151367
-2.36002588272094727 -6.89915084838867188 6.66435670852661133
0.100775629281997681 -50.4587898254394531 1.03281140327453613
-0.78870701789855957 53.3331565856933594 6.06149673461914062
-0.880268633365631104 -55.2622528076171875 -6.49937152862548828
0.605645656585693359 51.9702529907226562 7.8782048225402832
0.144356831908226013 3.85593938827514648 -0.952172398567199707
-2.66892266273498535 -50.7911720275878906 4.11703729629516602
-0.0266272295266389847 -71.6558761596679688 6.22128534317016602
-1.08365774154663086 49.4167060852050781 6.69796514511108398
7.00564336776733398 48.5747261047363281 4.41936063766479492
-0.137546703219413757 -85.7310943603515625 6.21782636642456055
-0.441221147775650024 -70.53424072265625 -1.88979208469390869
-3.34917759895324707 -47.1273574829101562 0.57136160135269165
-2.85793495178222656 -40.7427749633789062 4.34702014923095703
8.72071266174316406 63.9593315124511719 -4.4021153450012207
-0.214974388480186462 -12.548090934753418 -2.52456450462341309
0.675720870494842529 -55.5116691589355469 -5.10674524307250977
-2.69887518882751465 -7.74612712860107422 -5.20458316802978516
-1.96272742748260498 15.2969541549682617 -3.11160445213317871
-6.30842208862304688 3.15002012252807617 -5.12482643127441406
-0.962910771369934082 27.9025192260742188 -2.31856727600097656
-4.43294048309326172 -16.7930793762207031 1.54299819469451904
-2.71061992645263672 -99.7841567993164062 -2.73412370681762695
-4.34402751922607422 -16.7953681945800781 2.50857138633728027
-0.0559233427047729492 -40.3868179321289062 0.810464143753051758
-1.35980665683746338 -22.4549427032470703 -5.15219449996948242
-0.131070047616958618 -101.497268676757812 1.89551150798797607
0.411567896604537964 60.2993278503417969 -6.64550352096557617
0.304208815097808838 -62.3339805603027344 1.03136491775512695
-2.1374363899230957 -68.603363037109375 -5.10501766204833984
11.2123441696166992 63.8102798461914062 -3.14549016952514648
-1.82175147533416748 33.6658439636230469 -2.79206585884094238
-3.37831807136535645 56.7565727233886719 3.03285408020019531
6.95489978790283203 52.1453514099121094 -3.12762117385864258
-0.25702396035194397 -4.82378768920898438 2.33693599700927734
-0.375279456377029419 -20.4109058380126953 3.82291007041931152
-2.5793461799621582 -21.5126743316650391 -5.71409893035888672
0.334029555320739746 -64.7432403564453125 -5.62193584442138672
-3.23936867713928223 -10.5126094818115234 -4.61832094192504883
-0.382930666208267212 -91.377716064453125 -4.17090034484863281
-3.70619606971740723 -100.497962951660156 1.46898472309112549
-3.79235196113586426 -7.07018947601318359 -4.67696571350097656
9.86085605621337891 55.0189666748046875 3.25768327713012695
-4.69899415969848633 9.23634433746337891 -5.1827092170715332
-3.21890711784362793 -50.0834503173828125 -3.7888796329498291
0.519206464290618896 60.1920623779296875 7.58227920532226562
-1.01009750366210938 -94.5898971557617188 -6.02047586441040039
8.13885402679443359 54.3842620849609375 -5.48019504547119141
-3.08347415924072266 -4.34983158111572266 -5.32265949249267578
-1.8892894983291626 -78.767181396484375 5.5003809928894043
0.803649961948394775 -93.986114501953125 2.5194244384765625
0.846444249153137207 -67.8561325073242188 -4.26356077194213867
-0.146489739418029785 4.04276895523071289 -2.08372235298156738
0.407343387603759766 -47.3257865905761719 3.38056254386901855
-2.97081303596496582 13.7076644897460938 3.03605413436889648
1.10984122753143311 62.7158546447753906 6.00065374374389648
5.43007469177246094 66.9302749633789062 -3.13836216926574707
-0.703587651252746582 -76.1107406616210938 -3.56480240821838379
-3.02371740341186523 53.605316162109375 5.8290095329284668
-1.12173974514007568 -79.5087509155273438 5.38887214660644531
-3.4528357982635498 18.0081768035888672 2.97632026672363281
-1.13342344760894775 43.5301589965820312 -2.42874240875244141
-0.157820016145706177 6.82011842727661133 -6.44774913787841797
-3.18862652778625488 -35.7012481689453125 3.94845724105834961
-2.90073180198669434 -50.0527877807617188 3.58932685852050781
-3.62163782119750977 50.3106307983398438 -5.12901067733764648
-2.97509407997131348 26.3913345336914062 -2.41225266456604004
-3.64309358596801758 -31.5086002349853516 2.36029911041259766
-3.24722099304199219 -64.5095367431640625 -2.27640914916992188
-0.468334466218948364 -80.802032470703125 5.30693674087524414
7.35401725769042969 56.0978431701660156 -4.08614683151245117
0.80760568380355835 -1.06593048572540283 -3.51263618469238281
5.2942805290222168 56.133697509765625 -4.32520103454589844
-3.35958242416381836 -8.72862815856933594 5.25216436386108398
-4.00566816329956055 8.64508247375488281 6.73215913772583008
-5.00969362258911133 6.58672332763671875 6.65536403656005859
-1.082511305809021 -22.8794174194335938 0.922296643257141113
-3.55643320083618164 -35.9556694030761719 1.7760697603225708
-1.32677567005157471 -68.222198486328125 -4.24217796325683594
-0.30732417106628418 -79.9802322387695312 -2.38495635986328125
7.19350194931030273 59.0446586608886719 4.48397731781005859
-1.79670381546020508 59.9031257629394531 -5.87080860137939453
0.772631049156188965 -73.805023193359375 -4.11995410919189453
-1.58108103275299072 -40.6924667358398438 4.95589828491210938
4.35799598693847656 69.467132568359375 2.8813469409942627
-5.51423788070678711 14.9820222854614258 3.73862504959106445
-3.16587734222412109 56.1984710693359375 4.58031892776489258
-3.09275960922241211 -66.6526107788085938 -0.625099003314971924
6.79799509048461914 53.6571044921875 4.46649789810180664
0.658464550971984863 -56.0195236206054688 4.02390098571777344
-2.4901893138885498 -101.213226318359375 -2.73603510856628418
-0.309035360813140869 43.1020088195800781 0.990391135215759277
-0.788903474807739258 54.8344688415527344 -6.07204532623291016
-4.69121980667114258 35.0909652709960938 2.14158201217651367
1.45457136631011963 74.1854705810546875 -1.26673519611358643
-4.19341230392456055 48.9820518493652344 0.136580944061279297
-0.0148083223029971123 -48.6663742065429688 0.00571807706728577614
-0.880617856979370117 23.1877536773681641 0.503943264484405518
-2.50522899627685547 71.4439468383789062 3.3532257080078125
-3.57022643089294434 36.9660835266113281 -2.69470024108886719
-0.082438252866268158 45.3460617065429688 5.74598836898803711
-3.23211312294006348 5.22609949111938477 -6.87408590316772461
-4.47609376907348633 3.94006466865539551 7.50382566452026367
-5.63649415969848633 0.0714312344789505005 4.4378361701965332
-2.01982855796813965 26.2748012542724609 2.4146583080291748
0.386324048042297363 -67.6564178466796875 1.2310560941696167
-1.02446162700653076 -53.3098182678222656 -3.96120405197143555
-0.527660250663757324 -59.1372489929199219 6.27515745162963867
-0.709436893463134766 68.7122268676757812 -5.86194801330566406
-3.32673788070678711 42.0356369018554688 -2.55615091323852539
-2.36137986183166504 -28.7373714447021484 5.57671976089477539
-3.80385351181030273 57.996551513671875 -2.83997726440429688
1.46442627906799316 50.0469284057617188 6.47885036468505859
-0.793353259563446045 -72.1153564453125 6.21789312362670898
0.653763651847839355 -84.1125259399414062 2.11579012870788574
10.3381881713867188 61.0122184753417969 3.28859806060791016
-6.51606941223144531 12.6332626342773438 -2.93157148361206055
-1.89737927913665771 -90.8698272705078125 5.49596691131591797
9.21066188812255859 63.9153709411621094 -3.62393879890441895
-5.45324945449829102 -6.07746124267578125 0.0625597909092903137
0.0173258129507303238 -34.1960945129394531 3.38208508491516113
-3.80084729194641113 -31.7885723114013672 0.0889742150902748108
-2.0669867992401123 -72.6812973022460938 5.91243314743041992
3.28171086311340332 51.6994972229003906 -5.28232860565185547
-5.18618059158325195 -7.71894025802612305 2.13401889801025391
-0.628368854522705078 41.1494674682617188 -0.302952766418457031
0.314601480960845947 -71.8473892211914062 -5.59544944763183594
-5.37508440017700195 -8.72923374176025391 -0.97747117280960083
-5.9357457160949707 -3.37017512321472168 -2.45157098770141602
-3.36780333518981934 54.9043006896972656 3.69477438926696777
11.9654140472412109 52.0522117614746094 2.10802555084228516
-0.607213437557220459 -76.1071090698242188 -6.12097644805908203
-5.70218229293823242 3.12772297859191895 5.6832118034362793
5.3638310432434082 49.8061485290527344 -3.3942866325378418
4.45058107376098633 52.7646293640136719 -5.67469453811645508
-5.42437458038330078 1.75991690158843994 6.02633047103881836
-3.20395541191101074 16.1590290069580078 -4.21518564224243164
-1.5189964771270752 -68.0841598510742188 -5.28299713134765625
-0.349344581365585327 -86.533966064453125 -6.01618576049804688
-3.20842790603637695 21.3480510711669922 4.21095561981201172
0.111186549067497253 51.4331741333007812 7.83571815490722656
1.05021977424621582 66.4354705810546875 5.65235662460327148
3.89096260070800781 67.4044418334960938 -4.20547580718994141
11.0468368530273438 49.7703781127929688 0.260937809944152832
-2.24322271347045898 -14.2933168411254883 -4.59248781204223633
9.77138519287109375 69.8734359741210938 -1.0400235652923584
-1.82995760440826416 -8.08892440795898438 1.29458379745483398
-0.294555455446243286 -10.6727542877197266 5.11932373046875
-3.06147027015686035 56.4838790893554688 4.95365762710571289
-2.62355422973632812 -36.6529884338378906 -5.38437414169311523
0.0173305310308933258 -66.2852935791015625 -5.47855710983276367
-1.38676977157592773 -84.0981903076171875 -4.39949941635131836
-1.2894662618637085 -17.6251182556152344 -1.33141160011291504
-1.90819215774536133 21.1355113983154297 -2.63770270347595215
-1.72061300277709961 45.9434661865234375 -3.42305660247802734
0.425249248743057251 2.47061514854431152 -3.73145890235900879
0.699514806270599365 -57.6065254211425781 -4.32981109619140625
-0.849172532558441162 -1.29919564723968506 -2.87191367149353027
-2.70601153373718262 6.53787040710449219 -6.00528383255004883
-1.96676433086395264 38.1554641723632812 4.50278472900390625
0.365830034017562866 50.1387481689453125 -5.78299951553344727
0.8044852614402771 -91.7807083129882812 4.27195072174072266
4.91285133361816406 51.80975341796875 4.16811227798461914
-1.82640969753265381 42.0678787231445312 2.22936081886291504
-6.23318147659301758 8.14311122894287109 -5.26923465728759766
8.92544364929199219 46.1938705444335938 0.291021406650543213
-6.28314018249511719 -0.203384816646575928 -3.42835330963134766
-6.02251195907592773 21.5540428161621094 0.955150246620178223
-2.4479529857635498 24.1439495086669922 4.13562107086181641
0.827134370803833008 -93.49383544921875 2.37703418731689453
3.53256750106811523 49.6998977661132812 4.38053321838378906
-0.48054194450378418 1.02232611179351807 1.05210721492767334
-2.62708783149719238 -4.0865325927734375 -5.37954521179199219
11.0004138946533203 55.6836204528808594 4.59494209289550781
0.844264328479766846 -99.5864410400390625 -1.61978983879089355
12.4306135177612305 60.6904945373535156 -0.93086552619934082
-0.144662290811538696 -73.4844207763671875 -5.34239673614501953
-1.07274150848388672 -65.0008773803710938 6.20830965042114258
-2.49974608421325684 -12.8668327331542969 0.820994853973388672
-0.123537927865982056 29.5425300598144531 2.72534513473510742
-0.0896986424922943115 -40.2270889282226562 -4.60960054397583008
0.0673503726720809937 -3.86748099327087402 0.26855352520942688
-0.784216403961181641 -5.19202756881713867 1.03705954551696777
-2.53367829322814941 14.5157461166381836 5.08648204803466797
-0.246013373136520386 -2.31553983688354492 -2.05613803863525391
0.854762673377990723 -93.1889190673828125 4.40372467041015625
-3.15693378448486328 17.9682884216308594 -2.65257740020751953
-1.89064288139343262 -16.1374492645263672 -5.14197015762329102
-4.79600811004638672 -11.3201417922973633 -4.17621469497680664
-2.09765291213989258 61.8429603576660156 6.80995464324951172
0.667563319206237793 -94.6816635131835938 1.61350560188293457
-1.67591977119445801 19.4052524566650391 -1.98158609867095947
-6.43433809280395508 11.7178812026977539 0.876110434532165527
-1.06205415725708008 -48.681488037109375 4.921722412109375
-1.99276459217071533 -37.6854171752929688 6.30937623977661133
-2.73767924308776855 31.0225009918212891 -3.58733701705932617
-4.04063224792480469 -28.6614265441894531 -0.606085717678070068
-1.07663524150848389 52.5860176086425781 6.01095199584960938
0.889609873294830322 67.4994430541992188 5.40246725082397461
-1.90768182277679443 22.6551704406738281 2.66273617744445801
-2.69431328773498535 35.8364143371582031 4.49229049682617188
-1.20013809204101562 41.5870399475097656 -2.9839785099029541
-0.651630520820617676 -32.4529991149902344 -1.26194393634796143
-2.30393314361572266 27.7669029235839844 2.385009765625
-1.04131138324737549 54.8782424926757812 -6.66578388214111328
-4.02616071701049805 -29.1827564239501953 -1.94724059104919434
-2.07741498947143555 45.1412582397460938 4.19799041748046875
-2.91416025161743164 -97.3334426879882812 -0.0417869128286838531
-6.62286949157714844 3.89372491836547852 -3.87328982353210449
-3.8308868408203125 -31.56304931640625 -3.38539481163024902
9.88217830657958984 48.5089645385742188 -0.510529696941375732
-2.58898663520812988 -54.5679283142089844 4.0753321647644043
-6.18642663955688477 19.7021923065185547 0.529799401760101318
12.7572727203369141 55.8678779602050781 2.05977964401245117
-8.00380148575641215e-05 53.8205680847167969 -3.84125113487243652
-0.327472418546676636 -32.2347984313964844 0.486127376556396484
0.565315186977386475 -41.4589500427246094 -4.63029384613037109
-1.29991745948791504 -24.7039680480957031 -2.22255206108093262
-1.9426800012588501 43.3264083862304688 3.78585290908813477
-1.41497814655303955 38.4152183532714844 -3.67114615440368652
7.79636669158935547 47.7874565124511719 3.7696681022644043
-3.97130441665649414 54.5511054992675781 -2.27737903594970703
8.87543964385986328 60.5858192443847656 4.08703327178955078
0.452978760004043579 65.001495361328125 6.12513494491577148
-2.06666374206542969 11.8282079696655273 2.76958394050598145
-2.88912487030029297 67.4558258056640625 2.54962754249572754
-2.16213059425354004 -6.32877206802368164 -6.02611970901489258
3.68628811836242676 50.7150192260742188 -4.14776706695556641
-0.701970756053924561 -44.9268989562988281 -5.68863868713378906
10.8715686798095703 68.7944793701171875 0.302392661571502686
-3.91211605072021484 -7.15082025527954102 -4.66239690780639648
-0.0658514052629470825 -90.9388885498046875 4.58044862747192383
8.39194202423095703 66.3238372802734375 2.94199514389038086
-0.0584356747567653656 64.9686813354492188 -6.59842634201049805
9.92242240905761719 54.0882720947265625 -4.79430484771728516
4.80749940872192383 70.4127578735351562 -2.38302278518676758
7.88046121597290039 58.1179084777832031 4.56461811065673828
11.3426656723022461 68.8984298706054688 -2.15080547332763672
-2.62927699089050293 -75.4401397705078125 2.87784552574157715
0.223200425505638123 -81.2517013549804688 -4.30744266510009766
-0.26648905873298645 57.623504638671875 -6.74618005752563477
0.354409933090209961 -91.1410446166992188 4.42483043670654297
-2.58453249931335449 -94.2640914916992188 2.42095255851745605
-1.05304086208343506 -11.9828166961669922 1.51622200012207031
0.753631591796875 -72.4173812866210938 4.32894563674926758
-0.679611086845397949 -94.9932403564453125 -3.95183730125427246
0.0438694432377815247 -41.9083366394042969 1.11260688304901123
0.248969703912734985 64.324371337890625 -6.79544496536254883
0.578061044216156006 -80.3839950561523438 3.15004086494445801
-1.94543623924255371 -100.526924133300781 2.57731747627258301
-4.45251798629760742 35.9894790649414062 2.7689356803894043
-0.192589938640594482 73.5030670166015625 3.70051813125610352
-3.02294468879699707 -78.56951904296875 -1.99401271343231201
7.82993030548095703 62.2056312561035156 2.93015909194946289
-4.05510902404785156 -19.9788398742675781 2.78993868827819824
-4.40518808364868164 44.0227546691894531 -0.845148026943206787
-0.854687094688415527 31.6625461578369141 -1.91947841644287109
-3.21151900291442871 39.2802886962890625 -2.29656553268432617
-1.57763564586639404 -73.106201171875 -4.51227188110351562
-4.10553741455078125 19.2743053436279297 4.24934911727905273
-4.72868490219116211 -9.23263835906982422 -4.5548853874206543
1.11110103130340576 53.3708038330078125 -7.10591506958007812
-3.1502833366394043 -56.8025627136230469 -3.44468498229980469
-0.161957338452339172 -101.468978881835938 -0.533734619617462158
-0.797182142734527588 39.3413505554199219 3.74392890930175781
6.1691441535949707 59.4368247985839844 3.7204287052154541
-3.38932466506958008 -7.8008575439453125 6.65361356735229492
-1.02017366886138916 -28.7167797088623047 5.0425114631652832
-0.87888568639755249 25.0945472717285156 2.8706057071685791
10.3288688659667969 65.6528091430664062 -3.4168696403503418
0.652027010917663574 4.38566017150878906 3.46967148780822754
1.96168756484985352 74.7018814086914062 -1.28276968002319336
1.17290425300598145 -90.0953903198242188 -2.75754737854003906
-0.115550167858600616 -6.95476293563842773 4.62593936920166016
-3.22018170356750488 -51.8293609619140625 1.15837085247039795
-0.311920136213302612 -96.942108154296875 -3.94293379783630371
11.4388313293457031 60.6141891479492188 2.94774770736694336
-2.30987691879272461 -84.9276962280273438 4.52351284027099609
1.02705192565917969 -60.60382080078125 -3.25002360343933105
6.12410593032836914 51.8002395629882812 -3.29134273529052734
-0.915428042411804199 0.0338089242577552795 -0.419653028249740601
-2.32772445678710938 33.6100578308105469 3.45890569686889648
-1.27996408939361572 6.79508399963378906 -1.57203197479248047
-3.05994176864624023 60.8374977111816406 -5.34861564636230469
-2.30265235900878906 -36.34552001953125 -4.26197385787963867
-1.77185738086700439 -64.328155517578125 -5.28839254379272461
5.65746879577636719 47.8779449462890625 1.17269277572631836
0.484351485967636108 -49.6486854553222656 3.57729244232177734
-0.831811964511871338 24.8336048126220703 3.33274435997009277
2.57829952239990234 52.443878173828125 -5.61663627624511719
-1.80246198177337646 -11.007899284362793 1.78741312026977539
-0.104774780571460724 -26.1351566314697266 -4.78207302093505859
-0.39562755823135376 39.9569206237792969 1.95780813694000244
10.2473983764648438 60.3197784423828125 -4.50462865829467773
12.0823354721069336 48.2169837951660156 -0.515661120414733887
-0.0793724805116653442 -22.2620334625244141 -5.4358210563659668
-5.05115365982055664 -6.24437093734741211 4.32890129089355469
-4.02805614471435547 44.8784103393554688 2.40210461616516113
-2.09603452682495117 35.1735801696777344 2.6878058910369873
0.614866912364959717 -85.2252349853515625 2.81491208076477051
0.279914528131484985 -85.2578582763671875 -5.21067714691162109
-0.00626793503761291504 -43.2064208984375 4.96457242965698242
-1.62577903270721436 -6.31730461120605469 5.28894138336181641
-5.17578601837158203 4.06669330596923828 6.64451456069946289
-0.922351717948913574 -68.446929931640625 -4.71972036361694336
-2.28340387344360352 27.1330890655517578 2.40586423873901367
-6.27492856979370117 18.4744834899902344 -0.292971611022949219
-1.1477668285369873 -21.1466617584228516 -5.10135126113891602
-2.93257904052734375 -92.9348983764648438 -2.95637416839599609
-2.93333959579467773 16.4208145141601562 -4.17675495147705078
0.653121650218963623 57.6090164184570312 -4.22550010681152344
-2.30019474029541016 56.5526390075683594 7.52200651168823242
-4.56116104125976562 14.5287256240844727 5.20075130462646484
5.42858409881591797 54.9281730651855469 3.95220947265625
0.0620903372764587402 51.8703994750976562 6.1040492057800293
-4.58601188659667969 -3.44390988349914551 -5.81746721267700195
0.400168031454086304 1.88952445983886719 -2.37735748291015625
0.992764532566070557 -75.6191864013671875 2.95732378959655762
0.079613707959651947 -100.268295288085938 5.68307352066040039
3.74809050559997559 49.6857185363769531 3.18738961219787598
-3.82082104682922363 -38.1643791198730469 -1.14115345478057861
0.732756376266479492 -74.3374786376953125 5.96100187301635742
-1.46817874908447266 -75.8918838500976562 -5.87929153442382812
0.772809326648712158 -92.4136810302734375 3.66151785850524902
0.952902674674987793 57.2951622009277344 5.8595576286315918
-2.95743370056152344 37.0344619750976562 3.26145768165588379
0.420849382877349854 -76.8887939453125 6.10709905624389648
1.41853535175323486 45.7259979248046875 4.75654983520507812
0.148657500743865967 -53.9886550903320312 0.476854920387268066
1.61856603622436523 57.3964576721191406 5.66558837890625
-5.02692461013793945 -9.73969173431396484 2.20709633827209473
-5.216796875 15.8666105270385742 -3.2102658748626709
-2.78617095947265625 -76.6530990600585938 0.428243726491928101
11.2766933441162109 49.4769096374511719 3.11335968971252441
2.39103817939758301 70.9325027465820312 -1.2800062894821167
0.143247053027153015 -31.334075927734375 3.89403843879699707
-0.769381940364837646 -31.7183094024658203 6.4205322265625
-1.60168612003326416 -15.8782482147216797 -2.46627664566040039
-3.72231793403625488 -0.0774929001927375793 5.87239933013916016
-0.287172287702560425 43.6981201171875 3.06497073173522949
-2.83494424819946289 -72.0932083129882812 1.13152801990509033
3.95350837707519531 57.3215904235839844 3.60451459884643555
-6.15557956695556641 14.9317111968994141 1.03995537757873535
-1.31414616107940674 -43.408538818359375 -4.6347193717956543
-0.43202546238899231 -25.9035263061523438 1.09297764301300049
-0.724774658679962158 -57.5255966186523438 5.38690757751464844
-4.58491849899291992 10.1478137969970703 -4.89199542999267578
-0.127935618162155151 -7.19246578216552734 0.255983144044876099
-2.33455157279968262 38.5966835021972656 -3.04051899909973145
-0.106195323169231415 -3.13264560699462891 -2.08826208114624023
-0.971701920032501221 -37.6544456481933594 5.48177671432495117
0.906093955039978027 39.3165245056152344 1.67959153652191162
-2.0186774730682373 21.1494083404541016 4.31850147247314453
0.561726152896881104 -75.9344100952148438 -3.80483794212341309
9.38151741027832031 53.8646926879882812 5.57846832275390625
-0.236636921763420105 -38.4330291748046875 -0.273731827735900879
-0.149791702628135681 68.02032470703125 4.69182968139648438
-6.4649200439453125 8.90265369415283203 1.2077096700668335
0.219422489404678345 -6.38483095169067383 1.8193899393081665
1.10579502582550049 45.3599052429199219 3.70710539817810059
-1.64639580249786377 -8.29114055633544922 -5.93101596832275391
4.93039512634277344 62.2701034545898438 -4.1270604133605957
-0.185633137822151184 -62.6032943725585938 -1.71929466724395752
-1.61348140239715576 33.2226676940917969 4.48739004135131836
0.269794613122940063 -45.727569580078125 2.15649175643920898
-5.78623390197753906 12.2995061874389648 -3.46603226661682129
-4.51751613616943359 -100.88873291015625 -1.88212311267852783
11.7660760879516602 58.465667724609375 -1.6611487865447998
-5.51884841918945312 22.6672019958496094 2.49338769912719727
-0.667996525764465332 -89.0430755615234375 -4.48868942260742188
4.81709623336791992 62.7905921936035156 3.09134387969970703
0.811110556125640869 -99.684600830078125 -0.299111157655715942
-0.335511207580566406 -11.5658817291259766 0.419100254774093628
9.55360317230224609 58.0802040100097656 3.36902642250061035
-1.78291428089141846 -85.5751495361328125 -5.83575868606567383
0.606642365455627441 -90.2390060424804688 -5.11470937728881836
-0.211954832077026367 -98.1141738891601562 -2.96654844284057617
-4.59565353393554688 12.3194713592529297 3.59270930290222168
-0.438098877668380737 50.2937278747558594 -4.14299678802490234
-1.55999529361724854 -81.3411407470703125 6.15055465698242188
-3.63316798210144043 14.0023736953735352 -3.83142948150634766
-2.8175506591796875 -6.08197546005249023 5.41546535491943359
-1.19115948677062988 -14.6170682907104492 6.45762348175048828
-1.32329010963439941 43.6311454772949219 -2.44375395774841309
-1.25176692008972168 -24.8092765808105469 5.12416553497314453
8.09087276458740234 64.0243453979492188 -3.7662360668182373
0.2803802490234375 -41.0667266845703125 3.54298782348632812
-2.94038963317871094 12.9177131652832031 -1.64241349697113037
0.285096228122711182 -49.8406524658203125 1.89142239093780518
0.160160854458808899 -50.9993896484375 1.04674112796783447
-2.54326081275939941 -28.5768146514892578 5.26541566848754883
-3.3101351261138916 20.3086261749267578 -2.90290617942810059
-3.94201302528381348 31.7818450927734375 -2.22103142738342285
-3.00258445739746094 -47.6130142211914062 2.86596250534057617
11.4904193878173828 49.5654029846191406 2.80566024780273438
0.645469605922698975 -69.9238510131835938 -5.70193099975585938
-0.385843217372894287 -84.51202392578125 -4.43192672729492188
-2.95105242729187012 -50.5213394165039062 3.16928243637084961
-1.34427154064178467 -72.6292266845703125 5.38690757751464844
-1.30788373947143555 -18.7587509155273438 1.40296852588653564
0.291068196296691895 -88.1910171508789062 4.53769636154174805
-2.46802687644958496 -44.645751953125 -5.00111961364746094
-2.02852821350097656 -25.1912784576416016 5.09847402572631836
-0.883055746555328369 -18.0649623870849609 -5.87481403350830078
-3.52820611000061035 -27.2720813751220703 3.99027276039123535
0.120833903551101685 60.9405593872070312 7.52934122085571289
-3.13991665840148926 66.065460205078125 0.627525866031646729
-5.41585540771484375 -2.81970453262329102 3.5697472095489502
0.444557368755340576 -99.9719696044921875 -2.03725743293762207
-2.17402052879333496 -27.7962169647216797 5.12120771408081055
0.818860292434692383 57.0033798217773438 7.15490436553955078
-1.20037972927093506 -0.0609933994710445404 -4.15888357162475586
-4.40121126174926758 43.535858154296875 -0.384171366691589355
-1.9268190860748291 -63.5599899291992188 -4.60155725479125977
0.58368152379989624 -39.7143020629882812 -3.64151573181152344
-1.19947218894958496 -25.3196506500244141 5.62081289291381836
-2.42007255554199219 -53.3458938598632812 -4.79909706115722656
0.627605557441711426 -65.526214599609375 -3.63939356803894043
-1.11027252674102783 1.76666009426116943 -4.46069860458374023
-5.21809720993041992 1.05429303646087646 6.11273765563964844
-0.319527268409729004 34.0428047180175781 -2.63236665725708008
0.541550338268280029 60.7155303955078125 -7.13405847549438477
3.27911949157714844 69.9832763671875 -2.97472763061523438
-1.18998992443084717 21.2198696136474609 1.40276515483856201
-1.63152229785919189 -11.2568159103393555 -3.38556981086730957
-2.29401159286499023 31.6693382263183594 -2.8634638786315918
-2.6910865306854248 5.59166526794433594 -6.8495025634765625
0.640513420104980469 72.9545822143554688 2.84412288665771484
4.81973552703857422 49.45977783203125 3.24419784545898438
-0.159204423427581787 -84.787322998046875 -2.33478641510009766
-3.55689692497253418 55.1651649475097656 -5.24645757675170898
-0.759173989295959473 -40.2887115478515625 -4.19019460678100586
-2.82152175903320312 -5.85100364685058594 -5.26529550552368164
-2.96508646011352539 14.7827796936035156 3.25262355804443359
-0.395942032337188721 -66.7189102172851562 4.78927803039550781
6.7628631591796875 51.6645317077636719 4.11278390884399414
-2.39403057098388672 50.6652755737304688 7.50278902053833008
0.725900173187255859 53.3092002868652344 7.91177463531494141
-2.89978837966918945 -92.7382431030273438 -1.04064440727233887
3.91008210182189941 53.8322792053222656 6.05516815185546875
-3.85939598083496094 47.7162437438964844 3.48958253860473633
-0.544120728969573975 -0.355897307395935059 -2.27440404891967773
-1.02453410625457764 25.7198486328125 -3.3636171817779541
-2.57625150680541992 15.4744300842285156 -0.292593508958816528
-0.960297107696533203 -86.480499267578125 -4.11081409454345703
-0.614487528800964355 66.7333831787109375 5.09048557281494141
-1.37593352794647217 -37.6395912170410156 -4.17851591110229492
0.87477576732635498 -73.8764724731445312 -4.88818168640136719
0.323963671922683716 -60.3658332824707031 0.68095022439956665
0.415439367294311523 69.0765304565429688 4.2993311882019043
-0.421699732542037964 -76.3425521850585938 -1.25481092929840088
-0.0771111398935317993 -6.82253885269165039 -5.37393760681152344
0.817481279373168945 -55.1246681213378906 5.86540031433105469
-2.85901165008544922 -72.966766357421875 -0.041227240115404129
0.335232168436050415 -87.4924697875976562 -5.22474908828735352
-2.88189101219177246 -93.8653106689453125 -0.603116154670715332
-0.754703760147094727 -91.2889556884765625 -4.38718223571777344
-1.28108561038970947 35.9533462524414062 -0.869602978229522705
0.361222714185714722 4.73602819442749023 7.05174875259399414
8.15793800354003906 66.0372390747070312 -2.89133071899414062
-3.51613283157348633 -37.9532623291015625 1.05922472476959229
-1.02052760124206543 -29.5714054107666016 5.54159784317016602
-1.00006484985351562 8.77890777587890625 2.25995230674743652
-2.14396286010742188 30.5779247283935547 -3.68588566780090332
0.767051577568054199 -87.3918609619140625 4.20724630355834961
-0.0512872152030467987 -52.1605987548828125 6.26884365081787109
-3.50443601608276367 10.9207897186279297 -4.70148134231567383
