ply
format ascii 1.0
element vertex 780
comment vertices
property float x
property float y
property float z
end_header
3.97825908660888672 -40.2774543762207031 -3.26987695693969727
-2.41042542457580566 -66.4785232543945312 -1.04041039943695068
-1.75553452968597412 -80.8451156616210938 -2.58009958267211914
4.75535058975219727 -41.2851982116699219 -2.24876642227172852
5.23704767227172852 80.67193603515625 2.89890742301940918
-0.46972617506980896 -37.8180198669433594 -4.60415983200073242
2.27214574813842773 -98.5641326904296875 2.75970888137817383
2.11396670341491699 17.9752902984619141 3.89110064506530762
1.63773548603057861 -78.1625137329101562 -6.02900457382202148
2.65699934959411621 -12.9937038421630859 -4.54315805435180664
-1.7795557975769043 -80.963958740234375 -3.74966835975646973
3.09502673149108887 -69.3889007568359375 -5.98887777328491211
-0.922366797924041748 -4.87461376190185547 -4.1050872802734375
-0.651283323764801025 -74.9972610473632812 -3.40984416007995605
4.1005859375 -69.820831298828125 6.32228374481201172
-5.80469655990600586 59.7702598571777344 -2.76533198356628418
-2.97628092765808105 -26.6346969604492188 -5.09019947052001953
2.34627914428710938 -71.4148406982421875 -3.25546407699584961
0.661692202091217041 -0.280904114246368408 7.04210186004638672
-1.84416496753692627 -8.41506385803222656 -6.1973419189453125
6.56989574432373047 86.8845977783203125 -2.15303659439086914
4.23848056793212891 -68.1991729736328125 -5.32060670852661133
4.97773027420043945 -31.8721866607666016 1.21991264820098877
-4.49504852294921875 29.7039413452148438 2.03211259841918945
0.71692359447479248 66.885955810546875 -2.8843529224395752
1.60451197624206543 12.3843221664428711 -4.84351587295532227
1.24848675727844238 -94.7840347290039062 -2.05597400665283203
1.26022768020629883 78.3138885498046875 -4.53807783126831055
-2.63748860359191895 -57.7945632934570312 4.36372995376586914
-9.12310123443603516 66.790069580078125 -3.47707390785217285
-1.10219526290893555 3.79978775978088379 -6.78516244888305664
3.26526355743408203 -48.7173652648925781 -4.06313800811767578
-2.22851824760437012 -35.0206184387207031 7.08697748184204102
-2.85264968872070312 -8.00689888000488281 0.83526313304901123
1.70806670188903809 -9.12600612640380859 -3.88634490966796875
-4.84986782073974609 54.5074272155761719 -3.07763361930847168
4.19241952896118164 -56.5218048095703125 -4.67831993103027344
-0.289417386054992676 25.7584762573242188 4.78097963333129883
-1.29167032241821289 68.4789810180664062 3.59050607681274414
3.66737270355224609 -44.3979682922363281 -5.92610406875610352
-4.04247188568115234 46.0902633666992188 3.76269030570983887
4.7176666259765625 8.65932178497314453 -0.0449487939476966858
-6.91545677185058594 82.23638916015625 -5.66108226776123047
4.66518878936767578 -80.7719955444335938 -4.33868980407714844
3.86408329010009766 -58.5939292907714844 -4.42924833297729492
2.40356636047363281 -20.0329494476318359 -3.31904745101928711
-3.77785205841064453 76.5357513427734375 6.57748174667358398
4.78865480422973633 64.6492691040039062 2.74215888977050781
-0.314534515142440796 -43.2537307739257812 -4.62637138366699219
3.56813836097717285 82.1292266845703125 2.66518974304199219
1.09217345714569092 25.1684799194335938 -4.48910713195800781
-3.23618865013122559 49.546478271484375 1.80228102207183838
7.20024871826171875 88.7084274291992188 0.858673572540283203
-2.01414275169372559 -10.6821222305297852 -5.91671133041381836
5.15489006042480469 -44.3186759948730469 -3.92766928672790527
-2.16033577919006348 -37.7574844360351562 7.46282196044921875
6.03369855880737305 -54.8136062622070312 -0.88901066780090332
4.94124221801757812 75.748260498046875 2.15683126449584961
4.66840314865112305 21.9499874114990234 -0.782985448837280273
-9.47673797607421875 54.9052085876464844 -0.0724673941731452942
-5.11373662948608398 24.2453289031982422 -0.087855413556098938
4.049102783203125 2.64882707595825195 -0.809533178806304932
-1.32797956466674805 73.80169677734375 3.55153012275695801
-3.30141568183898926 -35.6797676086425781 0.354754477739334106
7.67980146408081055 88.3679656982421875 2.52380228042602539
0.841991841793060303 -53.3060188293457031 -6.43527030944824219
-5.15025472640991211 60.2790794372558594 -2.05643892288208008
5.6292881965637207 -40.6944618225097656 -0.28978082537651062
4.18699026107788086 9.77134513854980469 -5.09927749633789062
4.62988471984863281 -72.0700531005859375 -3.79516386985778809
-0.0249793212860822678 -98.1652450561523438 4.90872812271118164
-4.31334877014160156 70.77764892578125 7.06339168548583984
-4.70554447174072266 63.1122398376464844 -3.87074112892150879
-6.60896730422973633 45.3077316284179688 1.94272875785827637
4.65653514862060547 14.7943954467773438 -3.33037948608398438
1.28167688846588135 -67.9631881713867188 6.79390430450439453
-5.88431644439697266 81.4843673706054688 4.94752264022827148
-0.172823041677474976 -57.2773361206054688 -5.75504636764526367
4.84242439270019531 -33.5275917053222656 -3.46730542182922363
0.814328193664550781 -61.7865333557128906 -3.9522852897644043
2.5669856071472168 -48.3445854187011719 -6.74516010284423828
-2.58777332305908203 -38.8673362731933594 -4.73241758346557617
-1.67221665382385254 33.6989250183105469 2.92653942108154297
2.11613059043884277 -85.0583877563476562 -2.70236659049987793
2.53741884231567383 3.15276789665222168 5.02051401138305664
-2.55605626106262207 3.44550347328186035 -0.676851451396942139
2.97705292701721191 22.9070835113525391 1.91441869735717773
2.09716010093688965 -50.3493728637695312 5.93856287002563477
0.048413153737783432 -26.3211154937744141 5.42435550689697266
2.8867793083190918 82.4929962158203125 -4.18048238754272461
0.958338260650634766 -80.7595062255859375 7.36395406723022461
0.896418452262878418 -70.79071044921875 5.92724418640136719
-4.61853456497192383 67.8686752319335938 5.99128484725952148
-2.74298429489135742 22.9697227478027344 3.75145792961120605
4.94714832305908203 73.8548431396484375 -6.72232198715209961
1.21105730533599854 -2.19017505645751953 5.26558876037597656
4.44200325012207031 -79.7529678344726562 3.89645123481750488
-7.7895045280456543 56.3001861572265625 1.77776741981506348
0.747883856296539307 69.773834228515625 4.35728645324707031
3.16257810592651367 -17.9015064239501953 -3.47120499610900879
-6.56944608688354492 38.0720558166503906 1.73453819751739502
0.874761462211608887 -59.3963546752929688 6.2537989616394043
0.704974114894866943 6.50949001312255859 5.21204948425292969
-8.74594974517822266 49.4563217163085938 -0.336019277572631836
-0.515611886978149414 -40.2161598205566406 -4.64993476867675781
-1.52917635440826416 87.8579483032226562 3.44195652008056641
1.20436418056488037 66.2034225463867188 -2.97385859489440918
4.55698633193969727 -58.5773239135742188 -5.15297079086303711
5.10930299758911133 -20.83148193359375 -1.69860935211181641
-2.0757148265838623 73.8756866455078125 -6.1705775260925293
5.57018327713012695 10.0648050308227539 2.2708895206451416
6.12727022171020508 16.2001953125 2.71990346908569336
-2.57855987548828125 -36.2365760803222656 5.75384855270385742
5.78334951400756836 75.75872802734375 2.87787890434265137
2.45459103584289551 -73.0349655151367188 -4.6608881950378418
-8.39542007446289062 83.579925537109375 1.12109339237213135
-2.48795938491821289 -25.8728218078613281 4.62336587905883789
-2.72723197937011719 -58.5399665832519531 2.31011819839477539
-1.07218313217163086 -81.1532363891601562 -0.979308366775512695
-6.34873390197753906 44.8806381225585938 -1.52362537384033203
2.70332741737365723 -72.520477294921875 -6.10210990905761719
-2.08032846450805664 -9.436920166015625 5.21294736862182617
4.24123668670654297 -2.53196287155151367 2.45596933364868164
-0.593228340148925781 71.5133514404296875 4.4824519157409668
2.1953895092010498 -41.9766197204589844 6.23870944976806641
3.22455716133117676 -17.7503376007080078 -3.415802001953125
3.562744140625 -16.0422019958496094 -3.7510535717010498
-3.18556380271911621 -43.6000251770019531 0.877256155014038086
-1.16956830024719238 29.9780597686767578 -4.26401567459106445
2.98059844970703125 66.36834716796875 4.7110595703125
7.99151277542114258 90.6193923950195312 -0.418471992015838623
4.55473613739013672 -94.1435089111328125 0.272255599498748779
3.66369080543518066 -81.232208251953125 6.34559535980224609
5.18689155578613281 -78.9769821166992188 4.30228996276855469
0.777891933917999268 -37.9821891784667969 -7.19098997116088867
-5.12090444564819336 81.1296463012695312 -7.00850152969360352
-7.40798473358154297 72.1300430297851562 -5.36059188842773438
5.64221715927124023 -71.07525634765625 -2.69349431991577148
1.7729194164276123 -80.2954483032226562 7.23623132705688477
5.03456354141235352 -88.8570327758789062 -0.538395464420318604
2.01066446304321289 -37.7577362060546875 -5.32827854156494141
0.954293608665466309 82.9339065551757812 -4.90475225448608398
0.937291383743286133 -66.258544921875 6.95342111587524414
-9.37190818786621094 67.945587158203125 2.61274576187133789
-2.51842951774597168 -58.2071075439453125 -7.32578611373901367
-0.840786099433898926 -80.7978973388671875 -4.15194177627563477
1.49875819683074951 -30.2618865966796875 6.03980922698974609
3.07396936416625977 -52.7305450439453125 -4.11849498748779297
-4.55017518997192383 33.9382476806640625 -2.70726823806762695
-5.05086278915405273 40.8972969055175781 -1.06119489669799805
-3.64596724510192871 -71.6329574584960938 7.25910472869873047
-1.71160173416137695 -35.367401123046875 -6.83328485488891602
-3.7951817512512207 40.2917900085449219 4.65651559829711914
-3.91223597526550293 57.5443878173828125 2.14781427383422852
-1.58737194538116455 1.59468412399291992 6.19917964935302734
-1.73666250705718994 82.4532852172851562 -4.60170602798461914
-0.384744733572006226 -1.16926658153533936 6.04309797286987305
6.99760675430297852 88.27960205078125 -2.38880228996276855
1.84565055370330811 3.63943815231323242 -6.63816690444946289
-0.541869878768920898 -80.2875289916992188 -4.24686336517333984
-9.17790889739990234 73.1205978393554688 -0.780512213706970215
3.61220312118530273 -78.6625823974609375 -3.9167790412902832
0.0217094831168651581 8.10241889953613281 6.014678955078125
1.26949048042297363 -50.6740837097167969 -4.86557197570800781
-8.9580841064453125 80.0889663696289062 -2.01477146148681641
-7.98050403594970703 64.3203887939453125 -2.76176857948303223
3.12104225158691406 87.1239395141601562 -2.08052945137023926
5.02302312850952148 -35.1058120727539062 1.69189178943634033
4.9724578857421875 -24.2146415710449219 -1.7521369457244873
2.42064237594604492 -100.540794372558594 -0.353631108999252319
-2.79185080528259277 -36.3576545715332031 3.49015998840332031
-2.2297215461730957 75.366729736328125 6.54767274856567383
4.47473526000976562 -61.8537712097167969 5.94152212142944336
3.64423060417175293 -0.417602777481079102 -4.54873943328857422
1.61450827121734619 -53.9355812072753906 -4.12316036224365234
3.78817319869995117 -89.1615982055664062 3.98855447769165039
0.31151774525642395 -3.27060914039611816 5.50934505462646484
3.24769282341003418 -81.772064208984375 -2.33213949203491211
5.16443157196044922 80.1244125366210938 3.64063024520874023
2.0937798023223877 1.07812321186065674 6.43225479125976562
3.43828678131103516 -13.8810930252075195 -4.94907951354980469
1.51401746273040771 2.57897233963012695 4.88524961471557617
3.20803308486938477 -58.4260711669921875 -3.3164515495300293
-1.62706518173217773 16.7839565277099609 3.85786247253417969
-9.14667510986328125 70.4462966918945312 1.11800956726074219
-4.77537965774536133 84.5751113891601562 -6.33439779281616211
2.09785270690917969 -85.1094970703125 6.78275728225708008
2.46630859375 -8.40005683898925781 -5.16002893447875977
2.51619815826416016 18.6114501953125 3.76362967491149902
2.19518113136291504 -14.0232467651367188 4.06041526794433594
-9.34367752075195312 59.8405685424804688 1.73344540596008301
3.65267658233642578 2.02671384811401367 4.27080202102661133
-7.18366193771362305 69.7584686279296875 -4.78244876861572266
-2.9694969654083252 -47.0389823913574219 -1.31886732578277588
-8.32620620727539062 70.9270401000976562 5.75706148147583008
2.55441021919250488 1.59946763515472412 5.11942863464355469
-2.89959287643432617 -57.2271537780761719 -7.35819149017333984
1.4125140905380249 17.8306694030761719 -4.35096168518066406
5.86796998977661133 -73.284271240234375 0.574995458126068115
4.42681646347045898 63.709808349609375 4.02469158172607422
3.40685534477233887 -42.4916305541992188 -6.01272249221801758
6.35041332244873047 85.1007461547851562 4.27826213836669922
2.80566120147705078 -44.5051116943359375 -6.54478073120117188
2.89301943778991699 -55.2695465087890625 5.4622044563293457
0.183774590492248535 12.6620912551879883 -3.46560525894165039
-5.4836421012878418 52.6616058349609375 2.2664792537689209
1.88778305053710938 5.4568328857421875 -6.54163360595703125
-6.66060209274291992 59.85870361328125 -1.43924629688262939
-2.41325139999389648 -53.7392921447753906 8.73891353607177734
3.03887057304382324 -80.8790664672851562 -3.9178614616394043
3.81498432159423828 -60.3927841186523438 -3.54952526092529297
5.77554559707641602 -62.3301658630371094 -2.66854548454284668
-5.68561601638793945 70.317108154296875 -6.95769405364990234
0.950577914714813232 -0.285843133926391602 -6.19868707656860352
-2.01401948928833008 67.7546539306640625 5.2163238525390625
-3.78338503837585449 39.1281394958496094 4.70004701614379883
1.15450179576873779 -30.1068229675292969 -6.11516284942626953
4.33792924880981445 -79.8970870971679688 -3.6819758415222168
-4.47905731201171875 75.196014404296875 -6.92050743103027344
0.208913922309875488 -33.3794593811035156 -7.21335172653198242
-1.27585875988006592 1.5672379732131958 -4.98001432418823242
-2.17852997779846191 -47.6614952087402344 -6.0998072624206543
-3.13157916069030762 26.5793876647949219 2.53569459915161133
5.42910861968994141 -52.7076454162597656 4.21574544906616211
5.30326080322265625 63.8326454162597656 1.71541047096252441
-4.77273082733154297 75.994659423828125 -5.88297653198242188
3.54091811180114746 -93.789398193359375 -2.50873184204101562
0.194235250353813171 -93.9876251220703125 -1.66400933265686035
2.8626399040222168 -26.2884445190429688 -5.97122764587402344
-2.16409635543823242 -71.8992843627929688 6.43506860733032227
-1.58829915523529053 -47.4039802551269531 -7.5719304084777832
3.25669503211975098 -35.0682334899902344 -2.96365141868591309
-3.63930869102478027 49.1648597717285156 2.56882476806640625
-3.00041437149047852 -52.5634880065917969 -4.15680789947509766
-7.24469804763793945 79.3733139038085938 -4.47228193283081055
-2.58196759223937988 66.6260147094726562 7.78736352920532227
4.22610807418823242 -22.9882564544677734 4.43815326690673828
1.89716720581054688 -80.9818115234375 -4.89845085144042969
-3.1787724494934082 -69.6850051879882812 8.04159450531005859
3.70013761520385742 90.7594375610351562 -1.85068404674530029
3.96935772895812988 79.3336105346679688 -5.15619611740112305
2.44854545593261719 0.959680318832397461 -6.42709636688232422
0.56348717212677002 69.5674667358398438 4.89099740982055664
4.30868434906005859 69.9832611083984375 -3.36635613441467285
-8.29966354370117188 80.1343765258789062 3.51985883712768555
5.80818796157836914 -73.6193313598632812 -1.52019083499908447
-5.74547290802001953 56.9554061889648438 2.22881388664245605
-1.23565149307250977 -1.6030954122543335 -6.59040164947509766
1.81735062599182129 12.1659717559814453 3.74616765975952148
-4.15892553329467773 -61.8904190063476562 -4.74209690093994141
-6.06503200531005859 69.2418136596679688 -7.33900690078735352
-0.980202734470367432 10.5892982482910156 -5.30153703689575195
-2.88845419883728027 -24.7513046264648438 3.67026543617248535
-6.19894218444824219 39.5596885681152344 -2.33848690986633301
2.16404843330383301 -57.8130722045898438 -4.39122104644775391
0.193400591611862183 21.2045650482177734 -5.77334737777709961
-0.958509266376495361 32.197113037109375 2.63581037521362305
1.38450038433074951 62.99835205078125 1.06784451007843018
-2.62102508544921875 -63.2892265319824219 -4.48879003524780273
1.49195206165313721 65.5576019287109375 -2.67224955558776855
3.59282803535461426 -56.4689788818359375 -3.13445425033569336
-6.2867884635925293 66.8556137084960938 -6.13997697830200195
-2.90104150772094727 41.6424942016601562 -1.29545843601226807
1.19740748405456543 7.87747812271118164 5.96571636199951172
-1.9214484691619873 16.1155014038085938 -0.0215323902666568756
5.43978738784790039 -46.5529823303222656 1.92314040660858154
2.53097987174987793 -59.7326011657714844 -3.61710071563720703
-2.40579700469970703 61.9063949584960938 3.68539619445800781
-9.34269237518310547 46.0718917846679688 1.04201114177703857
0.257800966501235962 -12.0398731231689453 4.48506402969360352
2.53061079978942871 -22.8947982788085938 4.46782112121582031
-2.18747115135192871 -67.6203765869140625 4.72694158554077148
-1.51370549201965332 -74.4084625244140625 8.23575687408447266
2.42992115020751953 62.1654090881347656 -0.463363319635391235
3.59463262557983398 -92.6779937744140625 -2.13426303863525391
-3.04567718505859375 76.4560699462890625 -3.7118833065032959
-2.47223019599914551 18.8683261871337891 1.41995918750762939
0.317629307508468628 -88.2930374145507812 -4.82857894897460938
-5.73908138275146484 92.0087203979492188 -0.46977195143699646
2.72723007202148438 -88.8275527954101562 -3.7468116283416748
3.36160016059875488 80.8588638305664062 -5.35564470291137695
2.61932086944580078 63.8977165222167969 -2.49881505966186523
1.53483402729034424 62.4918594360351562 3.6229851245880127
-3.24111819267272949 -47.1665153503417969 -5.5594782829284668
1.11985719203948975 -7.35499286651611328 -4.09625387191772461
3.63188529014587402 78.6261444091796875 4.14934015274047852
-1.60253441333770752 -24.0509624481201172 -6.78426408767700195
-7.69106674194335938 47.0107536315917969 2.68932151794433594
2.41943216323852539 15.7861223220825195 3.72955131530761719
3.04138851165771484 -22.3313426971435547 5.97148036956787109
-1.47682297229766846 35.987945556640625 0.547123610973358154
0.634322643280029297 -92.2378311157226562 -0.0854002013802528381
-1.70907998085021973 -72.3541793823242188 3.27214384078979492
-1.17199766635894775 27.7269973754882812 5.16175222396850586
-1.21202695369720459 13.9198846817016602 -4.07014226913452148
-2.82586765289306641 -14.1997652053833008 3.42290973663330078
-8.57444095611572266 51.86798095703125 -0.293152272701263428
0.0661642998456954956 78.2479248046875 -3.82349395751953125
5.92432260513305664 74.0510025024414062 2.98531436920166016
1.74367237091064453 -41.2068748474121094 -4.71214389801025391
3.48252010345458984 -39.957763671875 -3.68492913246154785
4.22506475448608398 6.02087974548339844 -3.08375859260559082
1.24930024147033691 -17.6968193054199219 -3.96078920364379883
5.56806755065917969 -39.6342544555664062 -1.27932083606719971
3.0526883602142334 -60.2088356018066406 5.37833166122436523
4.4639129638671875 64.26812744140625 2.66042399406433105
-6.38912439346313477 36.7278480529785156 1.78162229061126709
6.10601329803466797 83.0076904296875 1.28758406639099121
1.90508723258972168 26.1515483856201172 -2.02965497970581055
-6.59095478057861328 32.1676750183105469 -0.934861958026885986
-2.73961448669433594 -4.28086042404174805 -0.0524226352572441101
2.59467720985412598 4.95458984375 -6.35263347625732422
6.05255937576293945 81.3043975830078125 -3.25834393501281738
-1.49891769886016846 -76.0978927612304688 8.13589096069335938
-0.272296488285064697 -9.03548622131347656 -4.78322172164916992
-2.01616501808166504 89.8026580810546875 1.76287734508514404
5.27746677398681641 -39.56939697265625 2.6234734058380127
1.53639853000640869 24.7510299682617188 -1.91563403606414795
-3.00563764572143555 -11.0686893463134766 0.576819419860839844
5.50514364242553711 -46.9123802185058594 3.10348987579345703
3.0751655101776123 81.1060028076171875 -5.18603229522705078
-3.21916389465332031 61.7359542846679688 2.53804230690002441
1.17406189441680908 -37.8066825866699219 -5.67635869979858398
-3.0341639518737793 30.8129482269287109 4.83702421188354492
-4.44965076446533203 64.6838760375976562 -5.87666988372802734
2.08545446395874023 -20.0955371856689453 -4.89462661743164062
0.857926607131958008 -93.3892669677734375 -0.596101462841033936
-1.61060619354248047 4.44943094253540039 -5.00049304962158203
1.34554553031921387 -46.6374282836914062 8.03978919982910156
-5.08262252807617188 84.4943008422851562 -5.63237142562866211
-2.8622586727142334 -36.2270088195800781 -3.43764901161193848
-0.0196743365377187729 -20.7817249298095703 -3.67580175399780273
4.75091743469238281 16.0814762115478516 3.05242729187011719
1.90166068077087402 -83.7678298950195312 5.73194074630737305
5.34031295776367188 -39.7804679870605469 1.30076169967651367
0.776772141456604004 64.9060134887695312 3.82382702827453613
-7.877532958984375 40.31463623046875 -1.39046132564544678
-6.47507762908935547 61.49334716796875 -3.80876755714416504
3.55681109428405762 -26.0459880828857422 -5.25668907165527344
0.170084252953529358 78.9323654174804688 3.49056053161621094
-7.88010931015014648 55.3412322998046875 -1.32740509510040283
-2.08754658699035645 -19.5527992248535156 5.81131458282470703
-2.30877447128295898 -33.2791061401367188 -6.0303196907043457
-3.61231374740600586 63.6275215148925781 -0.968544244766235352
-2.49476504325866699 67.095489501953125 3.4027707576751709
0.687225699424743652 -32.454803466796875 6.47887086868286133
5.19345617294311523 68.7144241333007812 -4.0216069221496582
-7.7901763916015625 41.892333984375 2.37205767631530762
5.63231754302978516 -65.2754898071289062 1.98030602931976318
-1.39080405235290527 -76.1204605102539062 1.91243612766265869
-0.129557415843009949 31.3319549560546875 3.13624405860900879
-3.99901556968688965 -59.1673660278320312 -4.81400823593139648
-0.664519250392913818 -23.5184078216552734 -6.11408710479736328
-8.15437412261962891 86.0249099731445312 0.739394783973693848
1.35800778865814209 3.99919962882995605 -4.73478507995605469
-4.55926895141601562 52.8803253173828125 -2.73295116424560547
2.31596946716308594 -37.6193389892578125 -5.16548252105712891
5.21512651443481445 -77.8686370849609375 2.65308737754821777
-2.59419941902160645 27.1244544982910156 -2.38766980171203613
-0.510271072387695312 89.0076828002929688 -0.703006327152252197
1.20346581935882568 82.9224319458007812 -3.25603270530700684
-1.09104025363922119 68.5535049438476562 -5.10105562210083008
-1.89829933643341064 16.0316867828369141 0.788277626037597656
-2.5410149097442627 1.19759905338287354 0.36642947793006897
0.341825038194656372 6.81403160095214844 -6.21434116363525391
-4.34014225006103516 31.0685691833496094 3.48287606239318848
1.48387885093688965 66.1430816650390625 4.98922586441040039
-4.42859840393066406 -54.8049507141113281 5.89968681335449219
-5.65486526489257812 71.2505264282226562 -6.49431753158569336
-1.12794530391693115 -63.4013023376464844 7.36823511123657227
0.768298149108886719 -84.4090728759765625 -2.36663699150085449
2.97413372993469238 7.29959917068481445 -3.39088058471679688
-0.412556469440460205 -26.50262451171875 -4.76047563552856445
-8.592529296875 69.9370269775390625 -5.11285638809204102
4.04331207275390625 5.57799434661865234 -4.66468381881713867
4.99900197982788086 4.16957712173461914 3.95888614654541016
-8.97002029418945312 69.5637664794921875 1.76168549060821533
8.12302780151367188 85.2372055053710938 4.23136615753173828
-0.593562066555023193 -88.3257369995117188 -2.32258820533752441
-5.56413125991821289 -55.0065155029296875 7.11420249938964844
-1.13321602344512939 -3.88275671005249023 -4.29708766937255859
-2.88397383689880371 21.459320068359375 2.64057636260986328
-0.504399359226226807 -21.7683258056640625 6.63582420349121094
-2.1469120979309082 -74.5991363525390625 8.28228950500488281
-3.56878995895385742 63.3604965209960938 6.12282896041870117
-5.79343509674072266 62.70684814453125 -2.98753523826599121
-0.233846977353096008 -58.8959846496582031 8.37583541870117188
-5.13430213928222656 65.751861572265625 -5.61267805099487305
-3.50150632858276367 46.1271553039550781 -0.618254601955413818
-0.680612802505493164 -51.4573822021484375 -5.0377802848815918
-6.32886600494384766 62.4363822937011719 -3.45703673362731934
2.28527283668518066 3.90117359161376953 -5.71500921249389648
1.6108475923538208 -36.9927711486816406 6.35254716873168945
-7.05990695953369141 83.4228363037109375 -5.3544621467590332
3.22150015830993652 78.7616119384765625 -3.84915637969970703
5.66935968399047852 74.4852218627929688 2.40707206726074219
-2.22553610801696777 84.6791305541992188 6.40462636947631836
3.99041366577148438 -30.6089038848876953 -4.79955053329467773
1.60751891136169434 -2.59435319900512695 6.74569082260131836
-1.88292801380157471 -33.8370590209960938 -4.6319117546081543
3.4572913646697998 -97.21875 2.18851399421691895
-0.146972939372062683 -53.0103607177734375 -4.37255573272705078
3.50530242919921875 -81.0753021240234375 6.48495340347290039
2.9544365406036377 -5.5531463623046875 -3.20926332473754883
4.24885463714599609 -21.5607585906982422 -2.84828495979309082
3.71343183517456055 81.9630355834960938 -3.37520360946655273
-3.7393488883972168 70.5225677490234375 -4.8549199104309082
-5.53822040557861328 63.8114852905273438 -4.19400215148925781
1.44438660144805908 -74.1392974853515625 -6.31926441192626953
2.15400385856628418 22.5346355438232422 -4.77650785446166992
-5.78417634963989258 61.7843017578125 3.96530246734619141
3.45316696166992188 66.0473785400390625 -5.66912984848022461
3.01884841918945312 -34.9729576110839844 -5.16055631637573242
0.127303868532180786 -37.0769424438476562 -4.47932672500610352
-9.63586807250976562 63.1432304382324219 -2.19441652297973633
3.1687624454498291 -5.62018775939941406 -4.61868667602539062
4.18089628219604492 -95.1793899536132812 -1.34111416339874268
2.91369533538818359 -63.5393753051757812 -3.9056696891784668
0.792077720165252686 80.4062576293945312 -5.23476743698120117
-2.0154578685760498 87.6939163208007812 3.08730530738830566
-7.35038471221923828 61.3039474487304688 -4.08764934539794922
-0.624020814895629883 -52.1425056457519531 -4.41457414627075195
2.93002486228942871 -99.7024993896484375 -1.0780102014541626
-5.98321914672851562 39.1111068725585938 2.26420497894287109
4.45812654495239258 -79.1164016723632812 -2.2574162483215332
-3.3713984489440918 26.9514427185058594 2.18899035453796387
2.89696359634399414 -53.3843307495117188 -4.17854833602905273
-2.63067412376403809 71.704193115234375 -4.03713226318359375
0.416209936141967773 69.1930007934570312 4.44678306579589844
2.81564211845397949 -100.308158874511719 -0.559164881706237793
1.90174460411071777 -57.8561935424804688 -4.48275375366210938
-0.774419128894805908 -57.0631828308105469 -6.53280401229858398
-2.78827285766601562 -49.5970458984375 4.06547737121582031
-5.71835517883300781 89.63934326171875 -4.14328432083129883
-5.27109146118164062 64.7589645385742188 -5.16287851333618164
1.35966253280639648 -32.2463455200195312 6.25246953964233398
5.34087181091308594 -48.9482154846191406 -3.8237762451171875
4.20094919204711914 -21.0162029266357422 2.5809025764465332
-1.27536225318908691 25.0512638092041016 -3.73459601402282715
-4.63602542877197266 58.6991195678710938 3.14796328544616699
2.87270188331604004 -59.3979911804199219 7.33437585830688477
-3.79135537147521973 37.3345527648925781 -3.74980974197387695
4.47937917709350586 -64.4951095581054688 5.92851734161376953
0.935564279556274414 90.7345428466796875 -1.71819031238555908
0.843504190444946289 -85.624053955078125 4.9500732421875
1.38038599491119385 87.2676467895507812 -1.84593760967254639
-2.31661891937255859 -17.1157169342041016 -4.76134681701660156
5.79935741424560547 18.5550212860107422 2.47249841690063477
5.64836835861206055 -47.8356857299804688 -2.69422411918640137
5.08387517929077148 -25.5413036346435547 0.969977080821990967
3.67061448097229004 -10.8926706314086914 3.65368747711181641
-0.500948250293731689 -54.0562515258789062 7.39587974548339844
-2.00246548652648926 37.8274116516113281 -0.251243919134140015
-1.99757719039916992 -41.0162086486816406 -6.18752717971801758
3.38189363479614258 -16.2008762359619141 -4.99942588806152344
-2.11391782760620117 -55.1151199340820312 -4.48549842834472656
-3.62051105499267578 59.0271873474121094 2.5453650951385498
5.92380571365356445 59.8427925109863281 1.53082883358001709
-8.25887966156005859 79.4909439086914062 4.82277584075927734
4.23026704788208008 -7.89514350891113281 4.30099248886108398
4.13331937789916992 -55.0643386840820312 -3.39223051071166992
-0.0588283762335777283 -38.9098281860351562 7.05498075485229492
-1.53229272365570068 67.5916519165039062 -3.07282233238220215
-3.71344470977783203 -52.0661125183105469 -5.69309139251708984
-2.97093105316162109 -71.9680862426757812 -3.16983222961425781
-3.63211989402770996 23.8012542724609375 -2.59663510322570801
4.10926246643066406 -33.1067962646484375 -4.80147409439086914
-7.79541921615600586 47.9983749389648438 -1.14887881278991699
6.6941075325012207 67.5956878662109375 4.14156293869018555
-1.1091911792755127 -0.202841460704803467 -4.66605424880981445
-0.934329092502593994 -79.45989990234375 -4.33310794830322266
-2.09852361679077148 -67.7090225219726562 3.86995887756347656
5.37959146499633789 -45.6477203369140625 3.61067700386047363
-1.38360905647277832 -89.1498489379882812 6.26294088363647461
1.06134843826293945 11.8977108001708984 -5.55651235580444336
-2.99271011352539062 -69.895904541015625 7.76166296005249023
3.32664322853088379 15.4711112976074219 -3.51377415657043457
6.18323469161987305 88.5314254760742188 -3.89506888389587402
-8.96331024169921875 58.2363243103027344 2.50471925735473633
2.46492147445678711 -65.1957778930664062 5.50055313110351562
0.612129867076873779 10.0627584457397461 -3.72030544281005859
1.52844011783599854 -13.2648992538452148 5.94274187088012695
-0.146537929773330688 -80.0521316528320312 6.41979074478149414
-8.22518444061279297 50.9120750427246094 -0.982448101043701172
4.06911373138427734 -44.0656318664550781 4.57047891616821289
3.60633301734924316 -28.2475299835205078 5.86382007598876953
1.08013260364532471 84.2863388061523438 -2.43833351135253906
-2.97812485694885254 -57.8258514404296875 -3.08191227912902832
2.16237449645996094 -13.0646400451660156 -3.69892430305480957
-7.50995111465454102 57.0680313110351562 1.96011841297149658
2.25561285018920898 -9.2081451416015625 -3.78666090965270996
3.43488240242004395 22.963592529296875 2.40319514274597168
-7.92893600463867188 44.8341560363769531 -0.823999643325805664
4.99382543563842773 -83.4128570556640625 4.01165008544921875
-1.7817542552947998 -16.0769882202148438 -5.64806747436523438
-5.48894309997558594 81.014129638671875 5.35457086563110352
3.59642910957336426 20.4450740814208984 5.81014823913574219
1.16309726238250732 14.9842824935913086 3.49614071846008301
4.11298274993896484 66.303466796875 -4.06053781509399414
-3.27643322944641113 57.4937057495117188 1.40538394451141357
-8.19170570373535156 69.61370849609375 -5.65903234481811523
-6.94030141830444336 60.7632522583007812 -4.04884862899780273
4.60175323486328125 -33.6029891967773438 4.36648464202880859
-2.24922776222229004 -68.1602554321289062 -0.544841468334197998
-9.19896221160888672 70.0803375244140625 0.473062306642532349
-6.45061016082763672 62.7824592590332031 -4.91246604919433594
-1.88103687763214111 -41.2944183349609375 -4.73557519912719727
4.52686691284179688 -18.6386909484863281 -2.73876404762268066
1.74931049346923828 -82.0186080932617188 -5.65267086029052734
-2.60236287117004395 -47.0245895385742188 -5.52465534210205078
-1.50534200668334961 -21.3403034210205078 -3.78452825546264648
0.86113661527633667 -33.7110061645507812 5.83409976959228516
-1.62094283103942871 89.8021316528320312 -0.0491124428808689117
-4.62778520584106445 31.6740894317626953 2.13788795471191406
-3.04768776893615723 86.2555160522460938 4.17016506195068359
-2.07635807991027832 -28.7974987030029297 -5.84019851684570312
-2.9589698314666748 -59.6752395629882812 -3.53694772720336914
-6.40238428115844727 77.1854400634765625 -6.44642925262451172
6.28909873962402344 90.4983673095703125 -0.653320670127868652
0.0189774464815855026 -77.7669830322265625 -4.50212860107421875
5.29325532913208008 87.3386688232421875 1.18570578098297119
3.18625783920288086 62.5126457214355469 -0.450971394777297974
-0.793544292449951172 -70.280792236328125 -5.93110513687133789
0.925887644290924072 77.33660888671875 -4.70448732376098633
-0.365181267261505127 28.5776786804199219 -2.3116450309753418
4.73797082901000977 -69.4883651733398438 3.84595751762390137
-8.77678489685058594 75.5521697998046875 -0.0607366114854812622
3.66117215156555176 -58.3086013793945312 6.79231452941894531
3.20282101631164551 -68.4740219116210938 5.76607751846313477
-5.73192644119262695 38.456787109375 -1.59075748920440674
-0.119501389563083649 -18.6944656372070312 -4.11260271072387695
-0.201729252934455872 -34.2628440856933594 -6.60769367218017578
-8.88453769683837891 81.0458908081054688 1.32799160480499268
-3.74205851554870605 -64.4884185791015625 -3.26172614097595215
-3.20297527313232422 13.9706335067749023 -0.370247870683670044
-0.0433236807584762573 26.6070556640625 -1.98058688640594482
1.77932322025299072 -3.49705028533935547 -3.7459869384765625
-0.232783153653144836 -40.1649436950683594 -7.46582841873168945
-1.57247471809387207 -74.5758895874023438 1.25402796268463135
6.04039478302001953 16.7242774963378906 2.25954866409301758
-4.51427793502807617 65.6806793212890625 -4.25050497055053711
5.69510746002197266 18.4233627319335938 -3.08776998519897461
5.86637306213378906 17.3972053527832031 -0.569521248340606689
-5.9981532096862793 35.8443870544433594 -1.24561846256256104
4.89990711212158203 65.3866348266601562 4.77797412872314453
-3.73789048194885254 -60.83209228515625 -5.24132156372070312
-1.91036760807037354 -85.9185562133789062 6.51209163665771484
-2.92308807373046875 -14.0587730407714844 -2.10094881057739258
3.57950830459594727 -98.465576171875 0.0584493130445480347
0.918265044689178467 -29.5882034301757812 6.20496129989624023
5.01229715347290039 68.372711181640625 -2.96798872947692871
-2.04805350303649902 76.460693359375 -3.80589818954467773
-4.60075092315673828 34.3761024475097656 3.48542046546936035
2.7584691047668457 66.764129638671875 -5.55807256698608398
-0.31901174783706665 4.01122045516967773 -5.96189165115356445
-4.09285593032836914 76.577362060546875 -7.48527336120605469
2.34088873863220215 11.0734033584594727 -3.34258604049682617
2.60339999198913574 -71.7308883666992188 -3.16822171211242676
2.3334050178527832 -49.5962448120117188 -3.93366599082946777
6.34834098815917969 78.7630691528320312 2.20211029052734375
3.15068531036376953 -64.5767669677734375 -6.1545405387878418
-0.00314524490386247635 -8.36791038513183594 -4.06557083129882812
4.4295654296875 -91.4396209716796875 1.69919967651367188
-3.17157721519470215 -62.4717063903808594 -6.39873409271240234
-3.54198527336120605 33.0099639892578125 2.2096402645111084
-0.974384486675262451 71.1608352661132812 -3.98541402816772461
6.62725210189819336 78.287078857421875 2.47019624710083008
-2.69758987426757812 87.9912185668945312 -2.86822295188903809
2.88825368881225586 -15.9362802505493164 4.49913692474365234
4.48706340789794922 68.2103347778320312 -6.24107503890991211
3.61626982688903809 -62.9221763610839844 -5.90756082534790039
-0.781866073608398438 -73.4562225341796875 -5.68957710266113281
-2.01556563377380371 -44.6217994689941406 -6.16763544082641602
1.65038633346557617 68.9404678344726562 4.07822132110595703
4.89438199996948242 -62.7349700927734375 -2.41100358963012695
3.07122015953063965 -78.8724212646484375 -4.75944137573242188
2.25390458106994629 -11.4322242736816406 5.89254474639892578
-2.14415264129638672 -82.884490966796875 4.72706127166748047
-2.36829590797424316 87.4751968383789062 5.27602863311767578
4.42946100234985352 73.4510269165039062 -5.04140806198120117
-0.709955573081970215 70.8980331420898438 -3.85146713256835938
-2.5047461986541748 -0.832297265529632568 3.03633451461791992
-2.22896766662597656 -8.88972663879394531 5.09170389175415039
5.64754724502563477 -64.45703125 3.01180076599121094
2.02727293968200684 -64.8498077392578125 6.52743816375732422
-3.13948369026184082 -55.7774200439453125 -5.87780332565307617
0.507116734981536865 -38.678253173828125 -7.30134963989257812
5.56353425979614258 -61.5761260986328125 -3.45544290542602539
7.97850751876831055 91.1148452758789062 -0.516642212867736816
5.35569095611572266 -52.6973075866699219 4.41462135314941406
-1.35883259773254395 -77.622406005859375 -3.52034544944763184
-0.218831732869148254 -88.1749420166015625 4.74274539947509766
-1.69973480701446533 2.86195707321166992 -5.46530485153198242
-2.77755832672119141 0.858471095561981201 -1.05904674530029297
-1.48669672012329102 -24.7821273803710938 -6.85159635543823242
9.43419647216796875 86.8821563720703125 0.305669844150543213
-3.67630577087402344 11.3632125854492188 -0.649697184562683105
5.02664566040039062 79.7086334228515625 3.99192309379577637
-1.28645789623260498 -77.6563873291015625 1.50112545490264893
0.168641149997711182 7.74800777435302734 -6.16219139099121094
0.257895618677139282 13.1124763488769531 4.22465610504150391
-0.0546219088137149811 12.9558515548706055 -4.95648431777954102
1.36375653743743896 -93.0497283935546875 6.05256748199462891
2.71961021423339844 -21.3227519989013672 -4.80083847045898438
3.72338652610778809 1.39300382137298584 -4.16588973999023438
2.46249651908874512 -31.5256977081298828 4.94287729263305664
5.96002006530761719 17.0778789520263672 1.2697373628616333
5.39701318740844727 77.8635787963867188 -0.637184858322143555
-0.546418905258178711 15.4847583770751953 -3.73693680763244629
3.67522430419921875 70.0655670166015625 1.71615362167358398
5.10040378570556641 63.8947219848632812 3.38110017776489258
5.25552845001220703 -53.5209312438964844 -4.15473604202270508
1.69233310222625732 20.6150474548339844 6.11823558807373047
-6.47733736038208008 39.5542373657226562 -0.834722995758056641
-8.54938697814941406 58.8917045593261719 2.93638038635253906
-9.62172031402587891 53.3757400512695312 0.75476151704788208
-0.83489614725112915 -68.7905807495117188 -3.84355831146240234
2.38470768928527832 -59.053253173828125 7.64553356170654297
-0.144961655139923096 -91.9541397094726562 6.34263324737548828
5.05053567886352539 73.7406692504882812 -2.69359207153320312
-5.08583879470825195 85.8477859497070312 -5.33932161331176758
-4.82938480377197266 73.1490936279296875 -6.70624113082885742
-2.38794136047363281 -70.0150604248046875 6.53185653686523438
2.26870822906494141 62.5309524536132812 -0.237823888659477234
-0.641310453414916992 -83.20684814453125 3.24617123603820801
5.11574602127075195 -38.9942169189453125 -3.45393085479736328
1.15933823585510254 63.5045585632324219 1.18279588222503662
5.23488903045654297 -39.0064773559570312 2.59419345855712891
-2.3199763298034668 -69.1913223266601562 -1.81109559535980225
-2.8815762996673584 61.8960952758789062 5.41418123245239258
2.47382950782775879 -69.1898651123046875 7.35730695724487305
-8.48383426666259766 76.5816879272460938 3.39233803749084473
2.9610440731048584 -41.3071403503417969 -4.98193883895874023
0.981237173080444336 22.5168895721435547 5.56134271621704102
-1.87940347194671631 88.0224380493164062 3.54854583740234375
-0.213334232568740845 -72.8267059326171875 -5.74898338317871094
-3.99084305763244629 53.4322433471679688 0.136611431837081909
1.54674208164215088 -34.7064628601074219 6.28368663787841797
-1.76524734497070312 65.5990753173828125 5.16561079025268555
-0.979735791683197021 79.4839935302734375 3.21096897125244141
-1.23781478404998779 -85.783477783203125 -2.64429950714111328
0.189142391085624695 4.49840593338012695 -6.39653968811035156
-2.90931463241577148 -35.7801780700683594 -1.73031163215637207
-2.90270423889160156 -39.9644889831542969 -6.12053298950195312
-8.79097557067871094 41.0632209777832031 -0.0439298041164875031
-2.66177749633789062 -72.260498046875 6.25512313842773438
-2.19934844970703125 -70.8662033081054688 -2.01244401931762695
-2.86389017105102539 -75.5892486572265625 -5.75297737121582031
3.38598299026489258 -86.76318359375 -2.15305280685424805
1.16483747959136963 27.4903411865234375 -3.50675034523010254
2.9296104907989502 -88.73785400390625 -3.04244375228881836
2.64367365837097168 81.56854248046875 3.74816346168518066
-1.95859193801879883 -66.9381484985351562 8.60776138305664062
-3.61724424362182617 26.0643386840820312 -3.12548637390136719
-5.22569799423217773 51.6941452026367188 -1.40706849098205566
3.56804561614990234 20.5111408233642578 -4.03104209899902344
5.07852792739868164 11.7412033081054688 -2.86005401611328125
-1.01982343196868896 -74.4172821044921875 -5.60519504547119141
0.315209001302719116 23.8364753723144531 -5.17399454116821289
-4.72118377685546875 -55.9920616149902344 -4.43014049530029297
5.65152359008789062 -67.27288818359375 2.58952808380126953
1.52729892730712891 -13.1140766143798828 4.89824533462524414
-4.01003217697143555 -71.3668670654296875 5.31050634384155273
3.66813468933105469 -2.87802433967590332 -3.24799704551696777
-2.74517369270324707 -43.1748428344726562 4.55548334121704102
3.47257328033447266 -12.4139480590820312 -4.98082351684570312
3.31453061103820801 5.00101470947265625 4.3858189582824707
4.91878747940063477 -52.630645751953125 5.32221364974975586
-2.77990412712097168 -57.3919143676757812 2.31296467781066895
4.77697277069091797 -28.5495185852050781 -2.3307497501373291
-4.34121274948120117 -64.7147293090820312 -3.62183690071105957
-2.64780855178833008 -71.2559127807617188 8.35539150238037109
3.62528061866760254 1.94734382629394531 5.68682336807250977
-5.97194623947143555 38.8898735046386719 3.2892451286315918
2.0892939567565918 -23.2968616485595703 -5.55212926864624023
-2.71970582008361816 41.0787162780761719 0.727320551872253418
-9.03031444549560547 71.5414047241210938 -4.45297050476074219
-0.0922062993049621582 -46.5834579467773438 -6.778106689453125
-0.812030494213104248 -73.309844970703125 -5.71138381958007812
-5.97734546661376953 64.9359588623046875 -4.68279933929443359
-3.09564423561096191 -27.3955516815185547 3.2574315071105957
3.88709926605224609 -5.60068273544311523 -0.787125587463378906
-1.57965731620788574 -10.5657873153686523 -4.67213249206542969
1.77730143070220947 18.8603458404541016 -5.38416576385498047
2.49885296821594238 -51.4315986633300781 7.58942270278930664
0.742736518383026123 -67.9967117309570312 -4.27321863174438477
-1.51425635814666748 -29.5138645172119141 -4.41028261184692383
3.10309076309204102 -55.7630500793457031 -6.35149717330932617
0.485457092523574829 -64.975433349609375 -6.89474868774414062
-5.33893632888793945 56.3287010192871094 -2.65297245979309082
4.79392671585083008 -39.4886436462402344 -1.93074452877044678
4.40020561218261719 14.7481689453125 2.95055913925170898
1.1296008825302124 -48.4550628662109375 -5.84292221069335938
-2.90127992630004883 -8.76171207427978516 0.674976587295532227
1.7613215446472168 -98.0865020751953125 0.339588165283203125
-7.91879081726074219 84.8411788940429688 -3.68169569969177246
3.10744857788085938 -96.3457260131835938 4.86726713180541992
-1.84252548217773438 14.5496406555175781 1.38302206993103027
1.81504511833190918 -48.1837501525878906 -7.05738639831542969
-1.34693586826324463 -48.2127571105957031 -5.16159152984619141
-1.83614909648895264 -40.9742660522460938 -6.89243412017822266
2.54129505157470703 0.835729897022247314 -5.48906660079956055
5.85666227340698242 -71.39398193359375 0.343451172113418579
-2.65564823150634766 -29.8278942108154297 3.98190665245056152
-4.92974138259887695 35.6579551696777344 3.46285772323608398
-3.27495861053466797 -71.859771728515625 -2.7754523754119873
0.711873352527618408 -84.093231201171875 -2.40533947944641113
-0.597775578498840332 77.1134796142578125 -5.22574472427368164
-1.70232641696929932 -37.7187118530273438 8.27896881103515625
5.382110595703125 -21.2598381042480469 0.800762772560119629
2.74662947654724121 -2.39596128463745117 -4.96885395050048828
1.15519225597381592 -8.33685398101806641 -6.15385007858276367
-2.24587202072143555 17.9324893951416016 -0.102759256958961487
-0.610613167285919189 73.3141326904296875 3.63933062553405762
-6.65640354156494141 80.8148269653320312 5.56716775894165039
5.781524658203125 -67.9056167602539062 -2.27448272705078125
1.3606644868850708 -49.714935302734375 -6.44254446029663086
4.68685531616210938 -14.6111679077148438 -0.794238865375518799
0.129376426339149475 72.58154296875 3.91172361373901367
3.96017050743103027 -81.8619842529296875 4.67691850662231445
-0.726341426372528076 27.9289741516113281 2.31102871894836426
3.17812681198120117 -32.95977783203125 4.48339462280273438
-4.88229513168334961 68.065704345703125 7.02727079391479492
-3.82715010643005371 33.8750267028808594 4.84084320068359375
-4.72803354263305664 -57.252227783203125 -5.10523271560668945
3.24641084671020508 -93.5068435668945312 3.88116335868835449
1.31530344486236572 -38.0273513793945312 -5.64025592803955078
-7.51318645477294922 53.2069358825683594 1.81717491149902344
3.94792938232421875 -9.28842544555664062 -3.4958646297454834
1.83506500720977783 14.2849502563476562 3.99260234832763672
-0.987630486488342285 -79.37518310546875 4.06881618499755859
-2.55939984321594238 -64.8048858642578125 -1.20336806774139404
-2.56735730171203613 0.321889251470565796 -3.14488434791564941
1.30909931659698486 62.3387985229492188 -0.654560267925262451
0.999522268772125244 -82.1190948486328125 -4.81586933135986328
2.08563494682312012 25.6685523986816406 -0.628426790237426758
-3.87873196601867676 35.1077499389648438 -1.3334197998046875
-4.94470357894897461 71.8816452026367188 -6.62177419662475586
4.28818035125732422 -22.8154563903808594 2.7762458324432373
-1.44385445117950439 84.6220779418945312 -2.80016326904296875
1.72233355045318604 -71.1456069946289062 -4.89662361145019531
3.23425865173339844 72.0952529907226562 -5.93039321899414062
-2.84885239601135254 80.1247482299804688 6.7912135124206543
-0.230157151818275452 -96.1656341552734375 4.78838634490966797
6.56961679458618164 64.725799560546875 3.67318940162658691
4.23668098449707031 -4.21003389358520508 2.53409671783447266
-1.86371803283691406 -78.18267822265625 8.00641632080078125
5.76652860641479492 19.3062534332275391 -0.365103185176849365
-4.95271682739257812 77.4303054809570312 -6.5798487663269043
-7.43067407608032227 59.5243492126464844 -2.60471296310424805
5.56877994537353516 -78.6291732788085938 -1.89619970321655273
-5.77993679046630859 70.4143142700195312 -6.98207187652587891
2.31882166862487793 -23.1438694000244141 6.24477910995483398
-3.12531113624572754 80.924530029296875 -3.794586181640625
3.52056264877319336 -9.93468666076660156 -3.89717626571655273
4.18211126327514648 -21.8876743316650391 -3.5107264518737793
2.71743941307067871 -57.5475044250488281 5.56277894973754883
-2.61152529716491699 -37.3529586791992188 -6.1268467903137207
4.74189949035644531 -43.1240692138671875 -2.2217104434967041
4.39469671249389648 73.789215087890625 3.46686506271362305
0.53517836332321167 71.7691650390625 4.13875913619995117
1.38157415390014648 -15.730224609375 4.2005152702331543
0.736171364784240723 -8.75090885162353516 -3.98236370086669922
-5.74516916275024414 62.2177658081054688 -2.23820781707763672
1.87851226329803467 -52.4886245727539062 -5.53763723373413086
-4.32759189605712891 -71.8449630737304688 5.42510366439819336
5.33281755447387695 15.5181465148925781 -2.83162117004394531
3.5479123592376709 -51.1869392395019531 -6.13406038284301758
-3.77005171775817871 70.2197799682617188 8.54129981994628906
6.19520044326782227 81.5277786254882812 2.74364495277404785
-5.61342048645019531 50.4716644287109375 -1.50658881664276123
-2.51582884788513184 -11.5450735092163086 4.47554969787597656
-9.07052803039550781 66.9282150268554688 2.20890116691589355
3.24668073654174805 -52.33544921875 -6.32054042816162109
-0.489920765161514282 -61.8783760070800781 -4.71538829803466797
-2.67564129829406738 -50.1279830932617188 6.18982553482055664
1.35045266151428223 -17.1377067565917969 -3.91625857353210449
-8.80361175537109375 66.3994827270507812 -4.50520133972167969
3.56237363815307617 7.20759344100952148 5.28466272354125977
4.34278202056884766 -48.8524971008300781 4.2451624870300293
