ply
format ascii 1.0
element vertex 783
comment vertices
property float x
property float y
property float z
end_header
-8.67675495147705078 -15.0174837112426758 -33.4361381530761719
33.6385383605957031 20.0220165252685547 6.49035024642944336
-5.80637550354003906 25.4223346710205078 2.75901174545288086
-32.3129425048828125 4.75660276412963867 -18.3940143585205078
-26.8848648071289062 -19.6305885314941406 -13.2619543075561523
-32.0003280639648438 14.6020450592041016 20.3186721801757812
20.4289741516113281 -27.63360595703125 10.3120136260986328
31.6013603210449219 18.480499267578125 13.3230276107788086
-32.148681640625 -19.3445892333984375 12.2589588165283203
-24.6895408630371094 19.8280715942382812 25.9892063140869141
5.82884025573730469 26.8049945831298828 26.8704509735107422
-10.6676368713378906 28.8330879211425781 0.714271903038024902
14.5832748413085938 19.7716865539550781 -33.7613182067871094
-32.4141883850097656 -19.6526737213134766 4.85241270065307617
34.4869041442871094 8.5687713623046875 14.5872859954833984
23.0902099609375 -3.18069744110107422 29.1744041442871094
2.04800081253051758 -27.1887130737304688 -4.09278154373168945
24.3904399871826172 15.1363086700439453 25.3390884399414062
38.8857002258300781 1.8075406551361084 1.92195487022399902
28.7013149261474609 19.3652725219726562 17.1776332855224609
-0.226797148585319519 26.1789951324462891 28.1600799560546875
-20.5149669647216797 21.9686336517333984 27.5202713012695312
36.4540481567382812 -3.20090270042419434 10.1247806549072266
-2.37865972518920898 -24.8771572113037109 6.51665401458740234
6.15030765533447266 -23.0115184783935547 31.2487411499023438
11.7888479232788086 -18.6370830535888672 31.6923065185546875
-37.7659339904785156 5.78464984893798828 1.91145110130310059
-35.9776802062988281 -9.75949954986572266 0.275045931339263916
-31.8571872711181641 20.2615566253662109 12.2221498489379883
-20.2368087768554688 -12.0953798294067383 34.1158256530761719
-10.4708824157714844 4.21896076202392578 40.0407676696777344
25.4842433929443359 6.99807024002075195 26.7657089233398438
-7.68559980392456055 0.133729651570320129 41.0772056579589844
-2.63243484497070312 25.8479709625244141 -30.7409152984619141
23.7822551727294922 29.7997283935546875 -5.89890861511230469
32.9800529479980469 -2.49107933044433594 17.1482830047607422
-19.2838821411132812 -0.172954335808753967 36.8067512512207031
-22.7753143310546875 25.4256591796875 -17.4604148864746094
8.30451869964599609 -29.8350124359130859 7.23946142196655273
-1.62765288352966309 -13.3859281539916992 -36.090087890625
-32.0611495971679688 -18.7970371246337891 14.0021743774414062
-34.2477493286132812 -16.0663223266601562 6.086151123046875
21.9529285430908203 30.1529712677001953 -10.0246105194091797
31.3143100738525391 -16.47747802734375 11.2923469543457031
11.2900943756103516 20.2098731994628906 31.7135982513427734
-14.6862983703613281 30.0105781555175781 -4.28864097595214844
-17.1434478759765625 9.19095325469970703 36.376190185546875
-12.6940240859985352 -11.1523170471191406 -33.6284675598144531
-19.0733394622802734 11.0252885818481445 -32.4745140075683594
-23.8632965087890625 22.5648326873779297 -20.6483802795410156
0.377263069152832031 -31.1196250915527344 15.8984355926513672
30.1734466552734375 24.1305332183837891 6.11285781860351562
-15.4492998123168945 -28.4457378387451172 -14.2250776290893555
36.3604736328125 3.63124632835388184 -15.4985904693603516
30.9915599822998047 16.8710308074951172 -22.2972812652587891
-9.54190254211425781 30.4856395721435547 16.1548900604248047
5.02468442916870117 20.0579147338867188 -1.03774130344390869
14.2477321624755859 28.9676704406738281 -6.80216646194458008
-37.7156219482421875 0.734201610088348389 8.59058189392089844
-16.9789714813232422 15.0209197998046875 -32.60986328125
-26.5801334381103516 9.71931552886962891 -25.7731761932373047
-31.1012229919433594 13.0462150573730469 23.0483779907226562
-37.7538719177246094 5.89511346817016602 2.08706498146057129
-33.4345932006835938 -0.442234009504318237 -15.5575313568115234
30.0813350677490234 -1.70728766918182373 21.3543415069580078
34.4832191467285156 -1.74161267280578613 -17.4332809448242188
-5.63289022445678711 -32.3872604370117188 17.6008205413818359
-0.833666801452636719 -29.520599365234375 26.2379360198974609
9.53765964508056641 27.292633056640625 5.25623750686645508
2.01035952568054199 29.9473361968994141 18.5769176483154297
20.6508121490478516 29.4650382995605469 -17.3545722961425781
-20.1261157989501953 -28.4294643402099609 -5.08291816711425781
25.5602283477783203 25.7772197723388672 11.5639076232910156
5.57901239395141602 26.3532047271728516 27.5184688568115234
31.8608722686767578 19.656524658203125 11.217799186706543
-3.12228751182556152 -8.16870880126953125 -38.0038299560546875
-15.268223762512207 29.1987438201904297 -17.1772289276123047
-34.127288818359375 14.9777355194091797 -8.11381626129150391
12.6396923065185547 6.60161972045898438 -38.603179931640625
5.77531528472900391 -16.0602550506591797 -34.8314437866210938
-26.0188179016113281 24.5285511016845703 18.2719860076904297
36.3773193359375 -10.0483341217041016 1.48943781852722168
4.20054721832275391 26.7169380187988281 27.192657470703125
2.45684599876403809 -26.0204029083251953 -2.02693867683410645
6.99728202819824219 28.8189125061035156 9.19088363647460938
-23.5078296661376953 -3.75873184204101562 -28.4223365783691406
-1.73034381866455078 23.9505081176757812 31.0632381439208984
-28.2046184539794922 25.4570827484130859 -4.78162956237792969
-5.57706022262573242 3.70750880241394043 40.9661827087402344
11.2831649780273438 27.8585262298583984 -26.2205963134765625
16.6211738586425781 -29.4250144958496094 -7.37499427795410156
7.24534130096435547 29.0041923522949219 22.6517543792724609
-26.8897514343261719 -16.3577156066894531 25.6498775482177734
1.29014897346496582 5.41569089889526367 40.5786285400390625
22.4602260589599609 -24.2968902587890625 -12.7794809341430664
14.7850503921508789 23.9806919097900391 -30.3532428741455078
-27.6275539398193359 -16.2297019958496094 24.8162918090820312
20.6739749908447266 -27.5691490173339844 10.1556196212768555
30.6743526458740234 -9.70624256134033203 -18.4786911010742188
-22.9651279449462891 -28.7084808349609375 9.11345577239990234
1.82635128498077393 28.9404010772705078 -18.7641048431396484
18.9496212005615234 25.1818904876708984 -26.8811092376708984
6.41176366806030273 26.2481708526611328 27.5157394409179688
-25.7371654510498047 1.53233504295349121 31.9712715148925781
37.4757957458496094 -3.16294431686401367 -8.33993434906005859
21.4755516052246094 7.97562742233276367 30.6581497192382812
-0.810961782932281494 -21.8001575469970703 -31.0755901336669922
0.422384917736053467 27.6877994537353516 25.6967525482177734
-5.76710319519042969 -30.2838497161865234 -18.5543270111083984
37.9135246276855469 11.1717844009399414 -9.66168117523193359
-9.43642902374267578 -22.6943435668945312 34.1984329223632812
-0.0962101742625236511 14.4098615646362305 -39.0448989868164062
8.59400081634521484 -9.31805801391601562 38.0718879699707031
24.5159454345703125 -19.4409465789794922 18.4731521606445312
-23.9994697570800781 -9.92864799499511719 31.9711551666259766
-7.33575344085693359 19.5371799468994141 -34.9646034240722656
2.1191260814666748 24.6116104125976562 -9.60094165802001953
27.1219120025634766 -14.5564775466918945 19.8298320770263672
23.2213630676269531 -14.0822210311889648 24.7908420562744141
5.74686861038208008 -25.2574672698974609 28.9392261505126953
-5.17780447006225586 27.6320381164550781 -12.9001779556274414
18.1742496490478516 -26.1515254974365234 15.9179506301879883
-35.3252944946289062 10.5264835357666016 -8.40859699249267578
-34.5141639709472656 -1.23149740695953369 -12.6232318878173828
19.2953376770019531 30.0957050323486328 -16.1112518310546875
17.4708957672119141 -16.7607936859130859 28.5511798858642578
-32.0678291320800781 -2.74632716178894043 24.6262855529785156
-5.1588435173034668 22.8764991760253906 -33.2042808532714844
-8.54748821258544922 21.8556804656982422 -32.8493423461914062
31.3472270965576172 24.8053417205810547 -10.990234375
5.82698726654052734 -31.1432456970214844 -14.8722438812255859
-7.27671146392822266 -0.12685103714466095 41.1794204711914062
-26.2550830841064453 24.3630447387695312 -13.8633518218994141
-18.8058071136474609 29.4345798492431641 16.4876842498779297
-5.68970251083374023 -25.9159145355224609 -25.9062786102294922
-11.4916057586669922 30.3447093963623047 17.5343017578125
-33.242462158203125 15.9281520843505859 -10.3711719512939453
1.59895825386047363 12.2039365768432617 -39.694976806640625
-18.6439743041992188 -27.829986572265625 21.8663558959960938
3.43857312202453613 26.5096874237060547 -29.8738384246826172
-34.1494064331054688 16.9731025695800781 -2.55750536918640137
-33.3506889343261719 -16.2029304504394531 -0.390402555465698242
30.4153251647949219 -9.39114952087402344 -19.2542762756347656
-28.2049045562744141 23.5710010528564453 15.6826171875
23.7214431762695312 24.52764892578125 -24.0503387451171875
-3.50527238845825195 28.9763107299804688 -18.78143310546875
2.92025136947631836 17.9023151397705078 0.742635726928710938
-5.77211570739746094 -14.3315591812133789 39.267333984375
-17.2053470611572266 -27.4189071655273438 -14.5265617370605469
-7.74755001068115234 -27.4992904663085938 -5.14249467849731445
12.0091066360473633 28.9164581298828125 -9.32635974884033203
-2.90633130073547363 -27.5614471435546875 -5.98215627670288086
-3.66337180137634277 -2.06780314445495605 41.4736480712890625
37.8869209289550781 -4.15719223022460938 -5.07258892059326172
15.9756879806518555 -22.1267509460449219 -24.8522014617919922
-30.2657566070556641 -17.8812580108642578 19.9072494506835938
-11.424713134765625 -3.24495339393615723 -36.6486434936523438
-29.8415317535400391 -16.9629631042480469 -10.7515535354614258
-21.6785125732421875 -29.0333271026611328 4.45241928100585938
0.739948749542236328 -29.3490447998046875 -22.4548969268798828
-15.592259407043457 -29.3042354583740234 -6.72191047668457031
-6.92081451416015625 28.9513282775878906 -17.0921535491943359
-17.6143531799316406 29.9061717987060547 15.9510526657104492
-6.69499778747558594 25.1837577819824219 -30.2154617309570312
-0.960337698459625244 -21.4541549682617188 35.3412704467773438
27.6814346313476562 -23.7663211822509766 -1.51466453075408936
25.1175899505615234 -24.9870834350585938 8.57613849639892578
7.91907644271850586 3.42661738395690918 39.2421760559082031
32.9282722473144531 -6.9735260009765625 -16.891754150390625
-32.3123245239257812 -17.5277042388916016 15.5182867050170898
31.5804615020751953 8.30603218078613281 19.3652591705322266
39.1600685119628906 6.0623316764831543 0.521583616733551025
-18.9334678649902344 -24.376800537109375 27.0085945129394531
-1.3174663782119751 27.0605602264404297 8.28777980804443359
30.7386417388916016 -15.421783447265625 13.7553081512451172
8.47226619720458984 3.75622153282165527 39.02154541015625
-33.4844779968261719 -13.2512989044189453 17.5574302673339844
-9.93420791625976562 29.97698974609375 7.96106863021850586
5.62465047836303711 0.865146636962890625 40.2204818725585938
-9.42059516906738281 -22.0877628326416016 -28.343536376953125
0.379501432180404663 29.0100498199462891 22.8583755493164062
-23.3537063598632812 -21.9468479156494141 25.0934047698974609
28.5061130523681641 10.7819948196411133 22.6527442932128906
-29.2288455963134766 -7.67197227478027344 27.3332748413085938
-15.451446533203125 -30.0744876861572266 5.53713607788085938
-6.70028829574584961 28.5390338897705078 -23.1905841827392578
5.21971750259399414 -29.1109275817871094 22.4750270843505859
35.8737945556640625 11.1149311065673828 -16.3960533142089844
-26.9941978454589844 -25.4761390686035156 1.29710960388183594
34.3428115844726562 13.4710731506347656 -18.5291557312011719
-19.2395439147949219 0.66707456111907959 36.7783012390136719
3.02730011940002441 18.7267131805419922 -37.0696029663085938
27.9445381164550781 -4.42493486404418945 23.4907817840576172
-32.6549148559570312 16.8265933990478516 -11.1256179809570312
-19.1837177276611328 30.4809818267822266 -0.927759528160095215
25.3275413513183594 -8.78834915161132812 -26.6121501922607422
-6.18091726303100586 6.09279060363769531 -39.2178001403808594
-24.0507545471191406 6.03343296051025391 -29.0111503601074219
-12.1118850708007812 -30.429931640625 22.9140186309814453
-14.824737548828125 16.2853202819824219 34.4738349914550781
19.5393104553222656 -21.81854248046875 -21.6462249755859375
8.00556755065917969 16.17095947265625 35.2098388671875
17.2784652709960938 -7.35840511322021484 33.3049583435058594
10.7779340744018555 29.9319782257080078 12.3080739974975586
34.5342521667480469 -1.30865013599395752 14.796666145324707
37.4656600952148438 11.8125553131103516 5.24885416030883789
-15.0168981552124023 30.1961746215820312 -7.30442476272583008
5.64565563201904297 26.292755126953125 5.84057140350341797
-9.72040367126464844 -14.7311267852783203 -33.183837890625
2.01552486419677734 27.2724514007568359 -13.4871912002563477
38.2548446655273438 2.49272704124450684 5.75633096694946289
12.5792646408081055 -16.181182861328125 32.9429664611816406
32.5741500854492188 -7.1422576904296875 16.3194141387939453
-10.6026029586791992 -2.66251397132873535 -37.1243629455566406
1.57830131053924561 -13.1333770751953125 -36.5430412292480469
-6.25435018539428711 4.62661361694335938 40.7807273864746094
26.8436794281005859 24.0677280426025391 13.439692497253418
-26.2632217407226562 -23.0131874084472656 19.9906768798828125
-25.9835395812988281 -23.2479877471923828 -8.44232559204101562
20.0982398986816406 -22.0768260955810547 -20.6475296020507812
-36.669677734375 10.3057441711425781 -1.99864065647125244
13.4273481369018555 -19.7317161560058594 -29.391815185546875
-37.9266281127929688 2.26470518112182617 2.72302651405334473
29.0911407470703125 26.4201107025146484 -12.9814462661743164
32.244537353515625 -18.3932418823242188 1.05897331237792969
-28.3088455200195312 2.35391569137573242 -24.2914543151855469
-18.9451122283935547 20.4928379058837891 -28.1146354675292969
32.9126663208007812 19.1631088256835938 -17.4634990692138672
8.83409690856933594 -7.51896095275878906 38.3375434875488281
20.4552440643310547 30.2997474670410156 -12.2559080123901367
-13.6178455352783203 -31.2469806671142578 10.4213733673095703
19.0796756744384766 -16.5155353546142578 27.29736328125
-2.93994021415710449 23.2731590270996094 -33.4289817810058594
-34.5476150512695312 6.48663902282714844 -13.1972932815551758
-5.12889623641967773 -28.5909767150878906 28.7511253356933594
-24.3335361480712891 28.7975044250488281 -1.29101955890655518
16.3427524566650391 18.4557762145996094 -33.7769203186035156
23.1005210876464844 9.77894687652587891 28.7418632507324219
11.170231819152832 23.9743633270263672 28.6886615753173828
2.44657754898071289 28.5069313049316406 -16.4783363342285156
33.0306282043457031 -10.7563199996948242 13.5175848007202148
-37.1721839904785156 8.66144084930419922 -0.722113728523254395
31.8099174499511719 -12.0379095077514648 14.8064537048339844
4.74944686889648438 28.4176139831542969 -23.7863101959228516
6.24544906616210938 28.0150299072265625 24.8426704406738281
21.3348064422607422 29.5712089538574219 -1.87359797954559326
32.7428016662597656 23.8652057647705078 -6.8135533332824707
24.5368537902832031 -11.8810968399047852 -25.5140018463134766
23.9018821716308594 -25.3750686645507812 -7.48029899597167969
-23.1140117645263672 -27.3441638946533203 -3.29365348815917969
20.8612518310546875 2.88478279113769531 31.8318061828613281
-16.5282192230224609 -29.5549983978271484 20.4064960479736328
15.9978780746459961 29.2036228179931641 -4.56183242797851562
18.8426856994628906 30.4090175628662109 -12.1688823699951172
-20.9196949005126953 25.9944133758544922 22.2350025177001953
32.5507659912109375 18.6636734008789062 11.1758232116699219
12.7079648971557617 -9.61485195159912109 -35.8000831604003906
16.0963554382324219 30.0291175842285156 -18.9876670837402344
-17.2548866271972656 -29.2201614379882812 -4.58143424987792969
5.54360103607177734 -15.172576904296875 37.0146331787109375
19.5799751281738281 -20.9365653991699219 22.4649448394775391
34.2693634033203125 -15.0975923538208008 -0.291856169700622559
-32.3449478149414062 12.1215057373046875 -16.6180667877197266
-26.7057113647460938 4.79267692565917969 -26.0756034851074219
16.6881980895996094 28.8787555694580078 14.3437261581420898
-23.0811786651611328 -12.5705318450927734 31.8843135833740234
-7.07813692092895508 27.8393306732177734 -25.3230304718017578
7.22309017181396484 -15.4485349655151367 -34.8630867004394531
-4.13512325286865234 -19.2734642028808594 36.9842376708984375
-0.763399243354797363 -23.2477817535400391 -2.65155887603759766
14.8835344314575195 -22.7550601959228516 -25.2279624938964844
2.8321995735168457 -25.6770896911621094 3.85442137718200684
35.5396194458007812 18.0629901885986328 4.02884006500244141
38.3335762023925781 -0.555389523506164551 3.94595026969909668
-5.61780834197998047 -8.32229804992675781 -37.3464546203613281
34.7889213562011719 -13.7739353179931641 -1.34606146812438965
-22.4510021209716797 -11.8213987350463867 -26.0037155151367188
20.2363433837890625 -23.0002231597900391 -18.9486808776855469
-7.15928506851196289 27.6809043884277344 4.93840599060058594
9.86799430847167969 -30.6794147491455078 -6.55742835998535156
-5.13332986831665039 1.34698772430419922 41.3293800354003906
-18.7745170593261719 -24.2431697845458984 -18.8920421600341797
-34.4204673767089844 -7.27563047409057617 -9.37124252319335938
-36.9860877990722656 -7.9373621940612793 6.28078556060791016
-12.9613046646118164 29.7348461151123047 19.5806293487548828
-11.8820390701293945 -30.0163784027099609 -10.4271221160888672
-3.31209063529968262 -23.4704551696777344 3.40332937240600586
5.99573945999145508 -10.999690055847168 -37.2845726013183594
10.7582998275756836 -17.2933444976806641 33.3181648254394531
-31.9817180633544922 -14.7887611389160156 -8.34831619262695312
3.61142683029174805 2.19414997100830078 -40.4109382629394531
-21.3047065734863281 -26.1142406463623047 -11.0879955291748047
22.5273590087890625 -21.6567802429199219 18.0459060668945312
-34.684112548828125 -13.7296762466430664 12.5333824157714844
-31.0796356201171875 -1.32027649879455566 -19.9104709625244141
9.51527118682861328 -6.26034259796142578 -38.128387451171875
34.9677238464355469 19.5817184448242188 -10.870600700378418
-5.98080778121948242 25.6870460510253906 2.93799614906311035
1.7021942138671875 29.4377613067626953 21.4517974853515625
5.5932316780090332 -21.9464111328125 32.5023689270019531
20.8800907135009766 -16.8490428924560547 -25.4109344482421875
-17.3121871948242188 30.7353153228759766 4.78543996810913086
35.9149894714355469 14.9266242980957031 -14.0643587112426758
28.2100620269775391 10.2299766540527344 23.17706298828125
23.7629222869873047 -15.303980827331543 23.3088321685791016
3.00105166435241699 28.0309963226318359 9.07290840148925781
12.5508184432983398 24.7438869476318359 27.2930564880371094
36.7674179077148438 17.1872653961181641 -1.3263479471206665
-21.6138877868652344 -2.21231341361999512 35.2598495483398438
-28.0972938537597656 21.9020614624023438 19.1471939086914062
-33.2264060974121094 13.8023519515991211 18.5472068786621094
-10.4904642105102539 -26.995452880859375 -2.0870206356048584
-3.77642679214477539 -23.7291202545166016 -0.567304611206054688
20.3285484313964844 -2.71641302108764648 -33.48260498046875
-28.1797943115234375 26.0516853332519531 -1.15157091617584229
-12.8310146331787109 -31.6702957153320312 16.9785060882568359
27.6565666198730469 -6.31068992614746094 23.3298377990722656
12.9546318054199219 30.3036575317382812 -16.6641902923583984
-5.47501707077026367 28.5489082336425781 -24.2099285125732422
-12.2608957290649414 -28.2172641754150391 -0.438939779996871948
-36.5226593017578125 11.963592529296875 4.53371334075927734
-2.92715883255004883 -29.4880752563476562 -7.968597412109375
3.39952874183654785 -26.2337265014648438 1.9148247241973877
-6.75227451324462891 -16.3873443603515625 38.3638496398925781
-2.86313009262084961 -28.4651756286621094 28.6834735870361328
29.2702732086181641 26.6502132415771484 -11.4057722091674805
-21.11138916015625 -16.4570026397705078 31.8102531433105469
-16.1566658020019531 30.4099197387695312 -0.780275404453277588
24.0431880950927734 12.1185083389282227 26.9478950500488281
8.40154647827148438 -0.789445042610168457 39.3005905151367188
-9.49932289123535156 -31.81884765625 12.5444278717041016
-37.614288330078125 6.61061954498291016 6.51879978179931641
-35.3695220947265625 8.31642627716064453 16.7938899993896484
-26.3394813537597656 6.20160675048828125 -26.4210662841796875
-34.997406005859375 1.23590207099914551 -11.9200410842895508
-16.3108615875244141 4.72263002395629883 37.8437652587890625
-12.8854570388793945 -30.9783077239990234 9.31078433990478516
21.5787715911865234 20.4294719696044922 -29.3923473358154297
-19.5374259948730469 -27.2857036590576172 -10.7955131530761719
11.4893255233764648 -29.5041522979736328 13.1453990936279297
-35.3013992309570312 14.4358139038085938 -1.9752659797668457
-11.5061435699462891 16.8631992340087891 -34.66986083984375
-30.4181270599365234 18.5042991638183594 19.4800128936767578
-19.0729503631591797 -12.2580423355102539 -28.9242725372314453
-30.232757568359375 6.53978919982910156 -21.7376079559326172
25.5918350219726562 1.25173866748809814 26.9047451019287109
-0.376992791891098022 0.672008097171783447 41.3036117553710938
-4.5423884391784668 -23.2506866455078125 34.3908538818359375
-14.5101327896118164 28.5776252746582031 22.0033550262451172
2.35115289688110352 -30.6821041107177734 16.2072525024414062
32.9310798645019531 5.97984838485717773 -22.1384849548339844
-27.5486488342285156 15.0957126617431641 -22.6726036071777344
-28.6333351135253906 22.2604026794433594 17.4404182434082031
-22.1596775054931641 15.5190401077270508 31.0591564178466797
32.7592544555664062 -15.3648386001586914 -7.10956048965454102
18.6435508728027344 18.142608642578125 -32.7437667846679688
5.10402011871337891 -24.1745166778564453 -28.7267646789550781
-19.1986007690429688 22.7262001037597656 27.6127281188964844
-23.6189994812011719 -28.1450366973876953 3.93411135673522949
-0.234663158655166626 -29.2656307220458984 26.4240779876708984
32.7474250793457031 -17.6913776397705078 0.405940413475036621
18.4734306335449219 -21.6494255065917969 23.0383548736572266
12.401270866394043 29.6118621826171875 17.4693508148193359
-30.1444377899169922 -20.6033668518066406 -2.97178769111633301
-18.7054176330566406 -29.2898616790771484 -1.95292019844055176
3.1888430118560791 -27.7741432189941406 -3.40818643569946289
33.7579917907714844 16.9177017211914062 10.6966543197631836
35.1359214782714844 19.7572021484375 1.07458722591400146
7.97271108627319336 10.0911388397216797 37.8174705505371094
-5.75830078125 17.8576507568359375 35.6413078308105469
-12.5004692077636719 -28.4756507873535156 -17.9738197326660156
-30.6649684906005859 -19.9489784240722656 15.9984245300292969
19.19525146484375 -17.4312820434570312 -26.6541919708251953
-16.6415233612060547 1.56563091278076172 38.0884971618652344
3.38245534896850586 -29.7715702056884766 22.5162601470947266
3.86939477920532227 21.9660243988037109 -5.10016345977783203
2.99615335464477539 29.7060642242431641 20.5651378631591797
38.8689956665039062 9.80400753021240234 -0.884017646312713623
-10.4673299789428711 27.9290313720703125 -23.8969154357910156
-26.6961612701416016 14.8802003860473633 27.4190101623535156
-13.7933158874511719 -25.7178001403808594 -21.6310386657714844
-9.86324310302734375 -24.0289726257324219 32.9480476379394531
-29.3802165985107422 20.8889312744140625 -13.3855752944946289
27.6263847351074219 27.9050502777099609 -11.3103742599487305
-9.57662296295166016 6.38173437118530273 -38.1131477355957031
-6.97750425338745117 -31.7446060180664062 22.1021900177001953
8.01793670654296875 -29.7651176452636719 6.74695205688476562
23.6057872772216797 29.0827751159667969 -14.9483394622802734
-22.0353126525878906 1.84032905101776123 -30.8981342315673828
16.0839080810546875 30.2092838287353516 -17.9928798675537109
38.4549827575683594 8.55941295623779297 -8.24359703063964844
36.1146812438964844 -10.4052295684814453 3.98935723304748535
-33.2898826599121094 2.60584878921508789 -16.4777259826660156
7.73960113525390625 17.9816818237304688 -37.0140800476074219
-22.0196208953857422 20.8879909515380859 -24.8538703918457031
-31.386566162109375 21.8571071624755859 9.46677780151367188
-0.192789539694786072 26.7847633361816406 8.1047821044921875
23.2842807769775391 -13.565007209777832 25.0453777313232422
22.2517948150634766 13.2531003952026367 -31.9624729156494141
-19.0303707122802734 24.0213127136230469 26.3791255950927734
1.71994626522064209 29.0641746520996094 -21.1654338836669922
29.5921802520751953 16.5347747802734375 18.327667236328125
-2.46485519409179688 5.56800746917724609 -40.0881080627441406
-15.045989990234375 1.40447902679443359 38.8569259643554688
35.2816543579101562 -12.6724224090576172 2.69111323356628418
-30.3446979522705078 -21.4177055358886719 13.8270454406738281
27.9778270721435547 -2.56033825874328613 -26.5070896148681641
37.4569931030273438 -3.42650461196899414 6.53889036178588867
-3.1099703311920166 -26.4807796478271484 0.145348921418190002
33.6169090270996094 4.94012689590454102 16.8423862457275391
4.79264354705810547 23.8316879272460938 3.79760146141052246
13.0717592239379883 -26.7564029693603516 -20.7639389038085938
-10.3568115234375 20.1693572998046875 -33.4131202697753906
26.7507820129394531 2.82383346557617188 25.7340450286865234
20.9632663726806641 27.9576568603515625 -21.1237411499023438
-5.82594490051269531 26.2240028381347656 -29.3584556579589844
37.6236114501953125 5.47791051864624023 8.19953823089599609
25.0586376190185547 -25.7881298065185547 6.06844806671142578
22.8981952667236328 26.2272205352783203 14.806675910949707
5.843719482421875 22.8034000396728516 -34.0646171569824219
20.3528156280517578 -16.9850368499755859 25.6861152648925781
-20.8234920501708984 0.346624284982681274 -31.6800193786621094
2.95763564109802246 -29.3938331604003906 -6.20865726470947266
-37.5043067932128906 7.82610321044921875 2.54915452003479004
-36.3605194091796875 -9.39132881164550781 2.28339385986328125
-15.8138866424560547 28.81890869140625 -17.8476696014404297
37.478485107421875 9.12775230407714844 7.30807924270629883
8.35960769653320312 -20.0426216125488281 -31.3762664794921875
39.1851119995117188 5.17392349243164062 -3.76991844177246094
9.02167606353759766 19.8151378631591797 -35.6325759887695312
-1.89718067646026611 -31.4271316528320312 -13.0882759094238281
-31.0488777160644531 0.666316211223602295 -20.2607994079589844
-2.29301762580871582 29.7721328735351562 14.0213956832885742
-32.3437080383300781 -3.34128403663635254 -16.8861236572265625
36.0235328674316406 7.08916091918945312 -16.6756954193115234
-29.0483379364013672 -1.66160738468170166 28.7387523651123047
38.8671722412109375 7.44911336898803711 2.16210246086120605
8.62347030639648438 -18.5553665161132812 -32.3879966735839844
19.8493633270263672 -29.4534225463867188 2.57346892356872559
-5.56489467620849609 1.09162473678588867 -39.2263870239257812
-8.44544315338134766 28.3114490509033203 23.8289356231689453
-29.1622219085693359 -10.3938426971435547 26.3986873626708984
-24.7127723693847656 -24.0841598510742188 -9.48957157135009766
-22.9383049011230469 -21.5044536590576172 25.9964027404785156
23.0186080932617188 -27.5017662048339844 -1.40625429153442383
3.68711709976196289 -20.4880084991455078 -32.1192474365234375
23.2039279937744141 -11.9309768676757812 -26.9148921966552734
-34.8216552734375 -1.95546853542327881 -11.440617561340332
-33.5622634887695312 -14.1545562744140625 16.3037433624267578
5.38452768325805664 -1.60650157928466797 40.369293212890625
5.08808183670043945 29.9760551452636719 20.0324993133544922
-24.2801265716552734 6.49714040756225586 32.4506454467773438
-15.6559419631958008 -14.5895204544067383 -30.1191139221191406
-4.49212360382080078 22.7603702545166016 -2.77623939514160156
17.2039260864257812 21.1018466949462891 -31.6769580841064453
10.5000095367431641 13.4730348587036133 -38.1701622009277344
21.2134590148925781 28.5901927947998047 5.91729927062988281
-6.63164997100830078 -19.5719127655029297 -31.4716930389404297
-20.7541446685791016 -21.3120307922363281 28.5481681823730469
-26.5346736907958984 -22.9249649047851562 -7.89641666412353516
-10.3916597366333008 30.7819576263427734 14.0782098770141602
-22.6985282897949219 28.7455177307128906 -4.45423126220703125
3.47159814834594727 -3.51875495910644531 -39.73883056640625
-14.274658203125 30.9515190124511719 9.48293495178222656
3.19616317749023438 -0.423200339078903198 40.807220458984375
-11.8179988861083984 -29.0843086242675781 -17.0499629974365234
31.9620265960693359 18.0918102264404297 -20.0670909881591797
-16.511627197265625 30.246795654296875 -10.4660882949829102
22.9078350067138672 18.7041168212890625 24.5786514282226562
-13.6424541473388672 29.2599315643310547 20.6733646392822266
-22.7238426208496094 13.2621326446533203 -28.9868812561035156
38.0000381469726562 8.35951423645019531 -10.5087337493896484
37.3963775634765625 -6.90607118606567383 -2.65621232986450195
-25.2788524627685547 -23.4499721527099609 20.7234764099121094
22.9501953125 -6.6019902229309082 -30.0652809143066406
31.2718582153320312 4.1846160888671875 -24.3217239379882812
-37.6776313781738281 -0.337675213813781738 8.00081348419189453
-1.4391937255859375 29.9094657897949219 17.8218936920166016
-31.55780029296875 9.35860824584960938 -18.9798145294189453
-24.8089351654052734 -10.535430908203125 31.0759201049804688
15.6219520568847656 -30.8425045013427734 0.102146893739700317
-2.89917278289794922 -15.2446365356445312 38.9072990417480469
28.9954662322998047 -20.0453319549560547 -8.62234306335449219
-32.1561241149902344 7.48592567443847656 -18.5302009582519531
13.4743642807006836 14.3887128829956055 33.9055595397949219
34.2753028869628906 21.4028453826904297 -0.240910559892654419
-6.31208467483520508 16.5118026733398438 36.3252105712890625
13.9646787643432617 -4.02800130844116211 -37.0903663635253906
-22.4263973236083984 -15.5787553787231445 31.0139732360839844
-5.83831882476806641 -31.0787754058837891 24.1215324401855469
-20.7371292114257812 9.42435836791992188 34.2461471557617188
-3.06174850463867188 2.21154665946960449 41.2748489379882812
-19.2328033447265625 -27.5961399078369141 21.6240520477294922
-29.2358608245849609 -14.7971487045288086 23.7300033569335938
-30.8216457366943359 16.2160224914550781 21.1607246398925781
-25.2059574127197266 -26.4513282775878906 13.982151985168457
31.881988525390625 13.3877773284912109 17.0283355712890625
-23.3747234344482422 18.3074989318847656 28.3367710113525391
-36.6553840637207031 1.22274374961853027 -5.81588459014892578
-14.0539360046386719 30.9230136871337891 13.2382936477661133
20.0751361846923828 -13.075469970703125 -29.1924533843994141
-33.8182411193847656 12.8636922836303711 -12.2138566970825195
-1.80435299873352051 -25.0046329498291016 -4.08001708984375
37.5541458129882812 5.74302577972412109 8.33714199066162109
2.54738402366638184 25.2240676879882812 5.86578893661499023
34.8948631286621094 17.9447040557861328 6.26714134216308594
-30.6362876892089844 -5.54717063903808594 26.0631103515625
37.3356781005859375 10.7768058776855469 6.74817371368408203
34.3673553466796875 -12.316314697265625 8.70912647247314453
-32.4934959411621094 -7.60500335693359375 -14.2363872528076172
32.309295654296875 9.34798717498779297 18.1299076080322266
-12.377410888671875 -24.9002685546875 31.1919898986816406
3.75541782379150391 -30.2641029357910156 18.8564510345458984
15.0727739334106445 25.9343032836914062 -28.1149234771728516
-7.07035636901855469 -31.41839599609375 12.2205638885498047
-2.86157631874084473 29.4074230194091797 21.3728427886962891
1.3928217887878418 -31.3311672210693359 -16.4813671112060547
-7.05438089370727539 28.5790767669677734 6.70127010345458984
20.5729198455810547 -21.5339775085449219 20.5712871551513672
15.9801397323608398 1.37600207328796387 -37.0603599548339844
13.1975784301757812 5.26130437850952148 36.7638435363769531
26.4485683441162109 3.05026364326477051 26.0696773529052734
27.3658638000488281 22.4262866973876953 -22.4781589508056641
-15.1582908630371094 -29.2859859466552734 -2.89833903312683105
1.35244846343994141 24.8145179748535156 29.9483928680419922
28.1959972381591797 27.7507286071777344 -4.09526491165161133
31.9528961181640625 17.3141651153564453 13.9000911712646484
12.963496208190918 -12.345728874206543 -34.4923744201660156
27.3026332855224609 15.9888057708740234 21.5592918395996094
25.5273857116699219 9.90841960906982422 -29.9819850921630859
9.02967166900634766 -9.33885574340820312 -37.2937088012695312
38.74322509765625 -0.0338308438658714294 -4.18008184432983398
1.85445261001586914 18.5636959075927734 -3.66152143478393555
-0.453919887542724609 26.2346229553222656 28.0640239715576172
-18.9874324798583984 -16.5514106750488281 -26.3512554168701172
-16.1433601379394531 -28.9478225708007812 -10.1897344589233398
22.454620361328125 28.0821113586425781 7.87338590621948242
38.8434944152832031 2.63396978378295898 -5.91448688507080078
-12.286280632019043 -28.5349254608154297 3.59448575973510742
-32.4407768249511719 12.5294523239135742 -16.1165943145751953
14.3817977905273438 11.7443246841430664 34.5060691833496094
17.4374790191650391 -15.6090240478515625 29.4091510772705078
4.44659280776977539 22.3925075531005859 -5.02905845642089844
-28.1994743347167969 25.4457302093505859 8.91840457916259766
30.2656345367431641 -19.9007663726806641 -5.25694513320922852
30.1471405029296875 -11.9090147018432617 -17.5205802917480469
9.18357944488525391 16.7727890014648438 -37.2865180969238281
-24.1226711273193359 28.0689373016357422 11.3888130187988281
8.02730751037597656 -24.7792415618896484 -27.2356395721435547
27.7922935485839844 -13.0288972854614258 20.0894813537597656
10.5133771896362305 -30.5989665985107422 5.21148681640625
27.4966964721679688 -19.0319442749023438 15.0503549575805664
-7.23760271072387695 17.9650630950927734 35.3727645874023438
-9.42259979248046875 28.116241455078125 0.884640038013458252
-36.8804550170898438 0.279961645603179932 -4.24158382415771484
-29.6132717132568359 18.2477645874023438 21.0120372772216797
5.57199573516845703 -4.9567108154296875 -39.3139419555664062
-16.3339118957519531 25.7530555725097656 -24.2863578796386719
16.6655902862548828 -28.8254814147949219 -9.84934616088867188
18.3733425140380859 19.1809043884277344 -32.3199386596679688
35.866973876953125 0.567010760307312012 -15.5521202087402344
-2.40038776397705078 -28.1820125579833984 -23.9887428283691406
9.77204322814941406 -30.7344341278076172 0.240877643227577209
-27.9863185882568359 -0.843677639961242676 29.8760528564453125
-2.71980190277099609 -0.180366605520248413 41.4543876647949219
-27.73492431640625 -19.3915939331054688 -11.8145360946655273
-33.7045440673828125 -10.3868865966796875 19.1740894317626953
-13.6745967864990234 4.81865596771240234 -36.4084548950195312
14.9389486312866211 -28.9811191558837891 -12.1462697982788086
4.82189178466796875 -15.9872331619262695 36.9216461181640625
-37.5368576049804688 7.64203453063964844 1.57647395133972168
-6.80782842636108398 -23.0647258758544922 0.347059756517410278
-27.2102947235107422 15.4602642059326172 26.4885234832763672
-18.9660491943359375 28.3499622344970703 19.6488609313964844
-18.1929397583007812 -6.46808481216430664 36.8408012390136719
-28.3126754760742188 20.2685928344726562 20.8204994201660156
2.32754778861999512 -18.1713008880615234 36.6070327758789062
0.370002925395965576 -31.3095378875732422 17.9335422515869141
-22.2323017120361328 23.2674026489257812 24.7529315948486328
-36.1251640319824219 -10.1772136688232422 2.0766754150390625
20.4946403503417969 -29.0959815979003906 0.158136695623397827
6.67955732345581055 2.13074731826782227 -40.1315536499023438
21.8984565734863281 -12.2468338012695312 27.3562908172607422
13.850367546081543 15.7978744506835938 -36.0854759216308594
3.23264026641845703 19.9553508758544922 -36.2655868530273438
-22.5126667022705078 8.50478458404541016 -30.2159976959228516
-36.6840438842773438 3.36569094657897949 -6.22899913787841797
32.2243270874023438 2.00821042060852051 19.0265922546386719
4.44516897201538086 -29.8132266998291016 13.1189889907836914
28.5306320190429688 26.9242038726806641 -12.854334831237793
12.440460205078125 -30.7845897674560547 5.57172346115112305
35.0414085388183594 -13.2005691528320312 2.96867203712463379
-6.64611196517944336 30.2075614929199219 14.1676054000854492
-24.7384910583496094 22.5667972564697266 23.0052299499511719
-16.5093154907226562 -27.9860763549804688 23.8839874267578125
12.8320398330688477 30.2649040222167969 -15.2806100845336914
-25.2559547424316406 -4.56462860107421875 -26.3036251068115234
14.0015964508056641 28.5074386596679688 20.1550807952880859
30.9883575439453125 -19.3193950653076172 -4.15005636215209961
7.56114959716796875 -30.6131343841552734 -7.01026678085327148
4.01251316070556641 29.9661712646484375 13.4962615966796875
9.00211620330810547 -18.0295085906982422 33.7690773010253906
34.2804145812988281 21.91064453125 -3.80149650573730469
-31.8424072265625 -12.0119400024414062 -11.8308830261230469
-13.8570680618286133 -28.4774303436279297 25.5269432067871094
20.1646213531494141 -6.49323511123657227 -32.4846534729003906
11.4970598220825195 -22.5159149169921875 -27.9976844787597656
23.7463798522949219 -9.91074466705322266 -27.6108837127685547
7.71831321716308594 -28.0818748474121094 22.8756484985351562
17.7096881866455078 -20.6282615661621094 -25.0060386657714844
19.2366523742675781 -16.3942546844482422 27.2439804077148438
39.0825080871582031 8.37926197052001953 -3.38194084167480469
-11.2745800018310547 -22.1460514068603516 -27.3025569915771484
-0.788455486297607422 11.215662956237793 -39.7877960205078125
-33.3332786560058594 15.9792366027832031 -9.98380565643310547
-8.84757900238037109 -29.6280021667480469 -18.2950649261474609
8.21533489227294922 29.5367584228515625 -15.898280143737793
28.0459117889404297 -5.00630426406860352 -25.3719730377197266
-14.1741790771484375 11.0415544509887695 37.1262931823730469
30.4546241760253906 17.4620742797851562 -22.7067012786865234
-31.9932746887207031 18.6943111419677734 -9.90540599822998047
9.02046966552734375 -26.8193569183349609 -24.0791244506835938
-11.8040065765380859 20.9411182403564453 -32.2202796936035156
9.58603477478027344 14.0912075042724609 -38.236663818359375
-4.36776828765869141 28.6741218566894531 9.64109134674072266
9.59843826293945312 29.1707038879394531 9.72568893432617188
29.4170093536376953 -8.33811283111572266 20.3866214752197266
-35.0157928466796875 -12.5215873718261719 0.469721704721450806
-7.68444681167602539 -24.8787631988525391 32.8215866088867188
10.0710325241088867 -12.2887935638427734 -35.7366180419921875
36.2710075378417969 6.38678455352783203 -16.0713634490966797
-30.2771320343017578 -11.5361337661743164 -15.5680084228515625
18.9622707366943359 17.2184524536132812 -32.9950180053710938
-2.2735590934753418 27.7641334533691406 -27.6431236267089844
-37.3517646789550781 -5.02132654190063477 8.11157894134521484
22.9675216674804688 -27.7163257598876953 1.18057048320770264
-17.155059814453125 -5.18626785278320312 -33.0384750366210938
15.4489030838012695 6.27230024337768555 -37.397491455078125
-8.53749275207519531 24.1416397094726562 -30.6927299499511719
-33.625396728515625 5.59695529937744141 -15.7505359649658203
-25.3756599426269531 -2.80532097816467285 -26.6758785247802734
36.9335289001464844 16.5596351623535156 -0.406033337116241455
-36.5919342041015625 -0.865139305591583252 14.5748424530029297
18.001800537109375 -21.9415760040283203 -23.1677074432373047
18.5717849731445312 29.0844020843505859 5.2524418830871582
-37.0291290283203125 3.13120198249816895 12.4543447494506836
-19.9177532196044922 30.1787376403808594 -1.46555924415588379
-16.0401515960693359 -29.4383144378662109 -1.80526316165924072
15.3890933990478516 -18.2287998199462891 29.189605712890625
-18.0687179565429688 30.6256275177001953 11.0689182281494141
-21.9265708923339844 -29.1817836761474609 8.14008235931396484
-30.6053371429443359 21.4969310760498047 13.6996011734008789
25.054595947265625 -9.93555259704589844 25.2081146240234375
-34.6116790771484375 13.0688571929931641 15.4375600814819336
8.43940639495849609 28.4733963012695312 8.14817523956298828
3.93090105056762695 23.7569923400878906 30.6683082580566406
-21.9350776672363281 -3.69345831871032715 34.9518013000488281
-11.2318134307861328 17.9197063446044922 34.5982704162597656
-14.4990978240966797 18.8464698791503906 -32.3054580688476562
12.0522804260253906 18.4606609344482422 32.5049476623535156
-27.4087467193603516 -18.3318538665771484 -14.0062999725341797
-13.2954120635986328 -31.6916923522949219 15.0522851943969727
14.1127405166625977 -14.6516256332397461 -32.6271438598632812
-19.0096778869628906 -4.85514307022094727 -31.8402919769287109
-30.266998291015625 -7.3233790397644043 -18.3960933685302734
34.3910598754882812 21.5050258636474609 -1.5132899284362793
-21.2545051574707031 -29.3075695037841797 5.14675188064575195
24.2528400421142578 -22.2388877868652344 15.24200439453125
12.1569509506225586 12.9718647003173828 -37.8030052185058594
17.2639884948730469 6.46799659729003906 34.240753173828125
-27.1588783264160156 9.8127899169921875 29.2081394195556641
36.4454193115234375 -9.28830528259277344 -3.60003447532653809
22.7836570739746094 5.80222415924072266 29.7930011749267578
-3.99018192291259766 30.1790504455566406 16.0432586669921875
-6.68801450729370117 -26.2091484069824219 -25.12225341796875
-28.0629673004150391 1.28974246978759766 29.8011856079101562
-17.0531940460205078 30.7161693572998047 5.19399929046630859
-20.4342746734619141 -12.1603517532348633 33.9542121887207031
12.468083381652832 28.7205524444580078 -7.95051717758178711
-28.1216297149658203 -20.8177642822265625 -8.44591140747070312
-6.66698074340820312 7.72052192687988281 -39.0198631286621094
38.2746505737304688 4.72681951522827148 -9.69547080993652344
26.4445095062255859 16.7281093597412109 -27.4412746429443359
22.8411655426025391 -12.3055133819580078 -27.020843505859375
4.71865749359130859 -24.7724380493164062 30.2659664154052734
31.1356887817382812 -15.1897878646850586 -11.6727752685546875
32.59222412109375 14.2566099166870117 15.2549200057983398
15.956939697265625 -30.5926094055175781 -2.33828186988830566
12.97564697265625 -30.9708881378173828 4.1889643669128418
-14.2385358810424805 28.8530597686767578 21.5601615905761719
-17.4773788452148438 -1.06678593158721924 37.8750991821289062
-21.0177345275878906 -12.9871320724487305 33.4097518920898438
-32.557952880859375 20.1088333129882812 -3.62074398994445801
-7.11204147338867188 7.66949129104614258 -38.9056663513183594
-5.54888629913330078 -23.0235099792480469 2.94424748420715332
-27.2308368682861328 14.0294303894042969 27.3542385101318359
14.3527545928955078 -25.8640117645263672 21.2369899749755859
5.75201416015625 -10.074162483215332 38.9390983581542969
3.3205714225769043 29.5247459411621094 21.3877754211425781
-25.0682735443115234 19.5274391174316406 25.8401927947998047
27.7857608795166016 2.16553354263305664 -27.8728904724121094
1.47144472599029541 13.6017971038818359 37.88494873046875
35.1502685546875 14.0026102066040039 10.3273172378540039
25.9144878387451172 22.6738910675048828 17.0088157653808594
0.495754092931747437 27.787841796875 9.38381195068359375
33.14306640625 -16.3236198425292969 5.15787601470947266
-16.0256881713867188 1.20585310459136963 38.4219818115234375
13.6195440292358398 -27.8381557464599609 -17.8670082092285156
-5.06219911575317383 22.105377197265625 -33.8974723815917969
-8.29487895965576172 27.3582344055175781 -3.85746526718139648
25.632781982421875 -23.1327266693115234 11.6923303604125977
16.5542011260986328 20.55059814453125 -32.4130363464355469
-10.4605913162231445 14.6975317001342773 36.6691513061523438
38.2541313171386719 4.57667827606201172 5.82937717437744141
-32.8986701965332031 1.5022197961807251 -17.2482433319091797
-3.25247406959533691 -29.3408603668212891 -7.81049776077270508
-27.1411399841308594 20.47637939453125 -18.4974040985107422
5.11298179626464844 10.663416862487793 -39.79083251953125
11.2659816741943359 -31.0027275085449219 -0.238386064767837524
-3.84672141075134277 30.0069637298583984 14.3130464553833008
38.0610160827636719 -4.90871095657348633 -0.884559035301208496
28.1080913543701172 -18.6830387115478516 -12.82550048828125
-28.7639369964599609 -2.74786949157714844 28.9544830322265625
13.5974912643432617 -8.68832683563232422 35.4272193908691406
5.10358428955078125 -29.9471683502197266 -20.2575168609619141
2.84447956085205078 14.6139078140258789 -39.0926094055175781
-20.8673248291015625 26.0421409606933594 22.2111663818359375
-31.7617645263671875 -20.7730045318603516 5.68263435363769531
-14.0153980255126953 30.7410640716552734 15.0463581085205078
9.47198772430419922 22.8270473480224609 -33.302093505859375
28.8285140991210938 -19.5124912261962891 -9.97655677795410156
-36.5176315307617188 8.95140933990478516 11.544403076171875
-1.66844022274017334 29.5132808685302734 13.1924915313720703
4.57662487030029297 -29.3101577758789062 10.9519824981689453
-13.2083301544189453 29.8918380737304688 -11.851715087890625
-25.7811336517333984 11.8759326934814453 -26.3103961944580078
8.88445949554443359 18.5674972534179688 -36.42059326171875
16.3801116943359375 2.94566917419433594 -36.8512954711914062
-8.48320102691650391 -31.9448127746582031 20.6300849914550781
35.1908416748046875 -6.45845365524291992 -12.5638961791992188
-18.7295360565185547 7.8364710807800293 35.9024314880371094
-9.59927177429199219 14.9881839752197266 36.6674728393554688
13.1009244918823242 23.1717205047607422 28.5890636444091797
-30.8533992767333984 -20.5036067962646484 14.3765897750854492
-35.2524375915527344 -11.6206684112548828 13.3080434799194336
23.5766372680664062 5.64099550247192383 29.0004844665527344
30.3583240509033203 23.424224853515625 -16.9466228485107422
19.5933570861816406 30.3728923797607422 -10.613184928894043
22.4341812133789062 -19.0769710540771484 -21.3583030700683594
4.93379592895507812 -30.7474346160888672 -17.8587570190429688
-17.0069046020507812 -2.51956963539123535 -33.7998619079589844
-2.30215311050415039 -23.2315101623535156 3.70950198173522949
2.39558267593383789 19.0639495849609375 2.0266728401184082
28.1401233673095703 -19.3679542541503906 13.5648679733276367
7.58391523361206055 23.9866542816162109 -3.04749131202697754
13.3724479675292969 -23.9558506011962891 25.1887435913085938
9.39145565032958984 18.0170173645019531 -36.5904884338378906
7.64984273910522461 14.4225673675537109 -38.5534629821777344
-23.7318782806396484 -24.0478439331054688 22.0421714782714844
12.1226797103881836 26.9486713409423828 -27.7556533813476562
9.69014930725097656 -30.5604667663574219 2.01565980911254883
-16.1982326507568359 -30.8944244384765625 15.0849752426147461
-6.84016275405883789 -28.6560287475585938 28.5336971282958984
27.3326015472412109 -18.9555873870849609 -13.8725376129150391
10.9773521423339844 26.9724578857421875 25.1929092407226562
3.88879585266113281 -30.0433273315429688 -20.3518428802490234
-19.1889667510986328 30.0638370513916016 -6.44577550888061523
16.1483154296875 -27.1571865081787109 -16.2696876525878906
26.4837093353271484 -23.3146266937255859 9.43692302703857422
34.1578941345214844 4.55929994583129883 -20.0725536346435547
-14.5700368881225586 -28.8830070495605469 -14.1764039993286133
-27.3442459106445312 15.474238395690918 -22.6830997467041016
37.7854042053222656 -3.77163052558898926 -6.38252401351928711
-11.8851661682128906 -18.5434532165527344 36.1420669555664062
-35.8783111572265625 -7.71326398849487305 14.3900814056396484
-3.51011300086975098 28.3188457489013672 24.2122249603271484
24.011138916015625 -26.7875308990478516 4.65983104705810547
15.7577104568481445 19.8894443511962891 -33.2045745849609375
-31.5094833374023438 -16.8661251068115234 -6.37343120574951172
33.1477394104003906 -7.47334051132202148 15.299591064453125
5.43018960952758789 25.7305812835693359 -8.36619663238525391
-33.0082015991210938 -18.4736595153808594 4.51440191268920898
10.3411159515380859 -11.9121646881103516 -35.8050460815429688
