ply
format ascii 1.0
element vertex 783
comment vertices
property float x
property float y
property float z
end_header
-29.8430213928222656 -3.84871983528137207 -3.34563350677490234
22.019256591796875 -7.10637617111206055 5.58661079406738281
25.4882698059082031 -22.0316715240478516 14.7829761505126953
-5.26136684417724609 -18.4841461181640625 23.3663196563720703
-13.6909570693969727 -12.3952064514160156 21.0938549041748047
29.3740253448486328 17.1782131195068359 22.3364505767822266
-18.1556434631347656 25.4070339202880859 -30.7173500061035156
-24.7584018707275391 -7.77742671966552734 9.48093223571777344
9.36648273468017578 14.4009418487548828 32.0454063415527344
-5.89222192764282227 -3.58952498435974121 -24.4242763519287109
12.2408409118652344 7.67905044555664062 -4.60624837875366211
19.2538890838623047 21.3719043731689453 3.21773815155029297
22.2442951202392578 -5.33517313003540039 27.0073623657226562
16.2446231842041016 23.7772216796875 -0.158383667469024658
-2.87518644332885742 11.186152458190918 29.4170761108398438
21.9874839782714844 -19.0965194702148438 4.85509586334228516
19.6483554840087891 -16.2804164886474609 2.43058657646179199
-30.4873676300048828 12.8628349304199219 -13.9438943862915039
-17.7816104888916016 32.8311576843261719 -18.3940601348876953
-3.12332010269165039 33.40740966796875 -13.912114143371582
17.6137046813964844 25.1927108764648438 1.38464343547821045
-5.47269725799560547 37.8025436401367188 -3.68235492706298828
-7.21045637130737305 -0.850029528141021729 27.4652996063232422
5.62721920013427734 -5.49185419082641602 -10.7460088729858398
-25.4295177459716797 -16.3819046020507812 3.337493896484375
14.8674860000610352 12.3396692276000977 -1.68413960933685303
-22.4522418975830078 11.9308004379272461 14.6746110916137695
-22.0837783813476562 29.1248035430908203 -5.44835138320922852
-22.9951820373535156 16.7922134399414062 11.6112833023071289
0.297459512948989868 31.5146751403808594 -20.4342555999755859
15.6207351684570312 -26.0349388122558594 -2.8141028881072998
5.42931842803955078 -27.4485435485839844 -13.8212947845458984
-11.6526622772216797 -13.1818122863769531 21.9526271820068359
-11.4365758895874023 32.19842529296875 14.5625362396240234
26.6662502288818359 -22.6359367370605469 9.60448741912841797
12.4612245559692383 -19.6919746398925781 -5.4179072380065918
15.6893882751464844 18.9516448974609375 30.0524387359619141
3.90425705909729004 -12.2400331497192383 29.4520187377929688
-23.0737705230712891 -26.3258781433105469 -15.5872516632080078
-6.91337299346923828 37.9512786865234375 -3.23555994033813477
-25.546295166015625 -19.3037471771240234 0.888934314250946045
-1.52842295169830322 37.1280479431152344 14.1576433181762695
-28.7985725402832031 17.9773216247558594 -17.4547214508056641
-7.02633905410766602 34.5523300170898438 -18.2476139068603516
-24.2092037200927734 25.0755882263183594 -2.87077593803405762
17.5436077117919922 -4.60478067398071289 0.665267884731292725
-20.3893928527832031 27.6013641357421875 6.16279172897338867
-11.5816183090209961 -35.1356010437011719 8.66886043548583984
-22.7874717712402344 28.1587791442871094 -18.6220130920410156
27.7274913787841797 27.2832870483398438 18.6174259185791016
-28.8089408874511719 14.5743751525878906 -20.5560512542724609
10.7068948745727539 17.5546054840087891 31.3528823852539062
11.5578088760375977 -5.25110483169555664 -5.92455387115478516
17.9939002990722656 -21.1192035675048828 0.239667594432830811
10.1949977874755859 5.38347005844116211 32.8751564025878906
11.3617124557495117 9.591461181640625 32.7272987365722656
-27.7595691680908203 21.6511077880859375 -11.1382236480712891
-24.8092555999755859 21.0422763824462891 1.20339059829711914
-10.0636043548583984 31.5229454040527344 16.5133495330810547
31.2737827301025391 -5.49576330184936523 19.2846012115478516
-11.8694705963134766 33.09698486328125 -24.9672737121582031
-30.0055027008056641 1.75594735145568848 -18.7110767364501953
10.3963222503662109 -30.1992893218994141 -8.85117340087890625
-22.9192943572998047 12.9330310821533203 -31.8700370788574219
-8.29863357543945312 -28.3983650207519531 -28.6426601409912109
-27.2391185760498047 -12.0115013122558594 0.961855769157409668
13.4496841430664062 28.8026371002197266 -3.90913534164428711
14.6987199783325195 38.2359085083007812 14.6630735397338867
31.5076694488525391 -4.69371271133422852 16.0209770202636719
-3.58748435974121094 2.87930870056152344 -22.0697669982910156
20.5279712677001953 -29.7418613433837891 13.715907096862793
7.51307296752929688 26.2868995666503906 27.8813533782958984
20.0869560241699219 19.47698974609375 4.43633174896240234
16.0580348968505859 6.4827733039855957 31.9348392486572266
26.5471839904785156 -21.303924560546875 14.1620893478393555
-0.239863783121109009 -35.2836227416992188 -12.8809299468994141
-5.60332250595092773 -15.8291339874267578 -24.8713130950927734
-26.1608028411865234 -20.5950260162353516 -1.51052463054656982
-11.0905742645263672 3.92398190498352051 25.6704177856445312
11.0842609405517578 15.4936227798461914 -5.9863123893737793
12.7548103332519531 35.4983024597167969 -3.02200722694396973
-11.8714513778686523 11.7500295639038086 -31.3333225250244141
-9.98061752319335938 -24.8681316375732422 18.4342918395996094
0.453946381807327271 -14.0275344848632812 27.6464653015136719
4.99074268341064453 -22.1815280914306641 25.7916984558105469
-10.6624727249145508 37.4073028564453125 3.22023534774780273
8.75988674163818359 -20.2267627716064453 26.9271221160888672
-15.3113698959350586 -25.8306121826171875 -27.5869350433349609
27.5800914764404297 -7.01989889144897461 11.7432374954223633
-3.89561653137207031 -27.6563835144042969 -23.8403663635253906
-5.7516474723815918 33.111663818359375 17.6309070587158203
-0.525990545749664307 -19.1823844909667969 25.3940048217773438
24.9152641296386719 -21.6543064117431641 15.6735162734985352
-30.8941612243652344 10.020599365234375 -13.2131443023681641
-0.850118041038513184 -8.45183372497558594 -19.4927101135253906
-11.1392745971679688 -36.6722602844238281 5.67254209518432617
9.7804412841796875 -36.5316314697265625 13.6415472030639648
16.5269699096679688 16.6355419158935547 0.205054253339767456
29.0903606414794922 -9.80084705352783203 13.2363414764404297
8.34678077697753906 28.0395622253417969 -8.70772838592529297
29.6654376983642578 25.9337692260742188 15.1430530548095703
-7.62413549423217773 -27.9194240570068359 17.8497982025146484
-4.22114086151123047 -31.2619533538818359 -24.5781536102294922
2.86303830146789551 -29.4843368530273438 -16.8380928039550781
4.66981935501098633 -13.6665067672729492 29.1578769683837891
-28.1242618560791016 -15.2308902740478516 -12.7371320724487305
-21.9515762329101562 -17.0213146209716797 -24.9996013641357422
-7.28626441955566406 38.0064735412597656 -2.76675510406494141
-13.2834749221801758 -4.37914419174194336 23.5042877197265625
-9.88607978820800781 -37.6736259460449219 3.31633257865905762
-23.49493408203125 -16.3948459625244141 7.83823394775390625
14.3451986312866211 36.8383026123046875 17.7245864868164062
-16.9590988159179688 7.04593753814697266 -36.7128868103027344
-25.3386573791503906 -25.5408210754394531 -6.39848947525024414
-18.8066329956054688 27.9569492340087891 9.57399368286132812
14.2073507308959961 8.28352546691894531 -2.36668586730957031
-8.06406211853027344 37.0040054321289062 -7.46305704116821289
-26.6329612731933594 11.6432390213012695 4.09286689758300781
-19.3343238830566406 -28.4329624176025391 -19.7125091552734375
-26.3366317749023438 -22.2211532592773438 -7.65299654006958008
5.10445833206176758 -38.634368896484375 8.53857421875
25.1959304809570312 -28.1792373657226562 7.3705296516418457
-17.8870887756347656 -24.8798561096191406 -24.8377113342285156
10.5251693725585938 9.68725681304931641 -6.68636178970336914
4.49756813049316406 29.5932826995849609 25.2675590515136719
17.0276603698730469 31.9041938781738281 22.6531009674072266
-30.8208866119384766 8.314300537109375 -15.6243190765380859
23.0289745330810547 27.7784423828125 22.5066490173339844
1.85824763774871826 13.7052392959594727 -15.7280302047729492
-25.9738693237304688 6.95655059814453125 8.16320228576660156
-21.2063961029052734 30.6319618225097656 -12.1290645599365234
30.0633640289306641 15.9121665954589844 21.952239990234375
-28.6535663604736328 19.4377937316894531 -10.7917470932006836
-4.0086665153503418 25.6653785705566406 24.5459079742431641
10.6539697647094727 15.8195743560791016 31.7567710876464844
21.6886196136474609 31.696563720703125 5.61203575134277344
-25.8857421875 -15.6191492080688477 -18.6959381103515625
-16.8414783477783203 -29.9989147186279297 8.62022495269775391
-2.29194259643554688 -39.1394844055175781 -7.66976165771484375
11.6417226791381836 15.7515420913696289 -5.3360443115234375
23.2209911346435547 -13.9703531265258789 22.3611564636230469
32.2908744812011719 0.604832887649536133 17.2581806182861328
-2.04528546333312988 22.4810943603515625 26.9762687683105469
-19.4569492340087891 30.7900218963623047 -0.269839733839035034
-8.19357872009277344 13.2415237426757812 26.6184349060058594
-25.6735744476318359 2.9942169189453125 -28.2254962921142578
-2.17047977447509766 31.1656398773193359 -25.2067699432373047
4.65737676620483398 -19.4144458770751953 26.8984622955322266
31.66473388671875 9.622283935546875 17.1691703796386719
14.7886219024658203 13.5664997100830078 31.6701469421386719
-23.9847240447998047 9.81937217712402344 12.1870784759521484
14.9160842895507812 16.9646816253662109 30.8140392303466797
-22.0869464874267578 -23.1070976257324219 -20.0347251892089844
-15.9625730514526367 -38.3128814697265625 -8.19915294647216797
26.9195632934570312 -21.8115177154541016 13.3525714874267578
-28.4247570037841797 20.3543605804443359 -13.5659084320068359
9.97364997863769531 32.6983375549316406 -5.53617954254150391
-18.7517738342285156 -34.4049873352050781 -13.9971818923950195
16.3173141479492188 5.31687736511230469 31.8323783874511719
26.3914165496826172 -3.19808316230773926 10.5978641510009766
-0.947596490383148193 -23.5180377960205078 -20.3369617462158203
-20.3732318878173828 -25.0479202270507812 7.32560873031616211
20.6932792663574219 16.6628360748291016 5.17159080505371094
19.4267406463623047 -5.43189907073974609 2.73416757583618164
-14.0561656951904297 -8.98602294921875 -33.3198051452636719
-1.66452145576477051 0.250527024269104004 30.029998779296875
20.8505191802978516 -11.6104621887207031 3.98744511604309082
24.8127880096435547 30.5821018218994141 18.5325450897216797
-11.4760551452636719 -20.2572956085205078 -31.3780784606933594
1.16404592990875244 15.2988319396972656 -16.5049400329589844
6.20345354080200195 -5.55369758605957031 31.6807880401611328
-12.6397609710693359 -3.43085551261901855 24.1024246215820312
-14.1295595169067383 -7.0547332763671875 22.3315486907958984
26.3313732147216797 -27.0565929412841797 9.08863449096679688
13.258575439453125 -20.6133270263671875 -4.50331974029541016
6.5089268684387207 31.4195194244384766 24.2713241577148438
9.24051475524902344 -29.02777099609375 22.3738174438476562
-6.59646892547607422 28.2598628997802734 -31.0943622589111328
4.73309993743896484 -36.4185409545898438 -0.269752830266952515
-19.8712482452392578 -11.9577760696411133 -32.3590660095214844
15.8288278579711914 30.3269996643066406 -1.09818339347839355
-3.26633310317993164 -33.0867538452148438 -23.7973041534423828
-14.5281991958618164 -20.0070953369140625 17.6973590850830078
-20.5661888122558594 -19.1694374084472656 -25.5633773803710938
-24.1548480987548828 2.66405701637268066 12.5381669998168945
-25.3507652282714844 -18.7737789154052734 -17.1065254211425781
-26.6976509094238281 -17.3286094665527344 -0.484403640031814575
-7.56452274322509766 35.1836700439453125 -13.7813930511474609
-28.5989894866943359 3.68336153030395508 -23.0043735504150391
22.5922222137451172 -9.98725318908691406 24.9456710815429688
11.556396484375 -24.1861324310302734 24.7639389038085938
-21.2995243072509766 -3.22631287574768066 -34.1607170104980469
5.31086158752441406 -31.3098678588867188 -8.19408893585205078
0.154945939779281616 -34.9685592651367188 -2.3671116828918457
3.97474837303161621 35.637939453125 19.064697265625
30.4445762634277344 10.6425724029541016 22.4849166870117188
-28.5070171356201172 16.6797504425048828 -19.9253063201904297
-27.4966850280761719 -8.45049762725830078 -20.6920967102050781
-22.9260158538818359 1.33822977542877197 14.7336635589599609
-17.5363674163818359 -32.2999954223632812 4.38252496719360352
-23.1343002319335938 -26.2464256286621094 -15.5274286270141602
-30.0389022827148438 15.1333398818969727 -11.213984489440918
-22.350982666015625 26.4560489654541016 -23.1274566650390625
-28.7738933563232422 -14.8357124328613281 -6.08599138259887695
-1.926788330078125 -27.4802703857421875 -21.7039508819580078
-15.832127571105957 13.8552894592285156 21.8706912994384766
1.87471425533294678 -33.8313674926757812 -7.58040857315063477
1.09542679786682129 -35.1423454284667969 -15.9069976806640625
-29.3491802215576172 15.5101957321166992 -7.12465524673461914
12.0689945220947266 6.29827737808227539 -4.81311893463134766
11.7198801040649414 -19.75958251953125 26.6859664916992188
-20.1204757690429688 19.0737724304199219 -33.434661865234375
-13.0456171035766602 -39.3922195434570312 -10.5203456878662109
-30.1857357025146484 -5.87112998962402344 -6.1541895866394043
-30.9486637115478516 5.37658786773681641 -15.7010869979858398
-31.0150680541992188 6.03917932510375977 -8.12201690673828125
-10.5929784774780273 22.6022357940673828 22.5309906005859375
23.3199176788330078 19.6641902923583984 26.483642578125
-22.0982074737548828 -27.0596485137939453 2.06711697578430176
7.79140615463256836 -37.724029541015625 -0.704149603843688965
-18.6639804840087891 -34.4596443176269531 -14.0486173629760742
16.1620311737060547 -27.6922073364257812 -2.39656734466552734
23.150726318359375 -21.8688240051269531 5.84621429443359375
-13.4922275543212891 35.8463287353515625 2.68588113784790039
6.39647197723388672 38.2850303649902344 0.0256237387657165527
-27.1952686309814453 20.3556098937988281 -5.25146579742431641
-22.0476436614990234 -5.22235727310180664 14.8918609619140625
-18.6681880950927734 9.45752143859863281 20.1621189117431641
7.31664896011352539 38.71685791015625 14.5772600173950195
0.543142735958099365 31.2270755767822266 -20.7230148315429688
7.26070213317871094 -30.3683986663818359 -9.19466400146484375
-4.75946807861328125 -8.00747013092041016 -23.6166820526123047
-16.9681987762451172 -37.6522750854492188 -7.37765932083129883
-3.00805521011352539 28.9463558197021484 -25.3778324127197266
-15.6388950347900391 34.9487152099609375 -5.91845798492431641
-27.6636943817138672 21.3156414031982422 -9.29685211181640625
-14.8278236389160156 -34.7598838806152344 4.62248373031616211
9.51570796966552734 20.8437366485595703 -7.88002443313598633
-9.94410324096679688 -33.2838516235351562 12.4803829193115234
22.3560047149658203 3.20744109153747559 28.6871337890625
-7.97269535064697266 21.8759422302246094 24.3843994140625
3.38141608238220215 -31.2257289886474609 -10.8454866409301758
-2.09685778617858887 -38.6156845092773438 -6.71380424499511719
-30.2986564636230469 0.659157097339630127 -17.1588172912597656
27.0679035186767578 17.7364311218261719 24.2028484344482422
-19.2147445678710938 16.8951644897460938 18.0291538238525391
-29.9120826721191406 -7.47742843627929688 -13.6660175323486328
14.5445966720581055 -37.3774337768554688 5.07320928573608398
24.5853919982910156 -22.8844947814941406 7.32305669784545898
-16.4722480773925781 -3.69502735137939453 21.2237091064453125
1.10765445232391357 -34.2927360534667969 -11.7131814956665039
-2.13511347770690918 38.5372810363769531 10.1513795852661133
-21.3597526550292969 26.3614368438720703 4.97578096389770508
26.7273120880126953 -18.7511043548583984 10.0846080780029297
-25.9836864471435547 25.0613231658935547 -12.3762712478637695
2.27750563621520996 30.3956336975097656 -13.5561723709106445
-3.99558186531066895 -25.1388072967529297 -23.6602993011474609
14.7053823471069336 -29.5762615203857422 -4.25719833374023438
-23.6492118835449219 23.2588157653808594 1.87878942489624023
12.2539272308349609 -15.866307258605957 28.2598342895507812
-6.69180488586425781 -39.9996833801269531 -10.6843786239624023
13.4660873413085938 34.1558723449707031 21.5310039520263672
25.5771560668945312 31.8699760437011719 16.2178401947021484
16.1325721740722656 32.5640220642089844 -0.988345324993133545
5.5851130485534668 -16.9561309814453125 27.9999523162841797
11.8644275665283203 14.0752496719360352 -5.16699886322021484
-24.9600410461425781 -25.7503261566162109 -10.821904182434082
13.307337760925293 34.0452537536621094 21.6752185821533203
-29.8607234954833984 4.18909692764282227 -3.02478647232055664
-23.4835987091064453 27.2798805236816406 -18.9520263671875
-26.3196907043457031 9.23970603942871094 -26.9732170104980469
19.6516895294189453 -3.27646350860595703 3.25161123275756836
19.4516143798828125 -2.38444757461547852 2.97079253196716309
4.20831060409545898 39.7912673950195312 9.62135124206542969
-8.33652210235595703 -19.7229194641113281 -28.0093154907226562
-20.8105335235595703 21.5248451232910156 13.0219907760620117
-2.74301886558532715 0.684354186058044434 -21.0458984375
-8.68136692047119141 2.38095617294311523 -27.2331981658935547
1.55154073238372803 -9.29747962951660156 29.6404323577880859
-10.4701137542724609 -14.5058403015136719 -29.8295669555664062
-0.705449819564819336 6.89145040512084961 -18.8162803649902344
-2.20232868194580078 33.1497879028320312 19.5883655548095703
-23.4149703979492188 -0.683946907520294189 13.764678955078125
16.5893898010253906 -4.52715301513671875 30.4349536895751953
-2.72548127174377441 10.3523950576782227 -20.7994174957275391
2.76647543907165527 18.8713970184326172 -14.9009361267089844
9.60852336883544922 17.1727237701416016 -7.69210386276245117
1.9363245964050293 28.9248580932617188 -18.0319156646728516
-22.8989830017089844 -24.6151237487792969 2.75371861457824707
-12.5449562072753906 15.4547901153564453 -33.8070259094238281
-3.94461798667907715 -3.8108060359954834 28.4967975616455078
-25.9339466094970703 19.4522533416748047 -23.3842735290527344
14.4838180541992188 -31.8187637329101562 -4.87998628616333008
-31.0477294921875 8.64097023010253906 -10.0208673477172852
-30.6493053436279297 9.33426856994628906 -7.71090555191040039
11.0850429534912109 -9.76009845733642578 -6.58634376525878906
-12.5011587142944336 33.7131614685058594 11.4297609329223633
-11.526249885559082 -14.9626903533935547 -31.0507488250732422
21.8941230773925781 -4.10285043716430664 27.5984535217285156
15.7825126647949219 24.100067138671875 -0.608249008655548096
-24.0115680694580078 14.903106689453125 10.0579080581665039
-5.39293241500854492 19.0794677734375 -24.7097682952880859
-7.99190950393676758 -36.0929374694824219 -20.9818992614746094
15.8109827041625977 -8.35299110412597656 29.7876148223876953
-25.0688686370849609 21.43634033203125 -23.4384212493896484
-20.3706264495849609 -34.0037345886230469 -6.43082380294799805
4.0120539665222168 -34.1070938110351562 -2.27550482749938965
19.651031494140625 26.3260879516601562 25.5210666656494141
-22.5924911499023438 -1.10859191417694092 14.9896984100341797
-25.4656944274902344 -23.9143867492675781 -3.19298505783081055
19.3528480529785156 -28.9889144897460938 15.8344535827636719
16.5233783721923828 0.28110155463218689 31.3160247802734375
-8.45494461059570312 11.1169652938842773 -26.6619091033935547
8.99249172210693359 10.4620275497436523 -8.57867622375488281
-26.9902057647705078 9.66586685180664062 4.10179996490478516
-10.4153175354003906 -30.2309989929199219 14.8097190856933594
-10.2451553344726562 -30.9203815460205078 14.3806171417236328
-5.49259853363037109 -23.7066783905029297 -25.2043361663818359
-28.150726318359375 15.9277105331420898 -21.4055957794189453
-7.38298368453979492 14.7856407165527344 26.744659423828125
-23.5957145690917969 -26.8783187866210938 -14.0060186386108398
-27.5540981292724609 -16.138336181640625 -2.10661864280700684
-2.9621284008026123 -18.6642379760742188 -22.2359066009521484
-31.3271331787109375 3.3700714111328125 -10.7358894348144531
-26.2278976440429688 -22.6286811828613281 -4.82934236526489258
-7.98094892501831055 20.7323551177978516 24.7722606658935547
0.122576750814914703 38.8147048950195312 10.8868198394775391
5.59941434860229492 -2.93022990226745605 -11.4441432952880859
-6.34387636184692383 17.8220100402832031 -25.5917739868164062
-8.55835819244384766 21.2711715698242188 24.3184947967529297
9.05496311187744141 -38.4350509643554688 0.704799294471740723
23.3853225708007812 15.8232536315917969 7.95013666152954102
23.2954502105712891 17.1009807586669922 8.21802902221679688
6.25420570373535156 -31.9318218231201172 -13.8054523468017578
-17.4876899719238281 -2.30022239685058594 20.5621109008789062
21.1511058807373047 -22.3745613098144531 3.61231684684753418
8.21110630035400391 3.12608838081359863 32.7762031555175781
-18.5008602142333984 -20.56060791015625 -27.5486545562744141
3.56003737449645996 -33.4024009704589844 -9.74245262145996094
-25.3703784942626953 -12.0694561004638672 5.9562993049621582
19.3240718841552734 38.4166831970214844 10.9437074661254883
-28.5245246887207031 9.34431934356689453 -22.9894638061523438
-16.1881046295166016 -10.5108280181884766 -35.7737770080566406
-20.8901081085205078 29.7014026641845703 -19.9010047912597656
-27.5943374633789062 7.66939687728881836 3.02030134201049805
9.16896438598632812 -32.8412742614746094 -4.52710866928100586
12.1943998336791992 -38.3639945983886719 3.3967292308807373
10.6111240386962891 4.3732151985168457 32.8446578979492188
16.8145866394042969 1.1489795446395874 0.264656096696853638
28.0023212432861328 -14.7348108291625977 17.4435634613037109
18.1608486175537109 -4.16785335540771484 1.37617027759552002
19.2898368835449219 11.6035423278808594 30.4516887664794922
-15.0085916519165039 19.3249359130859375 -39.3712577819824219
18.9949417114257812 14.2194509506225586 3.05267000198364258
-16.2649955749511719 -28.7536907196044922 10.7016458511352539
22.8254871368408203 9.45818233489990234 28.6264419555664062
-13.4317073822021484 3.39982461929321289 24.2210731506347656
2.47902417182922363 7.67992305755615234 -15.4115419387817383
25.2318115234375 -13.5416440963745117 8.66959667205810547
18.8382320404052734 2.75286507606506348 2.53113913536071777
13.8404664993286133 -15.1312494277954102 28.1005306243896484
-9.56660938262939453 26.1809463500976562 -34.7064781188964844
-22.9053878784179688 28.7052021026611328 -9.51049995422363281
-25.0830745697021484 -25.2904548645019531 -10.977931022644043
-29.7466049194335938 16.3821372985839844 -13.7897157669067383
-17.6793613433837891 -25.0422687530517578 -25.0247344970703125
-14.5606174468994141 35.182464599609375 0.949275791645050049
-30.1409740447998047 5.35830450057983398 -19.3197002410888672
-0.31090119481086731 27.4175834655761719 -20.6333713531494141
-2.2828679084777832 -26.0583534240722656 21.4163398742675781
-2.1360785961151123 -30.4805107116699219 18.8057937622070312
-14.5790176391601562 -16.68597412109375 -34.5690574645996094
-15.1192970275878906 -12.7991094589233398 -34.7581863403320312
-19.5495262145996094 32.1498832702636719 -8.11343669891357422
-8.96652889251708984 5.23667430877685547 26.9571743011474609
24.3052730560302734 0.0447425693273544312 8.39097213745117188
17.7510604858398438 8.77535533905029297 1.86671006679534912
7.6801295280456543 10.6940231323242188 -9.99231910705566406
-12.8799524307250977 28.1729621887207031 17.3994655609130859
0.18772551417350769 -34.9390487670898438 15.2518205642700195
-10.2527246475219727 24.5747413635253906 -34.7577667236328125
-11.2546806335449219 31.4589900970458984 15.5900297164916992
-1.33976030349731445 18.7875194549560547 28.5553112030029297
6.33128786087036133 -39.1116180419921875 6.70073556900024414
-30.6448516845703125 -5.30406856536865234 -10.403843879699707
27.8162670135498047 -15.0724773406982422 17.4202117919921875
21.0980014801025391 24.3116588592529297 5.24764776229858398
0.835688233375549316 37.8066253662109375 -1.39489865303039551
21.6181411743164062 17.4407958984375 28.1849288940429688
18.1034202575683594 20.6421527862548828 28.9024848937988281
12.7750539779663086 -20.33074951171875 -5.12577486038208008
0.727544248104095459 -34.3388862609863281 -2.56027317047119141
-16.64691162109375 -30.5080337524414062 8.34972858428955078
5.67930078506469727 13.0458059310913086 -11.8703842163085938
-18.6705837249755859 12.5914506912231445 -37.9867706298828125
3.73224520683288574 29.3740386962890625 -12.3082065582275391
-20.6328125 -4.5723576545715332 -34.7183570861816406
3.75688314437866211 -9.00756549835205078 -14.6397800445556641
-17.2140483856201172 15.807830810546875 20.2726097106933594
27.2527179718017578 15.300694465637207 12.5612773895263672
-22.6257743835449219 -24.4040603637695312 -18.0781421661376953
-7.01703214645385742 32.793670654296875 -29.6217861175537109
23.8156642913818359 -13.6931324005126953 21.9717674255371094
-3.0802452564239502 -14.8962936401367188 -22.1645927429199219
-3.10745024681091309 33.2074432373046875 -22.8208103179931641
-14.3462028503417969 -20.3847007751464844 17.6944541931152344
-11.7954912185668945 -25.2065811157226562 17.2258071899414062
-10.3246850967407227 -36.5508880615234375 -18.5380229949951172
-10.5689096450805664 -17.1696434020996094 21.295745849609375
30.3641490936279297 24.7796478271484375 15.9254674911499023
-2.59391665458679199 -26.6604290008544922 20.9660015106201172
27.0240154266357422 1.81176745891571045 24.9436931610107422
-3.57899260520935059 -18.10858154296875 -22.8558235168457031
-2.72687602043151855 2.41326475143432617 29.7473640441894531
-8.54582786560058594 2.06006264686584473 27.0395927429199219
-10.9264249801635742 15.1422567367553711 24.7658100128173828
-27.6366615295410156 20.3934593200683594 -7.13900566101074219
24.7136096954345703 -18.7121047973632812 7.85310649871826172
-21.2272853851318359 25.3808975219726562 7.43524265289306641
12.8817672729492188 -38.0939483642578125 8.58112525939941406
23.5829753875732422 6.63250160217285156 7.95450162887573242
26.7293338775634766 1.81209409236907959 11.1365718841552734
-19.8206806182861328 29.4043693542480469 3.09801411628723145
7.82475090026855469 5.76949262619018555 -10.3499164581298828
-21.8347301483154297 -2.54864215850830078 15.7323541641235352
6.48394966125488281 4.21669864654541016 -10.9010276794433594
20.4307632446289062 -4.580047607421875 28.415069580078125
-20.4065475463867188 18.8185825347900391 15.5797004699707031
-25.3484535217285156 1.65975308418273926 10.1814517974853516
-18.0902156829833984 19.5971088409423828 -35.9504280090332031
-12.6179189682006836 23.3648910522460938 -38.0604133605957031
16.1342926025390625 -18.5857906341552734 -1.49055171012878418
-26.3608570098876953 -21.1191921234130859 -2.72825527191162109
12.637298583984375 -20.6859836578369141 26.0173816680908203
-2.12843179702758789 -28.0691738128662109 20.3720703125
-13.0023050308227539 -22.4339065551757812 -32.8161811828613281
-10.8964738845825195 -17.1575508117675781 -30.5362911224365234
31.2018203735351562 17.0154743194580078 16.9622611999511719
27.7919425964355469 -14.9529571533203125 11.4524288177490234
33.4412155151367188 2.86024355888366699 19.0316905975341797
-7.2678828239440918 -37.534393310546875 -17.2265357971191406
28.5475635528564453 6.91235113143920898 13.5919971466064453
-25.1898784637451172 16.6941623687744141 -26.3884086608886719
-6.80899333953857422 -35.3137359619140625 11.8015737533569336
32.2575149536132812 -8.51696395874023438 16.6009197235107422
27.9389896392822266 -17.8918666839599609 15.4098310470581055
-26.4620685577392578 -15.904383659362793 0.970446407794952393
9.21282100677490234 10.8009481430053711 32.5822372436523438
8.81456661224365234 1.45554161071777344 32.7531776428222656
-17.2564888000488281 29.5603141784667969 -26.1022911071777344
-17.8343372344970703 -6.46079111099243164 -37.4682350158691406
-25.2877674102783203 8.88297653198242188 -28.8880233764648438
11.7157669067382812 -19.1869888305664062 -6.13035106658935547
0.573035478591918945 -24.3958644866943359 -18.7752494812011719
6.41497659683227539 30.3936805725097656 -8.58883571624755859
-27.7914333343505859 6.08141851425170898 2.97089266777038574
6.73617315292358398 -10.4623527526855469 -11.5475397109985352
22.7513637542724609 37.1352767944335938 10.4023427963256836
27.1913642883300781 21.9200096130371094 12.4391603469848633
6.74733543395996094 -27.7728595733642578 23.1905670166015625
-27.7978839874267578 -13.7381677627563477 -15.6424427032470703
18.1810016632080078 28.6244602203369141 1.76656258106231689
-22.8160648345947266 7.78646135330200195 14.6751089096069336
-17.0612831115722656 -6.17947959899902344 20.2807865142822266
-13.4430398941040039 -31.4083538055419922 11.549769401550293
-15.6363506317138672 -30.7861194610595703 -22.1002922058105469
-13.8146543502807617 -14.2198419570922852 20.4802398681640625
7.14102268218994141 34.0078582763671875 -5.04354476928710938
-11.7075090408325195 10.8587570190429688 25.0748691558837891
22.4286174774169922 23.0078411102294922 6.8007354736328125
21.9578933715820312 -22.1820449829101562 18.4248046875
17.5483779907226562 0.859173059463500977 30.9744472503662109
-7.30136346817016602 35.100341796875 -13.6546249389648438
-20.7509441375732422 19.3254756927490234 14.7618141174316406
4.21712112426757812 5.09204673767089844 -13.4124660491943359
-7.73348140716552734 -2.24149537086486816 26.9735851287841797
6.46835899353027344 33.5639381408691406 22.2114124298095703
-28.9649066925048828 1.74714422225952148 -21.7789344787597656
30.7508430480957031 19.12603759765625 16.5205097198486328
1.14232540130615234 32.16693115234375 22.0933017730712891
-5.55425167083740234 27.4612827301025391 22.7091121673583984
21.4407596588134766 -14.7346515655517578 23.5197734832763672
-2.20480704307556152 -16.4279899597167969 -21.2751045227050781
24.0866565704345703 -28.2718105316162109 6.25249242782592773
-5.37546348571777344 -6.07371711730957031 27.2660140991210938
-29.8214550018310547 6.27709293365478516 -20.1661949157714844
9.64661312103271484 23.8458690643310547 -7.81808614730834961
27.9985065460205078 8.74325752258300781 24.8624114990234375
16.3410511016845703 -36.6363945007324219 -2.56539607048034668
13.2757625579833984 -28.2540016174316406 -5.75796079635620117
12.5379352569580078 -33.5082206726074219 16.5347728729248047
-17.1596260070800781 0.323681861162185669 -36.1134223937988281
-16.1905994415283203 31.5507621765136719 9.81691551208496094
19.5415802001953125 15.5274324417114258 3.86815071105957031
-17.9473934173583984 -7.22890233993530273 19.1839389801025391
-18.8983802795410156 -23.4029941558837891 -24.7172718048095703
-2.6252281665802002 15.921757698059082 28.7170143127441406
-12.4103450775146484 15.9569005966186523 -33.7593994140625
7.88250637054443359 -33.5711402893066406 -3.97313451766967773
3.35905647277832031 5.15608596801757812 31.8863372802734375
-19.4754486083984375 9.45149421691894531 19.3065738677978516
17.573272705078125 -0.7905464768409729 30.7584037780761719
-29.8471794128417969 11.0452051162719727 -5.59204435348510742
9.44523239135742188 16.9456996917724609 31.4964122772216797
-2.20087337493896484 9.73602581024169922 -20.2472457885742188
-4.61034297943115234 -37.2034568786621094 -17.3773593902587891
-23.3000717163085938 23.5783805847167969 2.45366787910461426
16.7221736907958984 24.1252670288085938 27.9565410614013672
27.0720901489257812 21.4368400573730469 22.9076004028320312
-11.0763664245605469 -37.5343589782714844 1.77122926712036133
-10.4134941101074219 -16.6012039184570312 21.5405845642089844
10.7697429656982422 -39.0346488952636719 7.04729795455932617
-5.05794668197631836 32.9275093078613281 18.2367458343505859
28.5408535003662109 12.7238912582397461 24.0521831512451172
16.5489425659179688 -32.4278411865234375 14.9437627792358398
1.77979385852813721 -35.85528564453125 -0.615152239799499512
16.8905467987060547 -28.5524215698242188 18.7758998870849609
-10.1402072906494141 6.83431911468505859 -28.5331535339355469
-5.28559732437133789 -18.7628936767578125 23.2471408843994141
-14.9885358810424805 33.5542640686035156 -20.7117748260498047
-15.9693231582641602 -33.406951904296875 5.29084539413452148
-2.85292172431945801 38.6184501647949219 -0.699538588523864746
16.9246292114257812 24.2506999969482422 0.551573574542999268
21.669403076171875 15.9131793975830078 28.5375518798828125
-24.615447998046875 -18.6054916381835938 3.76833462715148926
-4.89019203186035156 -30.1709442138671875 17.67962646484375
-15.4838647842407227 -31.746337890625 -21.2113418579101562
13.8334541320800781 -33.2689132690429688 16.0249710083007812
11.8471164703369141 13.2337846755981445 -5.20306396484375
-10.5852746963500977 28.4859542846679688 -34.8679008483886719
-21.5082588195800781 3.4590446949005127 16.9537410736083984
4.96971368789672852 27.5672168731689453 26.7377471923828125
6.54569673538208008 -37.0180168151855469 -0.808455348014831543
15.9492197036743164 33.1877326965332031 21.8116035461425781
27.5886116027832031 -11.5956916809082031 11.3739309310913086
-9.08984565734863281 36.1226005554199219 10.521763801574707
-26.0419731140136719 -15.0489892959594727 2.55783486366271973
-20.49090576171875 31.1915302276611328 -14.1286401748657227
24.4384536743164062 14.9442205429077148 9.13999462127685547
-0.532816648483276367 -1.23990094661712646 -18.8904170989990234
0.541703999042510986 30.8478336334228516 -20.9949989318847656
5.29311609268188477 -5.84538412094116211 -9.22734928131103516
-26.4194412231445312 2.23533391952514648 -27.0456886291503906
-11.6571569442749023 21.8469181060791016 -35.7463150024414062
-21.0170631408691406 9.29560279846191406 -35.3616142272949219
23.8456077575683594 -18.3041820526123047 19.1189937591552734
-13.5936250686645508 30.476043701171875 -29.2062759399414062
-30.9330558776855469 0.246545866131782532 -13.2255058288574219
-15.0297060012817383 12.4507770538330078 22.7270851135253906
-17.1812057495117188 26.52947998046875 -30.6584148406982422
22.2761440277099609 2.55352926254272461 6.32594060897827148
32.6373748779296875 1.34774875640869141 17.6941242218017578
-25.2231025695800781 7.68960237503051758 9.74855327606201172
13.1343460083007812 -6.33897304534912109 -4.20581960678100586
18.406951904296875 -10.036351203918457 27.9629230499267578
-29.7937221527099609 11.9674673080444336 -5.90931272506713867
25.9262962341308594 -2.26429533958435059 10.0416898727416992
-9.16992855072021484 -24.461883544921875 19.0837955474853516
-30.6317329406738281 0.431612402200698853 -15.3569726943969727
-2.29429078102111816 22.5124034881591797 -21.5639591217041016
-4.48889398574829102 35.1139297485351562 15.727299690246582
20.4302177429199219 19.8765411376953125 28.0965480804443359
21.9853248596191406 22.9978904724121094 6.25142145156860352
10.7825946807861328 11.3331518173217773 -6.33130407333374023
-6.88643980026245117 -20.1863193511962891 21.9640235900878906
20.0124397277832031 -21.0025177001953125 2.43637776374816895
-12.1815328598022461 -28.7794704437255859 -28.3714275360107422
-3.85527467727661133 14.2531833648681641 28.6154155731201172
29.8733367919921875 14.305023193359375 22.4683322906494141
10.3658332824707031 27.7686614990234375 -7.57554912567138672
17.9910850524902344 11.3175849914550781 1.86770272254943848
-9.14373970031738281 3.03486824035644531 -27.6219673156738281
3.7606961727142334 -6.99249601364135742 30.868560791015625
-14.9963836669921875 -4.82739353179931641 -34.020965576171875
23.0458221435546875 36.7701835632324219 6.33407878875732422
-27.1521987915039062 21.2957897186279297 -18.9877567291259766
22.8775596618652344 -12.7346668243408203 23.343017578125
3.17282652854919434 -22.113739013671875 -15.7653427124023438
19.507537841796875 -29.8912410736083984 1.14205992221832275
15.4964704513549805 -7.99714994430541992 -1.64941680431365967
13.5870227813720703 31.3387508392333984 24.2276592254638672
-25.4850482940673828 16.8846817016601562 -25.8310642242431641
0.28202664852142334 38.6573905944824219 11.5172853469848633
6.96400642395019531 -28.0179729461669922 -10.1569929122924805
-13.5355081558227539 -7.36573934555053711 -32.707061767578125
16.61309814453125 15.922429084777832 30.7322196960449219
9.42934703826904297 -25.9509963989257812 24.2313404083251953
4.03938436508178711 -38.2222557067871094 9.56275177001953125
0.553257465362548828 -17.3377494812011719 -18.3423233032226562
-14.1963338851928711 29.9154186248779297 14.5490293502807617
11.2514963150024414 10.2962217330932617 32.6196632385253906
-4.03027677536010742 -35.5892448425292969 -25.1008453369140625
-28.4685592651367188 7.07778644561767578 0.596015036106109619
-19.7660923004150391 -15.70733642578125 -29.6087570190429688
13.481776237487793 8.54564952850341797 -3.18239116668701172
27.6822681427001953 -8.60301589965820312 11.7435874938964844
-22.6182117462158203 -15.6399335861206055 9.89295291900634766
-23.4898433685302734 21.9849510192871094 4.70469188690185547
5.18446159362792969 -18.7010688781738281 27.3005294799804688
27.0478401184082031 -5.46098184585571289 23.056488037109375
-15.9550724029541016 8.13854122161865234 22.4960269927978516
-14.1473350524902344 12.9779272079467773 -34.6610755920410156
-21.8581447601318359 -2.67620038986206055 15.6876220703125
-4.59560871124267578 -39.621795654296875 -5.8963322639465332
-4.70024585723876953 5.84184694290161133 -22.7671146392822266
-31.0115280151367188 2.72468304634094238 -14.4974985122680664
27.5001049041748047 29.7640666961669922 16.5836811065673828
-8.02796745300292969 36.9261665344238281 -7.69783973693847656
-10.0283966064453125 4.72654914855957031 -28.2384586334228516
24.6200637817382812 -5.78037691116333008 8.42628765106201172
29.1550540924072266 2.23498082160949707 23.1459217071533203
-14.7915534973144531 -17.2726688385009766 -34.6568336486816406
19.743011474609375 37.4962158203125 13.2198972702026367
15.6613836288452148 34.1381607055664062 -1.68682241439819336
-28.1819305419921875 11.1388378143310547 -0.400776892900466919
-25.1909809112548828 2.81383109092712402 10.5581541061401367
-15.7079372406005859 13.7341785430908203 -38.1169471740722656
12.9954710006713867 19.0678253173828125 30.5642662048339844
-6.78686618804931641 -36.9034919738769531 9.1896820068359375
7.08671379089355469 -36.9054374694824219 -1.18470990657806396
21.2668514251708984 -18.2095737457275391 21.6573619842529297
-8.65101337432861328 -36.3684463500976562 9.06751251220703125
24.3973407745361328 -4.58989334106445312 8.25914573669433594
-2.89758443832397461 32.3855972290039062 -27.3621749877929688
-13.7921953201293945 -36.0085678100585938 3.0888524055480957
-15.2814521789550781 -19.8195991516113281 17.1657047271728516
-9.81296062469482422 -0.442490756511688232 -28.3028964996337891
-15.3471002578735352 -26.6023330688476562 13.4612102508544922
-23.5541839599609375 -27.8987712860107422 -13.0458688735961914
-22.4780006408691406 -31.1163959503173828 -8.48974704742431641
-27.0748634338378906 -17.9501914978027344 -12.9267454147338867
0.482732445001602173 11.8509712219238281 -17.1276912689208984
-2.45775079727172852 -36.7392349243164062 -3.40722227096557617
-26.8999824523925781 8.48341941833496094 4.8941960334777832
-4.35181331634521484 3.92526078224182129 -22.6293277740478516
-6.57211923599243164 -20.0274181365966797 -26.1881217956542969
-14.1081819534301758 -20.2270641326904297 -33.2818984985351562
-15.9821405410766602 30.7861881256103516 11.2891216278076172
-29.0409660339355469 7.53302860260009766 -1.21373939514160156
15.5289402008056641 39.5801200866699219 5.39383506774902344
23.8687686920166016 -22.8657684326171875 15.9442844390869141
0.108072303235530853 -29.6676158905029297 20.2459659576416016
12.8418855667114258 16.5508518218994141 -3.94950103759765625
19.9986858367919922 -33.2093696594238281 0.870319545269012451
-7.53699064254760742 -38.2663421630859375 0.409826725721359253
20.0098133087158203 -14.9414606094360352 2.8795778751373291
17.0780620574951172 31.5050926208496094 0.263193458318710327
-30.1862640380859375 -0.0797452554106712341 -4.18346500396728516
12.0794763565063477 27.1924304962158203 27.4377555847167969
-11.5283021926879883 -28.1888942718505859 -29.7671165466308594
11.6510114669799805 18.5149116516113281 -5.37228775024414062
-4.49861955642700195 38.8486671447753906 5.95358180999755859
-17.7371387481689453 -34.1544876098632812 -15.6901769638061523
1.64042305946350098 -0.16413252055644989 31.1506996154785156
-22.4798984527587891 -4.83209800720214844 -31.8483829498291016
-1.44994306564331055 39.3215675354003906 5.48330259323120117
7.60347270965576172 40.0750198364257812 9.83407211303710938
-4.81928300857543945 38.7545547485351562 6.15176248550415039
16.7685718536376953 -2.71532869338989258 0.0109442910179495811
-12.9227161407470703 36.2535858154296875 1.85339093208312988
-7.91809272766113281 37.9841117858886719 -2.4733734130859375
-11.2756137847900391 -37.0447273254394531 -17.0739078521728516
-12.3676919937133789 -23.6823616027832031 17.6060791015625
-5.67780637741088867 15.0391368865966797 -23.5795097351074219
-2.77728414535522461 -2.81816720962524414 29.2497081756591797
-16.2393283843994141 30.3491325378417969 11.3935308456420898
23.9224567413330078 -21.0310192108154297 6.74379253387451172
-28.7340755462646484 -7.45493984222412109 -18.1019229888916016
15.5012702941894531 -31.6223278045654297 16.8695926666259766
19.3788013458251953 38.5097389221191406 10.599365234375
4.16634130477905273 35.4531021118164062 19.3894748687744141
-22.9194545745849609 -30.0680046081542969 -11.5226402282714844
6.49589252471923828 10.9711036682128906 -11.188176155090332
-22.4809436798095703 -3.25047159194946289 -32.3580551147460938
-3.42452812194824219 27.25091552734375 -25.2364883422851562
23.3079452514648438 -23.0100040435791016 6.01021146774291992
19.2373771667480469 13.6244821548461914 3.32167696952819824
-25.3704700469970703 15.4423961639404297 5.4720306396484375
23.9181499481201172 27.6422367095947266 8.54998683929443359
-1.25123453140258789 -2.94054818153381348 29.8849925994873047
22.6498336791992188 -26.4586391448974609 14.3845329284667969
-2.16198110580444336 19.7073554992675781 27.9294319152832031
-27.3175296783447266 14.0443525314331055 -23.9600143432617188
-11.9974851608276367 33.3025665283203125 12.6499958038330078
-5.55553865432739258 -37.8204917907714844 7.24091768264770508
28.6563091278076172 10.5370903015136719 24.216766357421875
20.4186019897460938 28.8221588134765625 4.37812232971191406
-24.0168209075927734 26.442230224609375 -19.3280982971191406
-18.6447887420654297 -2.45724105834960938 -37.8428993225097656
-20.7177963256835938 -28.1921501159667969 3.69419693946838379
-0.805301189422607422 -28.5819015502929688 20.6310977935791016
6.36034536361694336 -16.4927692413330078 28.2842998504638672
-1.62031412124633789 -18.5006484985351562 25.1548881530761719
17.3101921081542969 20.0654449462890625 29.2977809906005859
-3.21445369720458984 -35.0497093200683594 13.606480598449707
-2.91259503364562988 20.0470733642578125 27.44976806640625
5.49984169006347656 32.0439567565917969 23.5110569000244141
10.8947429656982422 38.4866752624511719 14.6259136199951172
31.1571159362792969 -12.4859828948974609 15.8025569915771484
-28.4306068420410156 13.2793369293212891 -2.33853268623352051
12.8054170608520508 5.28669357299804688 -3.81236648559570312
-1.12593913078308105 31.4469127655029297 -23.8419990539550781
-25.969696044921875 6.0775904655456543 8.3303375244140625
15.1556568145751953 19.7173404693603516 29.9396476745605469
15.4235324859619141 -23.7323093414306641 23.1592330932617188
1.49173879623413086 -36.8261375427246094 -18.9569129943847656
30.0665187835693359 -1.25462532043457031 14.7688388824462891
24.3457393646240234 -4.19259166717529297 25.759735107421875
24.5861110687255859 34.5833816528320312 13.4266872406005859
27.8270835876464844 -19.6882266998291016 14.12396240234375
-30.7202587127685547 0.0645725056529045105 -6.06877613067626953
-7.82694768905639648 26.4813690185546875 22.0905647277832031
-22.0543727874755859 14.2650260925292969 -32.75067138671875
19.950531005859375 -30.7351455688476562 1.56512391567230225
9.2503204345703125 20.7851905822753906 -8.21967601776123047
-7.73557233810424805 37.7842140197753906 -3.56766843795776367
1.22514450550079346 -35.2172508239746094 -8.97942256927490234
-13.9027528762817383 29.2245883941650391 -31.0381755828857422
31.9553775787353516 -1.40433287620544434 16.7830677032470703
12.1259164810180664 12.9958028793334961 32.1363792419433594
-28.4036331176757812 1.2969355583190918 1.72179555892944336
13.1477146148681641 8.24470996856689453 32.5949211120605469
-23.3787517547607422 -17.4593639373779297 -21.6205024719238281
-11.1685647964477539 -32.2237167358398438 12.6562995910644531
16.7912254333496094 -15.9160709381103516 26.3948860168457031
29.4370632171630859 -12.0848960876464844 13.4225730895996094
-6.33951616287231445 33.4901161193847656 16.7856388092041016
-16.4026432037353516 -35.1117820739746094 0.885277986526489258
9.57590675354003906 35.6911888122558594 -3.0039515495300293
15.3623600006103516 -36.4705886840820312 -2.13691878318786621
13.7176246643066406 -31.5281772613525391 18.2752399444580078
22.0678176879882812 20.3083972930908203 6.5769658088684082
20.0180397033691406 37.333465576171875 13.3090887069702148
32.1268653869628906 -6.11944341659545898 18.2072868347167969
-12.8057231903076172 23.5044612884521484 -38.1592864990234375
11.8865585327148438 35.3629951477050781 -3.14911556243896484
-6.80995559692382812 32.697357177734375 17.4622154235839844
5.63932943344116211 -18.8372440338134766 -12.9389820098876953
-7.8584589958190918 18.8535575866699219 -27.6972579956054688
22.5184040069580078 -9.61504650115966797 5.97268342971801758
-19.8594284057617188 22.5705242156982422 13.613429069519043
-5.36353921890258789 -21.5400505065917969 -24.9090480804443359
18.4731311798095703 -34.88226318359375 7.90691661834716797
-17.149383544921875 -36.8525009155273438 -4.02422380447387695
9.97864055633544922 -35.0108222961425781 -2.34341096878051758
25.2771034240722656 22.8863525390625 10.0771827697753906
6.41463327407836914 18.3651809692382812 -11.1372356414794922
28.8565578460693359 8.05565452575683594 14.0972108840942383
13.0576286315917969 34.6604385375976562 -3.77492141723632812
20.1046619415283203 38.52978515625 3.62572884559631348
23.9967575073242188 -29.4356040954589844 6.03846359252929688
-3.64085292816162109 -36.4797210693359375 11.006535530090332
15.0782060623168945 7.83334732055664062 -1.44412171840667725
-25.7482223510742188 -11.7425270080566406 -22.1929454803466797
12.3279666900634766 8.53614902496337891 -4.48252153396606445
-6.04576301574707031 37.8755950927734375 8.69960594177246094
13.6970100402832031 15.4726266860961914 -2.97647356986999512
-6.74016618728637695 37.1324729919433594 10.2974262237548828
18.9368953704833984 28.3903999328613281 2.86278700828552246
4.81558036804199219 -33.3734512329101562 18.6543827056884766
14.9968814849853516 39.6584320068359375 5.60960912704467773
24.2650947570800781 26.7086906433105469 8.934295654296875
-10.7626943588256836 -22.8476905822753906 -30.7896938323974609
13.2515525817871094 12.2033405303955078 32.1572608947753906
-12.9189062118530273 16.8617839813232422 -35.3019027709960938
27.3334159851074219 3.53099656105041504 11.865931510925293
-2.653533935546875 -28.8867969512939453 -22.6349506378173828
-15.2238836288452148 -36.7343635559082031 -14.652587890625
-26.6067428588867188 -6.4743657112121582 5.26543235778808594
10.1599540710449219 0.919627070426940918 -7.20284795761108398
-20.3551197052001953 -10.9654512405395508 -32.1460037231445312
-12.4788675308227539 0.0738778188824653625 -31.2377643585205078
-2.49551796913146973 17.3755741119384766 28.3986968994140625
3.51282548904418945 -16.1017799377441406 -15.0509157180786133
16.6831855773925781 -36.8293647766113281 1.3483893871307373
2.3320918083190918 30.0293655395507812 -14.4289894104003906
3.68833327293395996 -2.12612605094909668 -14.1851367950439453
6.87082242965698242 -13.3558387756347656 29.5387725830078125
-6.5351409912109375 35.9576148986816406 12.9886589050292969
-25.8458671569824219 -13.8433704376220703 3.82558131217956543
21.591400146484375 29.3253993988037109 22.3602848052978516
11.4956274032592773 5.77254295349121094 32.8185081481933594
17.0891132354736328 9.68567657470703125 31.5436134338378906
