ply
format ascii 1.0
element vertex 781
comment vertices
property float x
property float y
property float z
end_header
-27.7469482421875 -16.114471435546875 -3.57437777519226074
-11.1038846969604492 9.44230461120605469 30.0935001373291016
-17.3439884185791016 -26.4306602478027344 13.0912561416625977
30.6931381225585938 2.55628776550292969 16.1089954376220703
-16.7931709289550781 -22.1917667388916016 19.2968807220458984
-30.9544677734375 -6.58736371994018555 -9.39047813415527344
11.4116458892822266 -7.26616859436035156 -33.5175743103027344
-12.7987880706787109 -31.3187179565429688 7.90400075912475586
-0.651846170425415039 -31.2553844451904297 15.5621538162231445
-2.0419919490814209 -29.242279052734375 -6.32314538955688477
2.21741914749145508 15.5347776412963867 -12.8589982986450195
12.6724624633789062 -30.7077045440673828 -8.19187259674072266
-20.8906230926513672 8.66555690765380859 -27.8069686889648438
-27.5542621612548828 16.1874408721923828 8.67402172088623047
18.0537433624267578 -21.8719730377197266 8.49433135986328125
4.9949493408203125 -7.24862766265869141 2.23142695426940918
6.70469141006469727 14.0803623199462891 -33.1931915283203125
8.24640846252441406 -32.2401313781738281 -11.0477142333984375
-19.1689548492431641 25.8828334808349609 -2.04776287078857422
-14.702631950378418 6.09195423126220703 29.0301246643066406
-2.42125654220581055 -32.3816413879394531 7.84721660614013672
-28.3566455841064453 -13.2105703353881836 4.50947952270507812
1.69600939750671387 26.6621055603027344 -18.5083847045898438
8.16298198699951172 -19.1348781585693359 27.6670246124267578
-14.6748895645141602 25.2701816558837891 -17.8782196044921875
-29.2867660522460938 2.1802973747253418 12.4597644805908203
-26.9852294921875 -15.380467414855957 7.45835256576538086
2.10708332061767578 25.1902885437011719 -19.6925220489501953
-10.4551029205322266 26.6198883056640625 -16.4420032501220703
22.810150146484375 -15.4244976043701172 11.6304807662963867
9.13272571563720703 -33.0390892028808594 7.69029760360717773
-9.63172435760498047 -25.4012794494628906 -23.8673934936523438
13.6738176345825195 -21.4178619384765625 -29.2187919616699219
6.306976318359375 12.1510429382324219 -30.0457820892333984
4.26274919509887695 -10.2881135940551758 -36.2187995910644531
-20.0642318725585938 12.7913694381713867 23.8105125427246094
12.6120367050170898 -25.8011665344238281 21.6084442138671875
-23.2730274200439453 15.3452796936035156 -21.8333740234375
-22.7800159454345703 16.2812328338623047 -21.7744846343994141
26.4570655822753906 14.9194736480712891 12.9789266586303711
-31.6265830993652344 5.67752456665039062 -9.42715072631835938
-22.2333812713623047 -9.28276634216308594 21.8982696533203125
5.15197563171386719 -7.10153818130493164 -7.07609415054321289
22.7289390563964844 -20.1244907379150391 11.3386650085449219
5.34097814559936523 -12.6118431091308594 -35.4234275817871094
-26.3188076019287109 8.14591121673583984 17.4590702056884766
-9.05882644653320312 27.8960475921630859 6.76141929626464844
-14.7113275527954102 25.9263534545898438 15.6161842346191406
30.4952201843261719 4.68161439895629883 21.1674327850341797
8.07342910766601562 27.0687599182128906 19.3794021606445312
9.16004085540771484 26.1516799926757812 3.88431930541992188
1.88545513153076172 -32.5094070434570312 9.64315605163574219
-20.7682571411132812 -11.6809329986572266 22.4405727386474609
-6.25592470169067383 18.0750942230224609 -31.2422313690185547
-24.2431640625 20.4024124145507812 10.3424215316772461
29.7465915679931641 10.3439416885375977 20.4891300201416016
11.1442070007324219 19.1871662139892578 27.7909355163574219
-21.7234420776367188 -18.2949390411376953 -20.3275966644287109
3.88713169097900391 3.38674068450927734 33.5797462463378906
17.566619873046875 9.85321521759033203 29.7959537506103516
-24.5840167999267578 -19.6587009429931641 8.52268028259277344
-26.1973495483398438 -6.88334321975708008 16.7978553771972656
-27.881744384765625 18.236175537109375 -1.57049369812011719
-8.45483779907226562 26.6744709014892578 -16.5906867980957031
23.9697227478027344 24.8364505767822266 13.4260749816894531
-14.9595832824707031 20.7098293304443359 22.7142562866210938
3.98998928070068359 6.43920230865478516 -1.82916128635406494
3.33154630661010742 -29.7761669158935547 -5.92947006225585938
0.890452921390533447 26.2200260162353516 -14.4879627227783203
-25.4333972930908203 21.3382472991943359 -3.89827227592468262
-16.7755393981933594 21.3691673278808594 -22.8263092041015625
7.19415664672851562 -5.75680637359619141 -16.0817775726318359
2.8416290283203125 -29.3132953643798828 -1.23851490020751953
-24.3907737731933594 -22.1160411834716797 -2.53590798377990723
1.33398842811584473 -11.7648353576660156 -35.6379203796386719
1.99950170516967773 -31.4030132293701172 -12.3801794052124023
1.12117862701416016 -21.4267063140869141 26.86767578125
-18.096527099609375 18.5723705291748047 22.0051994323730469
8.75993537902832031 -11.5781736373901367 2.72860574722290039
7.78419733047485352 12.4380254745483398 1.22472250461578369
3.71179652214050293 -13.8166570663452148 30.7367668151855469
21.2125797271728516 7.28181886672973633 9.87673282623291016
-5.46768331527709961 -28.4227199554443359 -21.2091426849365234
-7.6225886344909668 1.83281373977661133 -35.4608573913574219
-8.62079715728759766 -22.8587989807128906 -26.5571537017822266
3.24695563316345215 -29.3337478637695312 -6.05225181579589844
15.7565517425537109 -30.4354648590087891 7.97958898544311523
-6.91856241226196289 25.411895751953125 -2.80667829513549805
-17.9852867126464844 -28.5363826751708984 -10.8763256072998047
0.320830672979354858 21.9283027648925781 -6.12200450897216797
17.6655559539794922 24.6200923919677734 19.5058250427246094
20.6017646789550781 26.44854736328125 9.01580142974853516
-17.8381538391113281 -18.5767574310302734 21.2547740936279297
-27.4071235656738281 -7.24396753311157227 -19.7210769653320312
-30.4794998168945312 -7.6870570182800293 -1.09414780139923096
29.7884025573730469 0.0287290774285793304 22.1218605041503906
-20.1501522064208984 -26.8550014495849609 3.99563884735107422
-1.64591729640960693 24.5403118133544922 24.2716560363769531
27.6071796417236328 10.9736318588256836 22.7337207794189453
-1.45161187648773193 -31.9958839416503906 12.2206602096557617
-6.21482515335083008 17.8426532745361328 -31.4106636047363281
6.88121700286865234 -12.701019287109375 -35.2607574462890625
3.11257505416870117 14.5552186965942383 31.5476474761962891
22.0328292846679688 13.9402618408203125 25.8055019378662109
-28.7319908142089844 -3.50838327407836914 -18.4999771118164062
-1.26134192943572998 -4.6298675537109375 32.1499786376953125
-3.23385524749755859 16.2477664947509766 -33.2567596435546875
-3.05248665809631348 26.0453910827636719 -11.1742362976074219
-5.16180610656738281 -28.3373260498046875 19.0961456298828125
-31.8586330413818359 1.98999154567718506 1.45609164237976074
-26.9044971466064453 -13.8238496780395508 10.0067110061645508
-14.1072921752929688 18.5871810913085938 -27.2725200653076172
-22.3655681610107422 -12.9378976821899414 19.8925971984863281
-9.81120395660400391 27.4877166748046875 3.44773030281066895
3.15027952194213867 -30.3834037780761719 -9.78405189514160156
11.761016845703125 -31.9508132934570312 -17.0368194580078125
7.35031747817993164 8.30575656890869141 -30.7913837432861328
25.9674472808837891 6.80486488342285156 13.0064802169799805
4.57523250579833984 20.7044486999511719 -27.5146503448486328
-31.3777503967285156 9.85455131530761719 -1.53948318958282471
-31.2858924865722656 9.40044975280761719 1.01002740859985352
5.75357341766357422 -26.1931915283203125 -1.56681954860687256
-6.77291154861450195 -24.1195297241210938 22.7525749206542969
-10.5606002807617188 2.09527254104614258 -34.3852653503417969
-9.63703823089599609 27.2973384857177734 16.6061744689941406
-26.6308021545410156 -17.4224071502685547 4.00909042358398438
-23.0955581665039062 -16.4898014068603516 16.0576515197753906
-2.94359111785888672 24.2463359832763672 -7.28816080093383789
13.9439973831176758 22.8562946319580078 4.72002983093261719
-20.8974742889404297 20.1400299072265625 -20.2573070526123047
30.4043445587158203 14.8774652481079102 15.4947929382324219
11.3513612747192383 14.2741308212280273 30.385223388671875
30.2092342376708984 6.56129884719848633 21.1097774505615234
23.3875198364257812 -3.09746980667114258 27.2840766906738281
11.3539667129516602 -4.72579431533813477 32.2923431396484375
7.94472551345825195 -29.0644264221191406 2.03732132911682129
10.3205928802490234 -0.630937635898590088 -36.8125
-17.0758743286132812 -18.8992748260498047 21.6781730651855469
10.3376998901367188 -14.5787410736083984 -21.2017345428466797
-23.8429584503173828 20.4765758514404297 11.1988725662231445
-13.0487031936645508 -24.4548397064208984 19.7350425720214844
-28.5930881500244141 11.3664054870605469 -15.6747779846191406
4.64866924285888672 20.9565849304199219 -28.0350303649902344
6.76209926605224609 -15.3656835556030273 -4.53338146209716797
-28.0712852478027344 -14.9709720611572266 -9.97703075408935547
-16.8519992828369141 0.68394547700881958 28.2143421173095703
4.40702342987060547 27.2734699249267578 19.9291000366210938
29.6984405517578125 16.0078754425048828 17.4117717742919922
12.1687717437744141 -28.6082572937011719 5.51398563385009766
-2.7685399055480957 24.0860233306884766 2.26456880569458008
-9.99200820922851562 0.0169822592288255692 30.9182682037353516
-21.3953380584716797 5.4237828254699707 -28.1509609222412109
-17.9866409301757812 -1.16849434375762939 27.3845920562744141
2.6047055721282959 28.5113468170166016 14.8989353179931641
-31.7940635681152344 7.56201839447021484 -4.16929960250854492
0.872430920600891113 -29.4672508239746094 19.3218193054199219
19.4398994445800781 -12.0562534332275391 9.30097389221191406
-22.24462890625 20.4938449859619141 14.6726789474487305
0.280408143997192383 26.4844093322753906 -11.566126823425293
9.37965106964111328 -5.77170324325561523 -25.9543972015380859
-27.4871921539306641 5.47089242935180664 -20.9363670349121094
6.61739301681518555 -3.65409231185913086 -14.9378471374511719
12.0505514144897461 -28.020599365234375 -9.36234283447265625
10.5266780853271484 -15.3828134536743164 -21.420440673828125
-3.64251923561096191 -31.4134902954101562 0.0210404396057128906
-8.99863910675048828 -29.5192909240722656 16.2639312744140625
-8.16982078552246094 -30.9987392425537109 -14.2512683868408203
-20.1386890411376953 7.86606884002685547 -28.6966533660888672
8.90528297424316406 -4.6631627082824707 32.9130172729492188
-25.8446063995361328 13.6995754241943359 15.4211864471435547
26.7771244049072266 -20.7933578491210938 14.0792198181152344
12.8699684143066406 -27.5808792114257812 -17.0605945587158203
11.7276153564453125 -9.86344814300537109 -32.7150001525878906
10.8773155212402344 -19.2583122253417969 26.8493385314941406
-12.8100204467773438 -21.6578369140625 22.278594970703125
-7.15417766571044922 -9.72014713287353516 -34.0903739929199219
17.0902004241943359 -24.1299800872802734 8.19072437286376953
2.13316726684570312 -31.6841640472412109 -14.1773157119750977
-22.6453838348388672 -5.55722332000732422 22.4632186889648438
-17.7441616058349609 9.53899002075195312 26.6395206451416016
12.6609086990356445 -25.1635456085205078 -19.6610565185546875
-6.49166774749755859 26.3166942596435547 -11.1838932037353516
-12.4510936737060547 27.0678024291992188 -1.43339657783508301
9.39176750183105469 -14.0155858993530273 -17.4537487030029297
-11.411168098449707 4.79753780364990234 -33.8322372436523438
29.71856689453125 -10.652216911315918 18.9883060455322266
-10.5577058792114258 25.1964931488037109 -20.7832717895507812
-31.8828811645507812 -0.618220925331115723 -8.64130306243896484
-27.0054683685302734 -17.4548091888427734 -1.54633104801177979
-2.22203373908996582 -30.0085182189941406 -19.5976161956787109
10.0938920974731445 -0.00723862042650580406 33.0695571899414062
20.5671463012695312 24.1605567932128906 8.93834877014160156
6.14226627349853516 20.6478614807128906 -0.155571117997169495
-12.6597423553466797 -20.7530708312988281 22.9728736877441406
-27.9281578063964844 -15.4221839904785156 -9.42367267608642578
-8.38477039337158203 -26.0421352386474609 20.4240131378173828
3.32875728607177734 25.4046859741210938 -27.276763916015625
5.50009870529174805 12.3576860427856445 -25.7414779663085938
0.209506809711456299 -5.8754429817199707 -36.8400192260742188
1.58963596820831299 -17.76373291015625 28.9622211456298828
-31.0522708892822266 -7.26164388656616211 -5.40850734710693359
24.6662464141845703 21.9859256744384766 17.4384918212890625
12.0415525436401367 18.5761756896972656 27.9834556579589844
-31.9350719451904297 -0.770001530647277832 -1.73140048980712891
-24.4376697540283203 -3.87250638008117676 20.5804500579833984
-4.36086225509643555 15.5624303817749023 -33.2868919372558594
18.3880100250244141 12.319061279296875 7.89229488372802734
-28.0763130187988281 -13.6048612594604492 -12.8252058029174805
28.4948749542236328 -4.60392379760742188 22.8037605285644531
-15.9413518905639648 -30.4070663452148438 2.7607576847076416
2.56374311447143555 7.69345808029174805 33.272430419921875
4.55677509307861328 -21.4878444671630859 -3.39327144622802734
25.9148616790771484 -9.13835620880126953 13.3220920562744141
2.67723917961120605 -8.84456062316894531 0.220351129770278931
-16.5917854309082031 -28.5138225555419922 9.27076911926269531
7.8488621711730957 4.47724771499633789 -29.3936767578125
22.1362018585205078 26.5328426361083984 11.485539436340332
4.81815242767333984 -1.32368922233581543 -7.72223329544067383
-14.2237510681152344 26.5417957305908203 -10.1252803802490234
-12.7088422775268555 -10.3982772827148438 28.11285400390625
13.3212289810180664 -8.74878883361816406 5.38374471664428711
11.5956745147705078 -17.2766475677490234 -24.9073696136474609
-21.1297283172607422 -18.7053127288818359 -20.7449836730957031
-7.36973333358764648 26.3346920013427734 19.9731693267822266
1.74444901943206787 18.4717350006103516 -0.801271498203277588
24.0133647918701172 -18.5597362518310547 20.09423828125
18.1575222015380859 27.9783172607421875 10.0666532516479492
9.90205764770507812 -24.1611080169677734 -5.92876148223876953
-14.1746311187744141 27.0612831115722656 -1.76913857460021973
-3.46773242950439453 -29.2581405639648438 18.5771808624267578
-8.75398826599121094 -19.2813472747802734 -28.9701519012451172
11.3417425155639648 -15.8678302764892578 -24.8983440399169922
1.55981767177581787 -17.0751476287841797 -33.4156761169433594
8.41099357604980469 3.03410124778747559 1.79360103607177734
31.5739860534667969 12.922760009765625 16.5610847473144531
-24.1255722045898438 -5.24167203903198242 -25.1269760131835938
14.2710123062133789 5.48186206817626953 31.8551387786865234
-12.0105047225952148 26.5690670013427734 -15.2738380432128906
14.0948200225830078 27.3234786987304688 4.53244686126708984
-22.9068317413330078 -8.67840290069580078 -25.4152965545654297
-17.7304954528808594 -14.186528205871582 -27.3773002624511719
-4.58741950988769531 -32.7754364013671875 8.33064174652099609
1.06343674659729004 19.4229259490966797 -6.32965660095214844
1.06194853782653809 10.0599946975708008 -36.3032569885253906
18.9507179260253906 -16.7885684967041016 24.7889690399169922
-2.83702516555786133 7.36338615417480469 32.8578224182128906
-20.9184074401855469 24.9015178680419922 4.99543523788452148
4.50220108032226562 -30.8095645904541016 -20.4327507019042969
-3.48476219177246094 11.3615760803222656 -35.1390419006347656
-17.8176307678222656 26.6546592712402344 4.65240001678466797
4.6236419677734375 1.79525148868560791 -9.85880184173583984
-10.6672792434692383 -19.4142417907714844 24.7811717987060547
22.0892314910888672 10.6996603012084961 10.3496713638305664
-28.3094215393066406 -11.410675048828125 8.62643051147460938
15.9110164642333984 12.4960765838623047 29.5627689361572266
15.8229751586914062 26.8807926177978516 5.63084220886230469
-30.6638221740722656 11.4492349624633789 2.40408921241760254
11.4578866958618164 -13.795924186706543 -27.1828498840332031
-1.62561440467834473 -30.8205356597900391 -13.4227657318115234
-22.5642757415771484 -24.1223239898681641 4.52056312561035156
-3.26086330413818359 -32.5911788940429688 7.31984472274780273
-14.9508781433105469 -6.87405061721801758 28.2345428466796875
-28.7689476013183594 3.70221185684204102 13.7129573822021484
12.5061798095703125 -26.9127616882324219 -16.2442665100097656
-16.6300067901611328 18.2376251220703125 -25.9421520233154297
5.70481729507446289 -0.91659235954284668 -13.43792724609375
24.5622596740722656 -10.7098493576049805 12.5030412673950195
8.65342903137207031 9.54998970031738281 1.69901847839355469
-0.327447861433029175 26.0389347076416016 5.65750837326049805
-12.9869318008422852 26.9529972076416016 -2.78920602798461914
-29.5290431976318359 15.4437532424926758 -1.43859255313873291
-31.8164443969726562 6.00135421752929688 0.674306571483612061
9.59134674072265625 2.00852584838867188 -35.237335205078125
21.1483573913574219 26.48297119140625 12.7319765090942383
19.2319545745849609 10.8347940444946289 28.7154083251953125
13.621739387512207 -13.3888959884643555 5.67023897171020508
6.3620147705078125 10.0913934707641602 -28.3541984558105469
2.04080033302307129 27.5130062103271484 -20.4301414489746094
-30.0400104522705078 -10.3240280151367188 -8.35897159576416016
7.42127275466918945 -1.57125616073608398 -20.7819576263427734
-10.6768684387207031 26.8122959136962891 -1.7195286750793457
1.64923834800720215 26.2162818908691406 -18.0767459869384766
-14.0053043365478516 5.24951314926147461 29.3827323913574219
18.4000587463378906 -3.59000849723815918 8.5057830810546875
10.0286197662353516 26.7522106170654297 19.2987003326416016
-15.6301498413085938 25.5809288024902344 -15.6336812973022461
13.5989351272583008 -4.30507993698120117 31.7397403717041016
5.35693788528442383 17.8871040344238281 -29.1732444763183594
6.63669633865356445 10.9850292205810547 32.4166450500488281
-24.4540023803710938 0.551170289516448975 21.1930580139160156
-29.0393314361572266 -13.1399030685424805 -7.83592987060546875
-22.2742900848388672 -24.4492931365966797 -10.6690654754638672
2.69280552864074707 8.35883331298828125 33.1756210327148438
-7.70774173736572266 26.4711227416992188 -11.0767793655395508
27.5199050903320312 -17.5605716705322266 17.1033573150634766
26.0325069427490234 -6.06503725051879883 13.3427057266235352
2.58100986480712891 12.1258354187011719 -10.5782613754272461
-2.38988971710205078 8.99596023559570312 -36.0386962890625
-32.0046577453613281 5.99338722229003906 -2.32599067687988281
-4.0725250244140625 -30.7192955017089844 -7.82647371292114258
-19.6947288513183594 -6.01663875579833984 -29.0388622283935547
-17.2982368469238281 26.5450019836425781 8.39569950103759766
3.1658015251159668 24.2516498565673828 -1.51751470565795898
8.00083827972412109 -3.85459518432617188 -21.8450984954833984
-15.2339706420898438 9.32221031188964844 28.2541351318359375
5.73037004470825195 26.1473941802978516 21.9643211364746094
-24.7496795654296875 16.9604911804199219 14.5363140106201172
5.60449838638305664 -19.1805229187011719 -32.6214370727539062
-6.65431118011474609 -22.8937969207763672 -27.2878799438476562
4.84429121017456055 -32.1473007202148438 6.59564828872680664
-20.9221019744873047 -19.1900405883789062 17.5312175750732422
-29.1265945434570312 -12.8402614593505859 -8.31699180603027344
-12.5433578491210938 -31.5600814819335938 6.92721176147460938
1.69292199611663818 -30.8676624298095703 4.3083949089050293
-24.3781185150146484 18.7662944793701172 -16.4896793365478516
6.27310466766357422 27.6794624328613281 18.1829357147216797
23.9212436676025391 4.08655405044555664 11.7121477127075195
3.78840303421020508 19.1591587066650391 -22.8167877197265625
8.39019870758056641 7.20491456985473633 -36.6384849548339844
6.17781400680541992 8.39107608795166016 33.0474815368652344
12.0393486022949219 -17.4008903503417969 -26.2627944946289062
-3.90773916244506836 26.6703147888183594 -21.7457218170166016
-29.9264583587646484 -10.2919330596923828 -1.24505794048309326
-4.94479560852050781 -10.8815069198608398 -34.448150634765625
-3.24505162239074707 -28.5437755584716797 19.4542369842529297
-0.906054496765136719 24.2942008972167969 24.7289619445800781
9.47647476196289062 13.6817111968994141 2.33727765083312988
16.9970340728759766 -1.82751286029815674 30.7928485870361328
7.79239988327026367 -12.4681863784790039 -12.1299915313720703
7.77204036712646484 16.3769874572753906 30.3149909973144531
-0.690256655216217041 11.6011209487915039 32.3609886169433594
-1.40270805358886719 -31.8383064270019531 2.3724672794342041
-31.5422344207763672 -3.74478244781494141 -8.31082534790039062
11.4525270462036133 -31.8054237365722656 5.25689601898193359
25.7283954620361328 16.9712123870849609 12.6196842193603516
18.9260845184326172 -6.81162214279174805 28.8835029602050781
-21.0521888732910156 0.826064646244049072 25.1622772216796875
27.7921714782714844 -16.4125213623046875 17.7077255249023438
3.61840629577636719 7.58782672882080078 -10.4237918853759766
-1.71622860431671143 -31.7107295989990234 1.61911046504974365
-15.0696506500244141 -29.7867488861083984 8.83388233184814453
-22.1455631256103516 4.79208230972290039 23.8516559600830078
16.3191967010498047 -2.6700589656829834 30.9399566650390625
-28.5398502349853516 -6.8531031608581543 -17.3044662475585938
23.3447341918945312 12.9814643859863281 25.4783706665039062
-1.18192934989929199 18.7538738250732422 29.3323345184326172
-21.0700054168701172 -17.3502445220947266 18.7144317626953125
16.3893947601318359 -16.5245132446289062 26.2203903198242188
2.78714919090270996 6.86703634262084961 -4.70175313949584961
-24.6178646087646484 -21.3535957336425781 -9.95929622650146484
1.4429858922958374 27.9460678100585938 -18.0187702178955078
15.0771455764770508 13.3692512512207031 29.5329227447509766
-8.28853225708007812 13.2028350830078125 -32.9465675354003906
-18.9467868804931641 23.0432910919189453 -18.1906223297119141
6.5970001220703125 -26.5002498626708984 -27.0585212707519531
1.29604864120483398 -29.0315341949462891 -23.7653312683105469
14.1850652694702148 -0.15302218496799469 32.0223274230957031
0.542607426643371582 -32.1299171447753906 8.48683357238769531
-12.4927816390991211 26.4229240417480469 -15.6211919784545898
2.53824996948242188 -32.6409683227539062 10.7991046905517578
1.20063328742980957 -30.1307258605957031 18.3979740142822266
-13.9782962799072266 -13.3080854415893555 26.5615291595458984
8.88440132141113281 -3.49477791786193848 -25.5525341033935547
-0.0563414320349693298 -14.0396299362182617 -34.6237068176269531
2.04197835922241211 -30.3643150329589844 -9.37094783782958984
23.6660690307617188 -20.1543693542480469 19.1571941375732422
11.625828742980957 -17.4630107879638672 -25.1282749176025391
19.4690647125244141 25.7390880584716797 16.1580257415771484
-2.48630332946777344 28.1890277862548828 10.1935720443725586
-6.26785087585449219 -28.0493125915527344 -21.6156520843505859
3.4748077392578125 -32.593780517578125 11.6729955673217773
-16.5329990386962891 7.76409626007080078 -31.0249176025390625
18.4965934753417969 -25.4173965454101562 9.05186271667480469
-4.58782958984375 -32.8261528015136719 3.56361675262451172
-31.1509761810302734 -6.48806285858154297 -7.34305381774902344
1.74605882167816162 25.0965156555175781 4.64034175872802734
29.4021434783935547 10.0309581756591797 21.0159568786621094
-14.7434492111206055 -31.3612213134765625 0.414675772190093994
2.12872481346130371 8.26701831817626953 33.2212715148925781
-26.5473575592041016 2.25076627731323242 -22.8134479522705078
-30.4609622955322266 -6.55671787261962891 4.67177772521972656
-9.52070140838623047 -21.8833522796630859 -26.9536800384521484
-7.46973276138305664 3.76321768760681152 -35.3922309875488281
-18.9293537139892578 -19.8211269378662109 -22.3434181213378906
16.8687038421630859 -14.2762775421142578 27.0573234558105469
-31.89739990234375 2.95434927940368652 -9.27177524566650391
3.60918283462524414 28.3559207916259766 11.8847875595092773
-22.0704746246337891 -25.0107975006103516 0.475476503372192383
-25.8735694885253906 19.2906417846679688 7.86429643630981445
-6.97245168685913086 -23.217315673828125 -26.9832401275634766
-6.45668268203735352 -5.15606880187988281 -35.3710098266601562
-10.0707912445068359 -4.01833677291870117 -34.3159370422363281
-3.19128036499023438 21.0142574310302734 -30.2072315216064453
7.73137903213500977 -32.1935768127441406 13.2405376434326172
7.08388519287109375 -18.1798210144042969 -4.49303007125854492
1.63838624954223633 23.2869491577148438 -15.9188137054443359
0.847743809223175049 26.1139545440673828 -14.0138568878173828
11.5608310699462891 25.7331600189208984 20.8070812225341797
30.1657962799072266 0.562333881855010986 21.6938438415527344
14.1271963119506836 -3.30726027488708496 5.81931114196777344
1.55987167358398438 18.3435497283935547 -1.15627622604370117
17.7250823974609375 -20.5490131378173828 23.1872406005859375
-27.7829017639160156 18.2968578338623047 -3.99035024642944336
22.9390697479248047 -4.19083404541015625 11.3777971267700195
5.25496387481689453 -9.95468330383300781 -4.52731466293334961
-20.9887828826904297 -21.113037109375 15.0036954879760742
-17.8392677307128906 -14.1234683990478516 23.8471546173095703
18.3413753509521484 27.8245277404785156 7.41347837448120117
30.4577846527099609 -0.362771600484848022 21.311126708984375
30.9584064483642578 -4.8218536376953125 19.7463493347167969
6.5754389762878418 -30.7128047943115234 -5.4979863166809082
16.1876106262207031 -9.49974918365478516 29.3358020782470703
22.8637866973876953 4.58679342269897461 10.9984817504882812
-8.92781639099121094 12.9725980758666992 -32.7901191711425781
-22.5023765563964844 19.2187213897705078 -19.1366996765136719
-13.8510618209838867 22.9910717010498047 -22.8335170745849609
3.36925292015075684 21.1868171691894531 -22.5413627624511719
-11.6807832717895508 22.0114364624023438 -25.2513923645019531
6.10660743713378906 -22.2400169372558594 0.83695065975189209
-25.1626071929931641 -20.8209285736083984 -1.50635242462158203
11.0375566482543945 -25.3548011779785156 -8.75675392150878906
-25.9576187133789062 12.6647710800170898 15.9299221038818359
-7.15690374374389648 -17.3305301666259766 27.2446498870849609
14.386805534362793 26.0337123870849609 18.9388694763183594
-13.3304710388183594 -21.4211845397949219 -25.5578861236572266
4.00429105758666992 11.5283803939819336 -36.0517044067382812
-18.4341793060302734 -26.2835617065429688 11.2753267288208008
8.66058254241943359 -0.177994459867477417 -28.3509922027587891
3.41974091529846191 17.0391044616699219 -33.8363456726074219
-14.4606418609619141 -21.1277275085449219 -25.1319484710693359
-22.8885631561279297 21.0226459503173828 12.3403701782226562
6.17502307891845703 -25.3357563018798828 -3.84052371978759766
-31.6427383422851562 -0.193119317293167114 2.3729407787322998
4.67305421829223633 4.60980558395385742 -13.6999654769897461
26.0886554718017578 -19.1527919769287109 17.3097782135009766
13.0060663223266602 -23.5767307281494141 -28.1579132080078125
5.2142796516418457 -27.0803318023681641 -26.6151752471923828
6.08174276351928711 -4.81878423690795898 -11.0692195892333984
-30.6824073791503906 -0.247410669922828674 7.95181131362915039
-6.24409770965576172 -30.5160083770751953 -16.0639991760253906
-5.98692750930786133 -31.3661308288574219 -13.1830873489379883
2.64692997932434082 23.1138324737548828 2.8545992374420166
4.29217100143432617 -9.72701358795166016 -36.3588409423828125
9.05909252166748047 -32.9632759094238281 8.79666233062744141
22.883575439453125 -24.3161525726318359 15.6393814086914062
0.13419005274772644 24.1869010925292969 -8.31068325042724609
-22.1468887329101562 4.79251813888549805 23.850128173828125
12.8886051177978516 -33.01776123046875 6.34383392333984375
5.42738056182861328 -17.2633228302001953 -33.5502357482910156
19.0179672241210938 -29.1198081970214844 13.1581239700317383
30.5496082305908203 12.9015312194824219 18.2835178375244141
5.14769124984741211 14.0337200164794922 -25.2577743530273438
19.9615726470947266 13.5855207443237305 27.1441001892089844
6.64549493789672852 -31.1219253540039062 -19.0592632293701172
-11.8371896743774414 14.8104286193847656 28.1474132537841797
30.7178306579589844 0.119128763675689697 21.0035343170166016
10.4477205276489258 27.5150794982910156 7.58594942092895508
11.6464815139770508 -31.4929771423339844 -6.23873996734619141
-8.66407871246337891 26.6501235961914062 -16.6890182495117188
10.4726543426513672 -26.5251655578613281 -26.2236232757568359
27.6794281005859375 1.9957573413848877 14.1305694580078125
2.85733842849731445 -21.4792327880859375 -31.1398410797119141
10.6011257171630859 -22.7089729309082031 -29.5129604339599609
-5.67414712905883789 25.5578498840332031 -22.9063243865966797
5.47868871688842773 1.73710370063781738 -14.7912712097167969
-4.90243959426879883 -14.0344057083129883 29.0962409973144531
4.33554267883300781 3.28734111785888672 -9.80156421661376953
-22.1947860717773438 -19.5501422882080078 -18.3025741577148438
-30.93701171875 -7.31731462478637695 -7.33911037445068359
3.85883307456970215 -29.2033252716064453 -0.97499769926071167
-16.1266098022460938 26.4127559661865234 -7.61364412307739258
5.56237316131591797 -6.74818992614746094 -36.9330482482910156
8.33460712432861328 -12.4406147003173828 2.35985922813415527
23.0208206176757812 -23.5152053833007812 16.3848972320556641
-9.97433090209960938 -24.3868904113769531 -24.6541290283203125
7.51403570175170898 8.67075443267822266 -32.0167694091796875
1.3150634765625 24.3894100189208984 -15.4264335632324219
11.7189130783081055 -8.06522274017333984 -34.3852767944335938
6.77265596389770508 -3.10022497177124023 -16.9891490936279297
-2.6919243335723877 -4.52384853363037109 -36.4950485229492188
-27.4853954315185547 1.49049949645996094 -21.4250068664550781
26.5707283020019531 4.42692041397094727 25.2888221740722656
12.7744274139404297 -2.46411442756652832 4.96012735366821289
-25.6487979888916016 -15.4794883728027344 11.4919424057006836
-11.3526391983032227 -23.5058040618896484 21.5879154205322266
-24.0556411743164062 -21.4046554565429688 -12.6445121765136719
-17.6797637939453125 8.30563163757324219 26.9455184936523438
22.0867271423339844 -1.04042768478393555 10.8015928268432617
-9.52985858917236328 8.81040477752685547 30.6529006958007812
30.6986732482910156 10.0794811248779297 19.4775600433349609
9.711273193359375 -21.4200839996337891 25.9327030181884766
9.71870231628417969 -30.4185409545898438 -20.9567699432373047
-4.94434118270874023 25.7083873748779297 -9.86869049072265625
2.78206419944763184 -32.2166252136230469 13.9165325164794922
2.45798182487487793 21.4804706573486328 -18.1846294403076172
6.10131931304931641 12.6607961654663086 -29.0287361145019531
-17.1762447357177734 -27.3160972595214844 11.4433107376098633
27.3679485321044922 19.9728183746337891 16.6056404113769531
-27.4199314117431641 0.649679064750671387 -21.5232353210449219
4.38097047805786133 -0.134232252836227417 -6.98279428482055664
10.2297821044921875 -13.3247280120849609 -22.1145591735839844
-2.35518217086791992 5.67334604263305664 33.0831947326660156
5.17510175704956055 13.7735109329223633 31.7398891448974609
-27.3636474609375 -0.430635422468185425 16.2958717346191406
-7.44600057601928711 -9.17641925811767578 29.6269187927246094
25.7663021087646484 -11.8531579971313477 13.3416223526000977
-7.52796077728271484 16.8893070220947266 28.82989501953125
-31.9781475067138672 6.57306814193725586 -3.69675660133361816
-12.6296825408935547 -2.98167800903320312 29.7126960754394531
-30.3414974212646484 -2.15840911865234375 8.66071605682373047
27.3811969757080078 6.65352630615234375 24.1595306396484375
-29.5607089996337891 14.3712635040283203 3.17459321022033691
-7.94103622436523438 26.29071044921875 -9.92113494873046875
4.57046604156494141 14.9040317535400391 -22.8216934204101562
6.61928701400756836 -0.0858502388000488281 0.106925427913665771
-19.7673091888427734 -1.89704155921936035 -29.6397171020507812
-21.5344619750976562 -24.3869609832763672 7.55445337295532227
-10.7269582748413086 -18.3865451812744141 25.3955307006835938
-22.1434516906738281 -24.8549575805664062 -4.74811458587646484
-10.9119853973388672 0.523398160934448242 30.717041015625
1.7783362865447998 -30.1579360961914062 18.5464267730712891
-6.67215394973754883 -30.4021644592285156 15.6656599044799805
-5.5499415397644043 -15.4658050537109375 -32.4104461669921875
-12.9319581985473633 26.7964382171630859 15.1560554504394531
-30.0278854370117188 11.7234258651733398 -10.426356315612793
-10.6210784912109375 -10.8988828659057617 28.4172077178955078
-17.08258056640625 14.130950927734375 25.4932441711425781
-8.39520645141601562 -1.10560119152069092 30.9903354644775391
-1.91996800899505615 27.491455078125 -14.5756320953369141
2.53557276725769043 -4.73769044876098633 -0.168535426259040833
-19.0318012237548828 23.7898063659667969 14.3721694946289062
1.96365499496459961 27.6095809936523438 -23.5665683746337891
-22.3832588195800781 -9.87902164459228516 -25.3860282897949219
-12.0705442428588867 17.2745761871337891 26.8673095703125
-29.5616321563720703 6.04211997985839844 11.2203817367553711
-4.34655237197875977 11.7229213714599609 31.7726421356201172
-9.72082424163818359 12.0199403762817383 29.9596920013427734
11.9494743347167969 17.1222057342529297 28.8562831878662109
-4.68662357330322266 12.4295797348022461 -34.4371109008789062
13.1924848556518555 12.1188583374023438 4.73511314392089844
-12.8335447311401367 20.0783348083496094 24.5938510894775391
-18.2268543243408203 15.5095739364624023 -26.7320690155029297
-19.1989803314208984 20.1167259216308594 19.5988960266113281
-25.4723091125488281 -19.4926490783691406 4.97529935836791992
-16.1848354339599609 23.0359172821044922 19.2193984985351562
11.6518478393554688 -31.5159931182861328 13.8377389907836914
0.331200778484344482 25.5514698028564453 23.3963413238525391
-30.0222072601318359 -3.15320563316345215 9.24662494659423828
5.83844375610351562 -0.405529528856277466 -14.6891613006591797
-16.1287727355957031 16.3938827514648438 25.0336265563964844
-8.37626457214355469 -9.90406608581542969 29.1526355743408203
26.5891780853271484 -18.9870872497558594 16.8655300140380859
28.656829833984375 6.69186973571777344 22.8831119537353516
16.8798713684082031 -9.05101585388183594 29.1041183471679688
-24.3355922698974609 22.4011631011962891 2.30714845657348633
0.501742243766784668 -30.0475082397460938 1.95139849185943604
-24.4373931884765625 -8.04745006561279297 -23.6553897857666016
-24.7338504791259766 -20.9739723205566406 4.15557193756103516
-22.3471260070800781 -5.01393032073974609 22.9465446472167969
-21.7386493682861328 -17.113800048828125 17.9032249450683594
-25.7441730499267578 15.9153280258178711 13.6213293075561523
20.3865833282470703 13.3377294540405273 9.14224052429199219
-5.77060937881469727 18.6347904205322266 -31.0761928558349609
-5.64898157119750977 -31.3815460205078125 13.829559326171875
17.5989303588867188 -29.6955738067626953 13.6932373046875
-30.7134170532226562 11.2486200332641602 -6.96779298782348633
8.97862339019775391 -0.665437459945678711 -29.3874282836914062
-13.8821477890014648 16.14794921875 -29.0717735290527344
-14.4906110763549805 5.80318117141723633 -32.3899383544921875
4.60225915908813477 21.0270767211914062 -27.7696952819824219
13.7388839721679688 -4.22754383087158203 31.7060794830322266
-0.375626266002655029 17.2730998992919922 -33.3814964294433594
-10.0756587982177734 -15.6143217086791992 -30.6383457183837891
1.63932168483734131 6.80652284622192383 33.3585357666015625
-29.4297351837158203 -9.03959751129150391 -13.8889293670654297
12.2583713531494141 1.14546024799346924 32.6728172302246094
11.4223089218139648 -13.2346868515014648 -27.4881820678710938
-18.6143856048583984 2.74274516105651855 -30.5294933319091797
-30.4436187744140625 -7.27656936645507812 1.21819162368774414
9.99942493438720703 -31.6063480377197266 -18.1299800872802734
3.05874824523925781 23.2252902984619141 -22.4957542419433594
6.84464597702026367 3.37800765037536621 33.43548583984375
5.67425727844238281 -31.8609752655029297 4.82249259948730469
-13.1267719268798828 -4.05710411071777344 29.3890495300292969
9.25019454956054688 -5.36240720748901367 2.64304089546203613
-16.5577106475830078 -30.2755603790283203 0.373515695333480835
-26.2265663146972656 19.5013160705566406 5.95803260803222656
-24.8993072509765625 4.59664678573608398 20.4119243621826172
-24.9819908142089844 -15.537571907043457 -17.806182861328125
14.9807100296020508 16.8671188354492188 5.66733789443969727
-13.5401697158813477 22.3675079345703125 -23.8325920104980469
-29.0457592010498047 16.1916313171386719 -0.416674137115478516
8.98557472229003906 7.96172523498535156 1.91876411437988281
-27.4732341766357422 -12.9253950119018555 -15.4563064575195312
1.26822984218597412 -29.6777381896972656 -1.77707076072692871
-4.89214897155761719 26.5656967163085938 -20.8034496307373047
10.7106962203979492 25.8813190460205078 2.47345423698425293
-17.76434326171875 15.9049663543701172 -26.8405342102050781
-5.83921384811401367 -14.4223966598510742 -32.7890129089355469
-31.6793460845947266 -2.37409830093383789 -0.354968547821044922
17.2188301086425781 -28.3672027587890625 8.61691474914550781
9.15128231048583984 -11.8756513595581055 -19.1496009826660156
-26.59619140625 -4.48118495941162109 16.7320957183837891
9.68037605285644531 -1.86525917053222656 -31.4288806915283203
9.60315799713134766 -31.6939449310302734 -17.8078517913818359
9.94158458709716797 -21.1418857574462891 26.0717658996582031
-13.7562351226806641 23.4201774597167969 -22.2374801635742188
-30.1521778106689453 -2.82921028137207031 8.82786750793457031
10.5290946960449219 -31.2801914215087891 4.61367654800415039
-10.8657732009887695 -27.5169582366943359 -20.6575298309326172
-12.5999689102172852 27.0843677520751953 -1.38703513145446777
-6.16383600234985352 -11.9128532409667969 29.321563720703125
-7.74267005920410156 25.6753997802734375 -4.93841123580932617
-16.0344638824462891 -2.39572548866271973 -31.8733921051025391
20.8836269378662109 -7.54445743560791016 10.1096868515014648
3.43257904052734375 -30.9510078430175781 -11.3635425567626953
29.4256458282470703 8.13701057434082031 21.7763271331787109
23.8139896392822266 12.630894660949707 25.2757015228271484
0.617109596729278564 -28.7675991058349609 -23.7832412719726562
22.8887748718261719 -23.3034687042236328 11.4976310729980469
0.0284855403006076813 9.45143795013427734 32.8306884765625
10.2693424224853516 -7.96150922775268555 -27.4256935119628906
-16.0301895141601562 27.074920654296875 1.57473611831665039
1.18353033065795898 -0.587606072425842285 -37.6135368347167969
-8.15347862243652344 -32.6940193176269531 3.13417959213256836
-12.3923664093017578 0.637390375137329102 -33.6692886352539062
-4.58617258071899414 -32.3973770141601562 1.56205439567565918
-27.1942539215087891 15.2816362380981445 -14.9945955276489258
10.8820095062255859 -22.6009922027587891 -29.5022087097167969
-3.09563708305358887 22.0092639923095703 26.5877208709716797
1.49179732799530029 3.15378379821777344 -37.5044212341308594
-27.2079257965087891 -7.39236259460449219 -19.9423961639404297
-5.31396675109863281 -26.895294189453125 -23.6773777008056641
-1.77834725379943848 4.12482213973999023 33.1988143920898438
-16.359710693359375 16.5050697326660156 -27.4929695129394531
-19.5732975006103516 -17.8792972564697266 -23.4683189392089844
-23.7718334197998047 0.0593491941690444946 -26.3582363128662109
-19.8717670440673828 24.8722438812255859 -10.0596113204956055
-6.15113258361816406 -31.0425758361816406 14.6792783737182617
1.8307347297668457 13.9358081817626953 -5.05616903305053711
14.9710512161254883 -19.5181636810302734 6.73191595077514648
14.0642929077148438 -12.4788913726806641 29.0704936981201172
2.78210854530334473 26.8149547576904297 -23.6223278045654297
31.0947456359863281 11.1126432418823242 18.4836406707763672
-11.6070985794067383 25.1743507385253906 -20.3819313049316406
-25.8927822113037109 -17.1287612915039062 -14.0917463302612305
-11.1928768157958984 22.4981575012207031 -24.8624668121337891
-30.2044601440429688 12.8316831588745117 -6.72638416290283203
5.23487663269042969 13.6560859680175781 31.7696056365966797
-16.4792118072509766 21.2026100158691406 21.0705833435058594
-15.2929162979125977 18.0824203491210938 -27.0224075317382812
-1.78310775756835938 -21.8871040344238281 25.9460811614990234
8.93194770812988281 -19.6839370727539062 -6.68255376815795898
0.900907635688781738 24.5507984161376953 -12.4965801239013672
-20.7180366516113281 -4.81321287155151367 -28.5443382263183594
27.3960227966308594 -11.7779426574707031 21.1990928649902344
-26.6922359466552734 18.2074527740478516 7.55023670196533203
24.7335681915283203 -11.4659080505371094 12.7073040008544922
6.46164035797119141 -6.37179136276245117 1.66900134086608887
-23.5281944274902344 -19.0232639312744141 12.5755910873413086
-25.3279380798339844 20.9429035186767578 5.0590510368347168
16.9699916839599609 -26.1699066162109375 18.8319816589355469
0.97442704439163208 17.9308586120605469 -1.41079306602478027
-1.60218679904937744 22.5651683807373047 -5.66654300689697266
-11.5330963134765625 -32.3344879150390625 -0.490225315093994141
18.5307044982910156 -21.3624114990234375 22.0549793243408203
3.70863246917724609 22.1683807373046875 26.9216270446777344
-26.0227565765380859 -10.7973947525024414 -19.9538021087646484
-13.3187770843505859 27.4373149871826172 12.1074666976928711
17.0365657806396484 22.8915462493896484 22.2760448455810547
-26.4334220886230469 20.0434494018554688 2.01622700691223145
2.62582087516784668 5.76513814926147461 -37.371734619140625
12.0644617080688477 26.0895633697509766 19.8086071014404297
-1.93025410175323486 -0.841933310031890869 32.5561943054199219
-29.2055072784423828 -5.35756063461303711 -16.6569328308105469
8.32059574127197266 -2.26568055152893066 -24.3546714782714844
-5.53434228897094727 -20.2748012542724609 26.1101894378662109
9.31162166595458984 -6.24714803695678711 -25.5890884399414062
3.86089181900024414 -22.0290184020996094 -1.03427565097808838
13.0256795883178711 4.91594505310058594 4.64485788345336914
8.62140846252441406 -28.9017982482910156 19.6909370422363281
23.3688144683837891 25.6064929962158203 12.3401765823364258
15.3803367614746094 -30.9359188079833984 13.2406444549560547
-11.7691497802734375 -25.0624008178710938 19.9141368865966797
1.69709432125091553 18.6001148223876953 -1.68921208381652832
30.8178901672363281 -10.2897777557373047 17.6258373260498047
14.7164363861083984 -15.2462158203125 27.5950679779052734
-30.3572406768798828 8.19211292266845703 -13.424687385559082
6.07695341110229492 4.65150737762451172 -20.4829006195068359
-2.0056297779083252 1.79651510715484619 -37.0190620422363281
-17.5380878448486328 -17.7728652954101562 22.0315837860107422
24.5352382659912109 -19.3482322692871094 18.8972434997558594
14.3219060897827148 -7.932037353515625 6.0336451530456543
-28.4286746978759766 0.594266831874847412 -19.7430133819580078
7.52616214752197266 -8.68726921081542969 32.0987510681152344
-16.3094978332519531 -17.7220935821533203 22.8826713562011719
-28.8982105255126953 4.47966337203979492 13.2623329162597656
-7.96339082717895508 17.639984130859375 28.2387046813964844
1.52560245990753174 16.6008243560791016 -6.51778697967529297
-25.5615234375 -17.8874435424804688 8.22570705413818359
6.94296979904174805 -16.6801776885986328 -33.679840087890625
7.21490192413330078 -16.1468467712402344 -5.49982738494873047
8.86465263366699219 -23.2976913452148438 -5.41299581527709961
-12.0038013458251953 27.5772037506103516 2.18283915519714355
-20.726959228515625 14.7839393615722656 -25.1153793334960938
-1.96003830432891846 -2.40242409706115723 32.3031806945800781
-24.2116355895996094 12.0799856185913086 -22.8848628997802734
-22.4685039520263672 -23.2275314331054688 7.61564111709594727
-21.8373165130615234 22.2506103515625 -15.0135078430175781
11.2687997817993164 -15.4600725173950195 28.7762222290039062
-10.5653619766235352 -32.1570587158203125 8.61417579650878906
9.40474414825439453 -11.2445793151855469 31.0301990509033203
11.2864608764648438 28.1418933868408203 11.4321165084838867
25.5021419525146484 -18.9576587677001953 13.2804784774780273
-29.7509555816650391 -11.2085485458374023 -2.67583084106445312
6.62176227569580078 10.7845373153686523 -36.0177192687988281
-5.49187040328979492 -15.3911905288696289 -32.4807968139648438
14.8610038757324219 -21.01202392578125 6.82394123077392578
10.3125085830688477 -19.264312744140625 -15.4690475463867188
30.7657070159912109 2.49308991432189941 16.1619491577148438
5.54869318008422852 -31.7982273101806641 15.1890296936035156
4.21051216125488281 15.5140552520751953 31.1413707733154297
-3.88301563262939453 -12.3667163848876953 29.9742355346679688
0.107081323862075806 27.3859062194824219 19.6943492889404297
13.140625 -18.1729640960693359 -31.5571479797363281
-28.7720413208007812 -13.7100381851196289 -5.36333990097045898
5.55831623077392578 11.6193952560424805 -25.1883392333984375
4.35464143753051758 -21.8605728149414062 -3.26872873306274414
-10.9070377349853516 -27.4100379943847656 18.1216564178466797
26.2776432037353516 17.6019744873046875 12.9084358215332031
31.2627639770507812 13.4659585952758789 16.9338264465332031
1.40218627452850342 8.55751228332519531 -36.698150634765625
-24.5251331329345703 -21.3142566680908203 2.99763011932373047
-10.1963310241699219 -6.05657720565795898 29.684234619140625
-12.4010372161865234 -30.4271469116210938 -12.7704811096191406
13.2490434646606445 -13.9147834777832031 28.7779521942138672
1.40145218372344971 -25.9154224395751953 23.3194160461425781
26.7344207763671875 -17.7160816192626953 14.0538787841796875
18.6153182983398438 11.9124879837036133 28.6535663604736328
0.117548249661922455 24.8709354400634766 -27.4685039520263672
1.22854375839233398 17.0730781555175781 -3.87583184242248535
3.17422914505004883 12.6094961166381836 32.2034072875976562
31.9954738616943359 -0.183583423495292664 19.1973915100097656
2.61375188827514648 -28.8491783142089844 0.645859003067016602
-6.2223515510559082 20.9156475067138672 26.6635093688964844
6.93149328231811523 -10.2364082336425781 -10.9224739074707031
17.7723140716552734 -6.65465784072875977 8.20612430572509766
-7.49660062789916992 -12.2481164932250977 -33.0774154663085938
18.7302780151367188 -1.58169734477996826 30.0508213043212891
-7.29690217971801758 -29.5777816772460938 16.9143085479736328
27.0649662017822266 -10.2478179931640625 14.0991277694702148
-17.2771759033203125 2.69984149932861328 27.9175605773925781
19.5405063629150391 12.265782356262207 28.0428752899169922
-30.9479637145996094 3.2324678897857666 7.18869543075561523
14.2925167083740234 -24.8404827117919922 -26.2035160064697266
17.3424625396728516 22.8869838714599609 6.83798027038574219
-24.1528911590576172 -6.55664825439453125 -24.7377700805664062
-19.3302192687988281 -27.6001262664794922 -10.4161787033081055
-28.7567672729492188 11.3453235626220703 10.7150774002075195
5.62105131149291992 17.2634830474853516 -30.0104522705078125
-25.7322025299072266 10.6591053009033203 17.4379520416259766
-20.1527557373046875 25.2585315704345703 -5.61749649047851562
6.38332414627075195 11.6508035659790039 0.0991213619709014893
9.49239635467529297 -17.0862350463867188 -15.0405092239379883
-5.39307928085327148 26.9887485504150391 5.53066635131835938
6.28117752075195312 -23.7770175933837891 0.912726461887359619
-18.3759365081787109 13.7143526077270508 24.7365989685058594
-30.0202445983886719 8.73407745361328125 8.91571044921875
13.5390596389770508 16.4669666290283203 4.8238682746887207
3.28542017936706543 24.1350841522216797 -28.7474040985107422
-2.50329279899597168 16.2217292785644531 -33.4248008728027344
-18.7670612335205078 12.7163419723510742 -27.9362297058105469
-27.1980323791503906 -5.27567434310913086 15.2731008529663086
2.56406259536743164 -3.67473769187927246 0.841862618923187256
23.4465827941894531 -10.2909517288208008 25.2814903259277344
-4.65608119964599609 -32.8858261108398438 4.06142854690551758
7.04806423187255859 -4.39760875701904297 -16.2543601989746094
14.9704008102416992 14.3609352111816406 29.2080345153808594
15.193634033203125 4.62030792236328125 31.5969047546386719
-0.843807876110076904 6.30180692672729492 -36.8469314575195312
-23.1681308746337891 -19.4325809478759766 12.7511234283447266
