ply
format ascii 1.0
element vertex 783
comment vertices
property float x
property float y
property float z
end_header
7.10532999038696289 -75.9058685302734375 5.79555368423461914
-15.262115478515625 -52.5664558410644531 27.6156787872314453
-11.4064321517944336 -9.83705615997314453 -31.0390281677246094
-19.7658824920654297 -41.7585830688476562 25.7451953887939453
16.3964290618896484 -46.3345565795898438 29.1142196655273438
-4.37147426605224609 27.5451259613037109 38.4546432495117188
9.60659503936767578 65.3877639770507812 1.6435624361038208
-18.9621047973632812 -10.8540611267089844 -19.3538227081298828
8.94205760955810547 40.1969184875488281 12.6768712997436523
17.3426361083984375 -20.1146450042724609 29.1530685424804688
-17.4517269134521484 10.9016151428222656 29.0041923522949219
-18.834259033203125 -7.81337785720825195 -22.5880622863769531
-21.4999885559082031 62.3381919860839844 9.05417251586914062
-16.7984218597412109 -67.2039413452148438 -10.1570329666137695
15.2893505096435547 -24.1113796234130859 11.7343635559082031
7.51900720596313477 -66.3750762939453125 -21.6259880065917969
3.05440139770507812 53.0991439819335938 29.258575439453125
14.5697412490844727 19.1669654846191406 -28.1992702484130859
-17.6110210418701172 26.5270919799804688 27.0063838958740234
10.4501800537109375 20.8825874328613281 10.5174798965454102
0.764358639717102051 63.9199447631835938 24.7620487213134766
2.12576913833618164 -48.0198478698730469 -31.8325271606445312
-1.46978890895843506 -33.5649948120117188 -33.6758270263671875
3.49450159072875977 43.8343391418457031 -33.4525718688964844
-20.2886924743652344 -8.87203025817871094 -0.491679847240447998
-0.108076669275760651 -71.0018157958984375 -12.5473127365112305
12.5106973648071289 39.1282844543457031 -3.43357992172241211
-1.56295371055603027 -53.3219947814941406 -28.1226978302001953
-3.79157638549804688 -72.8125762939453125 -3.13356733322143555
-6.99380922317504883 -55.3838577270507812 -25.3567886352539062
17.3516769409179688 -5.61202764511108398 -8.64493560791015625
9.18086051940917969 32.5653152465820312 32.2275238037109375
-20.5562667846679688 38.8289718627929688 -25.9291114807128906
-21.8329887390136719 55.1510353088378906 -9.04040718078613281
18.6973419189453125 22.8576736450195312 -18.3792476654052734
-13.7785167694091797 -54.2811393737792969 -22.8821239471435547
9.25615119934082031 2.20188570022583008 -31.8147544860839844
-21.5351238250732422 39.6107940673828125 -4.99405002593994141
-11.5978240966796875 -13.3062524795532227 38.2036323547363281
-21.3695545196533203 34.5467491149902344 -2.18465137481689453
13.2894754409790039 21.4397754669189453 1.96589064598083496
-0.291904300451278687 48.1462898254394531 -31.1094074249267578
5.06837224960327148 -73.5264434814453125 -3.17218732833862305
-19.6915607452392578 -46.315460205078125 24.7118587493896484
8.59967994689941406 28.2398662567138672 10.1722402572631836
-15.5877437591552734 -4.75325775146484375 33.1752891540527344
10.039581298828125 17.2112445831298828 12.9859132766723633
12.192997932434082 37.8274917602539062 -28.0953197479248047
-18.1375656127929688 64.3734130859375 -22.4372577667236328
5.18385124206542969 53.5899276733398438 -5.58113861083984375
6.93682432174682617 29.2961635589599609 -30.8709506988525391
15.9369707107543945 33.5342597961425781 -11.0106000900268555
-19.4279956817626953 -37.9935798645019531 8.46133232116699219
-7.25376319885253906 -30.2617568969726562 -31.2696437835693359
1.00087869167327881 73.9937210083007812 2.56924533843994141
-16.4895839691162109 -52.5996665954589844 -22.20989990234375
16.28887939453125 27.5399799346923828 -19.6393337249755859
12.6643075942993164 34.318206787109375 -3.23412656784057617
-11.0531520843505859 61.3386268615722656 20.4485378265380859
5.08214712142944336 -68.60858154296875 24.0324687957763672
10.0091953277587891 -26.5399494171142578 7.92547321319580078
-20.8930473327636719 21.3862800598144531 0.624002754688262939
-11.0872383117675781 -4.82813692092895508 -31.8226833343505859
6.71898555755615234 -9.03323268890380859 40.6166305541992188
4.57248687744140625 69.4733963012695312 -3.3681035041809082
-21.2385921478271484 62.7098197937011719 -15.6800765991210938
-5.5683741569519043 63.1698684692382812 23.93341064453125
5.07445621490478516 -53.2564010620117188 34.1570167541503906
-18.6834182739257812 39.1617851257324219 23.9175395965576172
2.13983345031738281 2.11640381813049316 -36.8293914794921875
-21.3493194580078125 9.88147830963134766 16.6348304748535156
4.44382143020629883 -9.93616199493408203 43.1293144226074219
-20.4178485870361328 13.2789754867553711 -20.0844192504882812
-20.6812248229980469 -15.8854579925537109 15.7841148376464844
2.03391790390014648 41.1912422180175781 -32.6424522399902344
-0.466851711273193359 -43.3389854431152344 36.8005485534667969
11.5412397384643555 -35.0315437316894531 7.36503982543945312
13.1174287796020508 16.3106689453125 16.8868312835693359
-17.5848541259765625 69.6995773315429688 -12.2187061309814453
4.77638101577758789 63.9414215087890625 20.9288349151611328
12.165313720703125 -34.0443305969238281 36.5117568969726562
-1.70338571071624756 -52.5143013000488281 32.985107421875
3.6824336051940918 72.1524734497070312 -3.3981630802154541
17.3137626647949219 20.1270217895507812 -9.33840274810791016
-20.0188331604003906 -42.0598945617675781 19.3437595367431641
4.91525030136108398 24.4882926940917969 -33.3427696228027344
-21.6747360229492188 47.3759384155273438 -8.99163722991943359
-20.8784942626953125 -7.15828180313110352 3.90535640716552734
12.6420049667358398 7.75321245193481445 15.7898941040039062
-7.87394046783447266 45.3694839477539062 32.9360809326171875
15.7295970916748047 -9.48054218292236328 -28.6189613342285156
15.0323104858398438 4.57491159439086914 -26.6162223815917969
15.1866960525512695 -56.9232902526855469 28.1597194671630859
-11.6187200546264648 45.2215080261230469 28.8316669464111328
16.1997337341308594 1.66364800930023193 -7.44222736358642578
-3.10662102699279785 -65.9653091430664062 -17.2256298065185547
-14.1177530288696289 -20.8620967864990234 34.5113105773925781
14.0151128768920898 -47.1313896179199219 -25.4867115020751953
-6.87288856506347656 62.729339599609375 23.39923095703125
17.8821048736572266 -23.3634147644042969 25.6369895935058594
-17.3987541198730469 -35.2383575439453125 29.5449066162109375
15.3987941741943359 -7.32331085205078125 -28.7011260986328125
-10.4349794387817383 62.4007530212402344 -26.6732940673828125
11.9458398818969727 -33.490875244140625 -3.14596152305603027
10.7072076797485352 -51.0599174499511719 -5.65260839462280273
-6.32345390319824219 60.4189109802246094 -29.1648082733154297
-11.0208454132080078 5.04375839233398438 39.4569091796875
15.0477924346923828 -47.9058036804199219 -17.9661140441894531
-18.0721797943115234 37.7838058471679688 -30.6100101470947266
-16.1592655181884766 25.7209968566894531 29.1297969818115234
13.9219579696655273 9.55202293395996094 18.1937847137451172
-18.5891246795654297 -36.8223228454589844 -8.06052303314208984
-11.547083854675293 -67.6360855102539062 -12.817378044128418
5.48711109161376953 47.5858955383300781 -32.1204948425292969
-22.0986537933349609 57.036590576171875 8.60791301727294922
13.9971218109130859 -45.3372116088867188 -26.451171875
-15.7794008255004883 53.6522865295410156 21.5750331878662109
-21.3709583282470703 -3.8994286060333252 13.1963577270507812
15.4491996765136719 -27.3553524017333984 -12.520838737487793
8.19175529479980469 -73.1636810302734375 -10.7125215530395508
-4.65393209457397461 -54.6959609985351562 30.9455013275146484
-6.64544677734375 64.0938034057617188 -24.9928855895996094
5.96783256530761719 28.8739013671875 36.0732917785644531
-20.5528392791748047 -17.9162368774414062 18.9368476867675781
8.20149707794189453 -71.4137496948242188 -9.81732940673828125
-7.20334482192993164 -72.9294204711914062 12.1676597595214844
-19.4271926879882812 -3.39296317100524902 26.3470726013183594
14.8063011169433594 -41.089263916015625 32.482513427734375
-1.10483968257904053 46.4070396423339844 33.0601310729980469
-22.0671749114990234 45.9588165283203125 13.3811511993408203
-2.21010804176330566 67.6409835815429688 -24.3530445098876953
-19.4683341979980469 -4.51476764678955078 -20.4711093902587891
5.83264827728271484 -71.6685714721679688 12.7373161315917969
-13.7488336563110352 2.19761443138122559 -30.5503139495849609
-9.32728958129882812 18.5342140197753906 38.8456039428710938
-9.2876434326171875 59.6564788818359375 -29.4557266235351562
-21.7220554351806641 26.2824726104736328 7.22388887405395508
-7.50350666046142578 -69.5445709228515625 -12.1125335693359375
11.6909971237182617 22.4390773773193359 -28.8331584930419922
6.66198062896728516 -48.7232322692871094 -0.998488366603851318
10.1549844741821289 16.4831027984619141 10.3668699264526367
-20.4853706359863281 -13.4166126251220703 1.74184679985046387
-18.3052978515625 -33.2251358032226562 -17.9360523223876953
-20.2455253601074219 27.3371524810791016 22.759979248046875
-22.0040626525878906 60.6656913757324219 -1.84520876407623291
14.5512552261352539 -32.0509719848632812 -14.4755659103393555
-21.8874282836914062 35.6160125732421875 13.9444799423217773
-19.0293960571289062 70.0416488647460938 -8.34982681274414062
-17.1789054870605469 4.15719747543334961 -28.8601417541503906
5.50175142288208008 42.1118507385253906 9.30077648162841797
-16.5998554229736328 -71.5443038940429688 5.70792961120605469
-11.4026985168457031 72.042449951171875 -4.24527454376220703
17.5442752838134766 -58.77764892578125 18.2621059417724609
9.59239482879638672 55.0334930419921875 -7.35393667221069336
-4.62714672088623047 -52.0239677429199219 -28.3895530700683594
0.338996857404708862 22.9687900543212891 -35.2218017578125
-20.7032642364501953 30.4665088653564453 -18.135101318359375
-17.1054573059082031 61.3073005676269531 -25.56207275390625
-20.2774410247802734 -23.7090511322021484 4.80668163299560547
-8.01877403259277344 -63.2077484130859375 24.9248447418212891
13.3555221557617188 14.4314050674438477 20.1252956390380859
4.63463878631591797 32.3865776062011719 -33.5724601745605469
-20.2667350769042969 41.3406867980957031 -28.5425949096679688
15.4938945770263672 35.8037490844726562 -23.6452045440673828
-8.89634609222412109 -8.84799575805664062 -33.2532920837402344
-16.0564804077148438 -70.2665557861328125 10.8048067092895508
-4.11754846572875977 73.8623733520507812 -5.29475545883178711
-18.0880470275878906 25.8126754760742188 -30.2562294006347656
3.20180034637451172 13.7273387908935547 -35.1098747253417969
5.27347183227539062 57.8924598693847656 -31.6501369476318359
-4.87212944030761719 52.0586967468261719 -31.2625560760498047
-18.6373958587646484 -14.8940181732177734 28.2940578460693359
-1.03907513618469238 25.1677074432373047 39.3545646667480469
-18.3555965423583984 -30.3663425445556641 -20.2571849822998047
10.6931352615356445 -27.7728347778320312 -9.77092647552490234
0.12474609911441803 71.4438705444335938 -19.639007568359375
7.72221803665161133 -42.3767547607421875 5.34382534027099609
3.32458734512329102 5.77087879180908203 -34.8950462341308594
-17.48504638671875 24.8863945007324219 27.4704971313476562
13.9166984558105469 17.8069305419921875 -29.17669677734375
12.5616550445556641 5.62052059173583984 18.1946563720703125
-21.3672466278076172 34.9292144775390625 -2.3117983341217041
6.66377162933349609 -30.9034423828125 39.7960700988769531
-0.644295394420623779 72.8801498413085938 -1.32037293910980225
4.74442768096923828 66.499053955078125 -26.8074016571044922
7.65061664581298828 44.4700698852539062 10.0413665771484375
-16.2849559783935547 48.0018043518066406 -31.2248649597167969
-18.9864368438720703 -59.3859176635742188 -1.56182169914245605
10.6367702484130859 -14.1330804824829102 -32.7423629760742188
-19.6113204956054688 -51.4624290466308594 21.9993076324462891
15.6739473342895508 -27.4215965270996094 -14.3010396957397461
-20.8491687774658203 67.4968719482421875 -1.90182530879974365
-20.1857662200927734 -35.2178611755371094 19.8202838897705078
18.6715145111083984 13.8037576675415039 -15.9168319702148438
-11.0599765777587891 68.58868408203125 10.3260059356689453
18.1902675628662109 2.19090461730957031 -9.28732013702392578
2.69590878486633301 36.4415397644042969 34.6380996704101562
4.64199733734130859 46.1507987976074219 7.43649768829345703
-3.79547810554504395 -0.156970247626304626 43.4070396423339844
-1.72057366371154785 30.1885929107666016 -34.3981094360351562
-20.2862434387207031 -2.95755290985107422 -0.639559447765350342
18.5598373413085938 7.23572492599487305 -17.8209152221679688
-18.3756389617919922 -33.1532402038574219 -13.5561037063598633
-2.76096987724304199 -74.3949127197265625 2.40612673759460449
10.7548742294311523 -67.9020767211914062 -10.9565658569335938
-21.0754661560058594 14.8808403015136719 -3.38389730453491211
-9.04939746856689453 -67.8624038696289062 -14.1399068832397461
-12.4503965377807617 -3.85309720039367676 -30.9061355590820312
3.45764970779418945 72.651214599609375 -11.3957605361938477
-0.609661400318145752 12.1197109222412109 -36.4664192199707031
-19.5537986755371094 12.1429758071899414 25.1102275848388672
12.4928932189941406 14.2826385498046875 6.83842658996582031
13.5995998382568359 -15.1626958847045898 35.8075981140136719
14.4185075759887695 2.31089949607849121 27.274505615234375
-6.69086265563964844 -4.85259008407592773 -35.2720527648925781
12.2051753997802734 -43.0004081726074219 6.36285495758056641
7.20838594436645508 68.4635467529296875 -2.01687169075012207
-4.96633434295654297 57.1901931762695312 -28.9232845306396484
6.69776153564453125 32.2838897705078125 -31.7622356414794922
16.8794078826904297 -48.045257568359375 27.9101963043212891
-0.0608987957239151001 45.8600921630859375 -33.7551345825195312
16.6308727264404297 -39.6972389221191406 12.6287202835083008
15.8937931060791016 38.3734779357910156 -11.1926259994506836
1.40211820602416992 -66.8563156127929688 24.3686389923095703
1.65092706680297852 61.8826332092285156 -29.4589805603027344
-17.65631103515625 70.3166122436523438 -0.520812392234802246
19.1485576629638672 15.2439546585083008 -21.6536407470703125
-18.7208175659179688 -62.759063720703125 -1.576995849609375
13.8098230361938477 14.027949333190918 18.8063125610351562
15.5325403213500977 -24.9772224426269531 -26.8372783660888672
-12.3084278106689453 41.0327339172363281 -31.5092029571533203
11.7186546325683594 -22.8652133941650391 5.10004615783691406
-21.0819835662841797 0.875677168369293213 4.65717601776123047
11.2833757400512695 -2.03348469734191895 10.7398147583007812
18.9558887481689453 8.93720531463623047 -13.8000345230102539
-12.4673070907592773 70.2852325439453125 1.95184755325317383
5.53865242004394531 60.1257553100585938 -31.15179443359375
-19.9387893676757812 -22.4768238067626953 0.0537437126040458679
15.9544000625610352 -21.35791015625 -11.0505199432373047
-21.0474910736083984 55.7803382873535156 16.6488552093505859
4.31103754043579102 -41.5245170593261719 37.6313323974609375
5.2227325439453125 36.3448944091796875 -32.9465103149414062
17.3065414428710938 22.4569225311279297 -23.4579582214355469
10.1195898056030273 -67.2684707641601562 -7.52702093124389648
-20.9017658233642578 27.9577178955078125 21.0161647796630859
-10.7681150436401367 -66.2059097290039062 -15.7806482315063477
-6.34756231307983398 71.4956512451171875 -13.5862264633178711
13.4174156188964844 -9.37550926208496094 4.8172917366027832
-1.92396557331085205 64.4965057373046875 26.1240310668945312
-21.2127704620361328 46.2424430847167969 -20.7919960021972656
-4.37131357192993164 68.9597702026367188 12.6594228744506836
-7.14566326141357422 55.602447509765625 -30.9900379180908203
16.0444660186767578 -56.2884597778320312 27.4384803771972656
0.750455319881439209 58.5549240112304688 -29.7684764862060547
18.6160259246826172 -8.69357872009277344 -11.3232946395874023
-19.5969676971435547 -26.4560375213623047 -2.15241312980651855
-18.8131866455078125 42.14007568359375 22.9329051971435547
16.3264865875244141 -11.7092199325561523 19.2339553833007812
8.71109580993652344 39.4152374267578125 12.5616540908813477
10.6922101974487305 38.6924858093261719 -29.2591609954833984
-20.8833274841308594 -17.8236255645751953 9.725006103515625
-8.64508819580078125 33.3481903076171875 -32.8245658874511719
-2.85312724113464355 15.899017333984375 40.8726043701171875
2.54985141754150391 -74.548828125 14.7816553115844727
11.9144754409790039 8.5350494384765625 13.5237693786621094
13.5621967315673828 59.8120689392089844 8.31258296966552734
8.16716098785400391 61.299774169921875 20.7846565246582031
-21.8707351684570312 61.1564445495605469 -7.16137456893920898
-19.8791904449462891 3.02573442459106445 -21.3657608032226562
-16.8592281341552734 -71.0810928344726562 8.43049144744873047
18.2303752899169922 3.9250638484954834 -9.93546199798583984
-19.8011589050292969 -13.5127420425415039 25.8031139373779297
9.03213214874267578 -68.2386703491210938 -6.40895462036132812
13.8622856140136719 18.2179145812988281 21.6842918395996094
-13.081782341003418 51.6354293823242188 26.9119853973388672
9.76420879364013672 -67.3341751098632812 -17.6491775512695312
8.54845619201660156 -41.9860992431640625 -4.9913630485534668
-19.9606781005859375 -26.9990272521972656 23.8458442687988281
-1.19906580448150635 45.1121940612792969 33.4871673583984375
17.2646903991699219 -12.9809961318969727 -25.7052536010742188
11.5495872497558594 -64.6522750854492188 10.8697738647460938
13.7800283432006836 56.6781387329101562 6.42762899398803711
15.0465946197509766 31.4488487243652344 -7.9992833137512207
6.33947038650512695 44.0988616943359375 -0.520494520664215088
-19.40521240234375 -50.2657852172851562 24.8303871154785156
-10.2084674835205078 69.3554916381835938 6.5986781120300293
-17.6764659881591797 65.800872802734375 10.8449974060058594
18.7780933380126953 -15.4715051651000977 -18.1000118255615234
-21.5543003082275391 40.7383575439453125 -1.05464529991149902
2.35990667343139648 60.3967742919921875 -3.47586846351623535
-2.4584660530090332 -16.7045326232910156 42.0042572021484375
9.06832218170166016 44.2425422668457031 10.8063068389892578
7.51849555969238281 34.0779685974121094 9.64415645599365234
0.230483278632164001 -1.36201071739196777 -37.9065361022949219
7.44029808044433594 49.5858154296875 4.73768329620361328
3.46041226387023926 59.6169509887695312 -10.307337760925293
5.75841379165649414 -46.6735420227050781 36.6075286865234375
-11.8744831085205078 -49.7533836364746094 -24.8976287841796875
14.0717039108276367 53.8579139709472656 8.56275367736816406
-21.7119960784912109 38.46258544921875 2.88596963882446289
-10.7804269790649414 40.4747085571289062 -31.6024074554443359
-9.14072036743164062 -52.4726333618164062 -25.6107349395751953
-18.9293975830078125 -44.2619781494140625 -11.2528066635131836
3.00855398178100586 -3.44780111312866211 43.2407684326171875
-17.4045581817626953 10.3485231399536133 29.0976905822753906
-19.6506996154785156 18.6388664245605469 24.5408897399902344
-20.5003032684326172 10.1335277557373047 -15.4653539657592773
11.6528635025024414 -17.4498519897460938 -32.7944755554199219
-8.58490371704101562 21.6517848968505859 -33.8649444580078125
14.6610164642333984 5.22717380523681641 27.3346691131591797
-21.9426155090332031 25.9049320220947266 8.86978816986083984
-21.5258235931396484 62.3110771179199219 -11.7356786727905273
-1.81494426727294922 56.5014877319335938 -31.4455280303955078
14.3469934463500977 44.7666740417480469 15.9822406768798828
-19.46575927734375 -41.0815391540527344 27.6354846954345703
3.12261486053466797 73.245880126953125 7.11886787414550781
-19.3630847930908203 -60.1512336730957031 7.54963541030883789
-3.19497394561767578 57.9176673889160156 -29.1386184692382812
11.3231325149536133 -37.5025978088378906 -28.99755859375
-4.70870733261108398 63.8914375305175781 -27.1583366394042969
-15.7385139465332031 -13.0846157073974609 -27.8926315307617188
-14.3445987701416016 3.29500412940979004 34.4988746643066406
4.36342144012451172 5.08431434631347656 41.5473289489746094
-9.73717021942138672 34.7176170349121094 -32.4428558349609375
-9.8764495849609375 54.8902015686035156 -30.8464183807373047
-19.9082965850830078 -44.2755165100097656 14.8122167587280273
-4.68056726455688477 66.336578369140625 17.3385105133056641
15.5727300643920898 26.3856239318847656 -6.6772923469543457
-8.19547843933105469 44.48284912109375 33.0551300048828125
8.59515857696533203 -60.9272422790527344 -2.10965347290039062
13.5278453826904297 59.4812202453613281 13.7417478561401367
4.41306495666503906 66.2541961669921875 18.6388416290283203
-13.8194456100463867 25.6582984924316406 -31.7935829162597656
-6.67187118530273438 8.50099086761474609 -35.2229347229003906
-15.0837011337280273 -27.7352237701416016 32.63116455078125
2.64353322982788086 -66.6962127685546875 -18.8965473175048828
-11.9747772216796875 33.5551490783691406 -32.2387466430664062
9.48119544982910156 49.2096786499023438 26.8062229156494141
3.87747502326965332 49.3731193542480469 -0.283723384141921997
-11.0791730880737305 -4.77289152145385742 39.8410377502441406
10.8324203491210938 25.4244461059570312 7.66277408599853516
4.55923795700073242 35.9350433349609375 -33.5421638488769531
-20.5310249328613281 68.2618865966796875 -10.6141347885131836
11.7072916030883789 29.8980922698974609 28.9728164672851562
8.86077594757080078 -70.963714599609375 17.1448097229003906
-19.7029819488525391 -2.32846593856811523 -20.3693790435791016
-20.9716167449951172 37.7501373291015625 -18.4686355590820312
4.49391603469848633 57.8750190734863281 -30.9934787750244141
-2.25606250762939453 -62.51324462890625 27.4927005767822266
5.09885501861572266 -36.5052223205566406 39.05029296875
-20.8711185455322266 9.42744731903076172 -13.3639469146728516
8.18437004089355469 64.3964385986328125 -24.5998363494873047
-21.8842144012451172 46.5587577819824219 -1.255454421043396
-10.6820945739746094 -11.1823244094848633 -31.4177684783935547
13.8290643692016602 -1.45873010158538818 -29.8923206329345703
9.5552978515625 -6.9791722297668457 39.165008544921875
-15.4657745361328125 -61.541168212890625 -18.3125801086425781
-12.3188018798828125 -22.0246543884277344 -28.9083538055419922
-18.3431854248046875 -61.5622329711914062 -5.79898738861083984
11.8434667587280273 -23.394134521484375 9.39229488372802734
12.2122364044189453 39.6707077026367188 20.5005702972412109
13.3001165390014648 -4.06754636764526367 -30.6604824066162109
1.34291291236877441 67.9802703857421875 20.8516273498535156
-2.78071141242980957 -31.8524684906005859 -33.3852157592773438
4.67650032043457031 -70.2954559326171875 -18.0054817199707031
-6.41171884536743164 -70.683074951171875 14.5415620803833008
2.43553352355957031 71.0492782592773438 12.9655904769897461
-5.85839509963989258 -8.36113357543945312 -35.6517372131347656
-9.38055801391601562 71.211456298828125 -14.0812244415283203
2.4520111083984375 74.8497161865234375 2.31236815452575684
6.21984720230102539 -60.621612548828125 30.2489681243896484
0.811809301376342773 -13.4141092300415039 -37.6882476806640625
16.4301891326904297 -13.9209203720092773 28.754486083984375
-8.82526493072509766 43.1120872497558594 32.9414520263671875
-6.7657322883605957 46.312591552734375 33.5846443176269531
-15.6224565505981445 58.8129425048828125 -28.1744842529296875
-20.2595443725585938 -30.5007743835449219 16.3687648773193359
-19.3082561492919922 -29.4724998474121094 -0.401165753602981567
-11.2820892333984375 71.2287750244140625 -8.75449657440185547
13.3007593154907227 -61.9047927856445312 12.0549783706665039
17.0314731597900391 29.8836708068847656 -18.6817245483398438
8.72435951232910156 27.4100818634033203 10.1107425689697266
-15.4249057769775391 60.9844017028808594 16.7479915618896484
-19.0648250579833984 -43.6813392639160156 -2.0732572078704834
4.84308242797851562 64.1192245483398438 -27.1315536499023438
14.7444639205932617 -62.2787017822265625 15.024601936340332
-3.32060503959655762 51.7283859252929688 -31.7609462738037109
14.0981578826904297 43.9276504516601562 16.234527587890625
5.09955835342407227 56.7030525207519531 -33.1613578796386719
-15.3675975799560547 26.5984382629394531 30.0947818756103516
12.8473691940307617 61.4625053405761719 13.1363792419433594
14.4625072479248047 42.9880142211914062 -22.3245124816894531
-9.47826290130615234 24.3843479156494141 -33.4977302551269531
3.73418664932250977 56.6647300720214844 0.0435301549732685089
-21.4658470153808594 37.4105453491210938 -10.1805877685546875
-12.1702289581298828 15.3793973922729492 36.2675514221191406
-20.5409069061279297 0.0758917033672332764 20.5483264923095703
-21.6962604522705078 46.8450851440429688 -9.17454433441162109
4.4407958984375 -64.3950576782226562 0.595534563064575195
-20.4872798919677734 -18.2279453277587891 3.47345352172851562
18.0211410522460938 -0.19581913948059082 -12.0997486114501953
10.2637853622436523 64.4426345825195312 -22.4460296630859375
5.79589700698852539 -30.9773693084716797 40.0317153930664062
-19.9473190307617188 47.8569831848144531 -29.5912628173828125
3.64398026466369629 49.8764762878417969 0.427743494510650635
16.7829494476318359 -32.5855369567871094 12.0835590362548828
-21.8920001983642578 30.4508571624755859 7.57154273986816406
0.79713892936706543 21.7536582946777344 39.87823486328125
5.87065792083740234 -63.2103462219238281 28.1921634674072266
-20.6508388519287109 8.44893455505371094 -14.47283935546875
9.65478420257568359 -10.4636116027832031 38.0934867858886719
2.75999045372009277 -69.9279708862304688 -17.5388393402099609
-19.9976158142089844 26.2591056823730469 -26.452239990234375
11.1656074523925781 42.8581733703613281 -3.71146678924560547
-6.90949773788452148 -56.4661140441894531 -25.3172817230224609
-3.71454763412475586 67.4290542602539062 20.3731632232666016
12.3211793899536133 63.5935592651367188 7.49324703216552734
-19.9502468109130859 14.4655876159667969 24.171417236328125
8.40195751190185547 -53.3279228210449219 -3.0990447998046875
5.71890926361083984 -8.87862300872802734 41.4717483520507812
3.6867673397064209 -38.4021263122558594 -34.7377662658691406
-18.8993949890136719 -35.2781639099121094 28.4399204254150391
-20.5369930267333984 -6.57088518142700195 -8.75623703002929688
-11.8991327285766602 55.2941513061523438 -30.2830944061279297
17.8260059356689453 -45.0354652404785156 13.5613870620727539
-7.87807321548461914 -58.1926307678222656 -22.727142333984375
8.43572044372558594 -50.42218017578125 1.68099606037139893
7.44180011749267578 25.7624187469482422 35.9523849487304688
-20.8915252685546875 13.3558464050292969 5.58187246322631836
-17.5281448364257812 -63.2911148071289062 21.8387546539306641
15.0355424880981445 -24.9233913421630859 -27.9802875518798828
-19.7963180541992188 -47.8864250183105469 21.9525318145751953
8.15864181518554688 -64.4082870483398438 -22.5836277008056641
-19.8212261199951172 51.1435012817382812 -29.5069065093994141
11.1147928237915039 64.177276611328125 -18.014739990234375
-2.42360258102416992 -62.4494781494140625 -21.1935138702392578
-18.7420120239257812 -30.9532051086425781 -9.06925106048583984
-6.54355049133300781 -45.3053359985351562 33.8014678955078125
16.3075065612792969 -48.6920166015625 10.9552145004272461
4.51573753356933594 -42.7518463134765625 37.3377761840820312
-21.178924560546875 -4.44631385803222656 7.48608493804931641
7.51672983169555664 20.1988334655761719 37.2458114624023438
2.08999347686767578 -44.0345191955566406 38.4426689147949219
-20.5000991821289062 52.934814453125 -26.6379184722900391
14.8460893630981445 -36.6975326538085938 -16.5792102813720703
4.32064247131347656 -73.3137130737304688 15.6437711715698242
8.04666805267333984 -74.7108917236328125 0.476630061864852905
2.0804448127746582 -31.8289260864257812 39.9779129028320312
-2.42551112174987793 -16.5001258850097656 -36.5306549072265625
-19.5486793518066406 -20.7692794799804688 -13.912531852722168
6.61972713470458984 -73.1296920776367188 -3.35696530342102051
8.60936069488525391 -48.4442405700683594 2.52912282943725586
-15.1264629364013672 0.447859197854995728 33.4255828857421875
16.0422096252441406 -26.4918308258056641 -13.7286043167114258
-8.68091678619384766 3.97955918312072754 -34.0255050659179688
0.601669132709503174 -5.69787168502807617 43.9549827575683594
0.997436165809631348 12.3285961151123047 41.6295166015625
1.62718856334686279 29.1871604919433594 -34.5225791931152344
10.7450971603393555 -68.5605316162109375 23.5344371795654297
-20.7181243896484375 4.56592750549316406 -2.5806736946105957
-21.1398811340332031 48.145172119140625 -21.2442188262939453
11.7608280181884766 -31.5320281982421875 37.0315513610839844
-18.8869571685791016 -63.6018218994140625 3.46457195281982422
13.517059326171875 -13.0074367523193359 10.093470573425293
-20.6070938110351562 19.5671405792236328 -20.4245090484619141
5.73398542404174805 60.7208099365234375 23.2312641143798828
-21.4037799835205078 33.9265899658203125 -12.2953014373779297
14.6827793121337891 -45.9030075073242188 -23.4339084625244141
-22.1148757934570312 39.1295394897460938 12.9076299667358398
-21.7009048461914062 56.3934822082519531 -14.2881479263305664
10.8608636856079102 -11.5078363418579102 37.9477577209472656
10.0313549041748047 66.6016006469726562 11.3762130737304688
3.77603316307067871 64.7812728881835938 -17.2108993530273438
13.4179449081420898 -15.2635593414306641 -31.4920883178710938
-9.27196216583251953 -48.19952392578125 30.4178619384765625
13.972905158996582 19.0006160736083984 0.429385900497436523
-19.6312580108642578 -54.6210899353027344 12.2607345581054688
12.8600740432739258 43.0456924438476562 14.6762237548828125
2.53189611434936523 18.3296337127685547 -35.1867828369140625
17.3463191986083984 -47.289215087890625 12.4036951065063477
10.818821907043457 -24.7135906219482422 5.83513832092285156
-0.317258507013320923 72.4757003784179688 -7.630218505859375
17.0302028656005859 -22.0452079772949219 -23.3443584442138672
-21.3904228210449219 30.3288478851318359 -12.5741910934448242
-0.593780934810638428 -73.0365753173828125 10.828944206237793
14.0234432220458984 -8.41294002532958984 -30.3433933258056641
-20.3158321380615234 10.4993982315063477 -19.9799041748046875
10.7732048034667969 56.0394401550292969 21.867706298828125
1.81397581100463867 72.9460601806640625 -15.7058572769165039
8.20203495025634766 -51.2547416687011719 -3.70055508613586426
-13.6612405776977539 -33.6785659790039062 -26.3476619720458984
-15.1962652206420898 -44.383819580078125 -24.1650905609130859
-5.62509298324584961 49.9252433776855469 34.9406280517578125
-4.2361297607421875 -34.1325759887695312 37.1994552612304688
11.0414066314697266 23.5664463043212891 14.0519838333129883
-12.144770622253418 71.2324295043945312 -10.8798637390136719
-0.509046792984008789 29.8503780364990234 -34.5647621154785156
17.3677730560302734 16.4802494049072266 -8.25067996978759766
13.4955739974975586 19.4208889007568359 19.2855415344238281
14.2160215377807617 -60.7085304260253906 -16.1376495361328125
18.1731357574462891 -32.2056808471679688 26.2634334564208984
16.3175830841064453 1.37325596809387207 -8.61481952667236328
-22.2982463836669922 47.4476890563964844 6.67460203170776367
10.5648536682128906 55.2701950073242188 -7.82701587677001953
2.17850446701049805 68.0992889404296875 -8.69633197784423828
16.0415916442871094 0.855245292186737061 -6.2712397575378418
-19.4004573822021484 -21.6963081359863281 -14.8080434799194336
-2.70580053329467773 69.96612548828125 12.8854217529296875
15.247654914855957 -5.96717309951782227 -3.49662017822265625
6.58327674865722656 34.6041526794433594 12.7202072143554688
16.8065967559814453 13.8780860900878906 -6.74188327789306641
-21.2385196685791016 27.4742603302001953 3.08007526397705078
-1.97210311889648438 33.7848167419433594 37.5454940795898438
-15.8575363159179688 2.27552914619445801 32.0716171264648438
6.30741071701049805 43.3844337463378906 9.81725788116455078
-21.4359512329101562 34.5966110229492188 3.38723874092102051
-14.6008234024047852 -67.3942794799804688 -12.0783967971801758
-14.6283092498779297 -30.4166908264160156 32.6122550964355469
14.4665651321411133 50.3359146118164062 -18.6022834777832031
-10.5043859481811523 66.9106979370117188 -21.9203433990478516
10.8222036361694336 22.6733074188232422 13.9200153350830078
-0.027507757768034935 -23.7658576965332031 41.5794105529785156
18.4125690460205078 -2.28555727005004883 -10.4176950454711914
-5.44030237197875977 -52.680023193359375 -27.1679553985595703
-11.0299768447875977 -39.4995956420898438 -27.1121368408203125
15.2160301208496094 -29.4522724151611328 33.9246978759765625
5.34737205505371094 -49.9329833984375 35.3761062622070312
4.12479591369628906 62.6799392700195312 -14.9052572250366211
-3.54350471496582031 66.247100830078125 -24.24786376953125
-6.90234613418579102 -71.2517929077148438 -7.72530364990234375
-21.3462791442871094 30.6984844207763672 16.8685550689697266
-20.1162567138671875 -27.972381591796875 5.66551923751831055
-6.04218482971191406 -25.0437736511230469 -33.1458282470703125
11.2327184677124023 -56.8680953979492188 9.02927875518798828
-20.0215625762939453 -20.9438762664794922 0.0861213952302932739
15.085148811340332 -47.2362594604492188 9.35710334777832031
6.2834320068359375 65.1550216674804688 18.5844135284423828
-0.69388425350189209 72.696624755859375 8.03218173980712891
-1.67638611793518066 -56.5923690795898438 32.9205436706542969
0.00801319070160388947 1.88859570026397705 43.2445220947265625
8.67123699188232422 33.3079719543457031 13.3860540390014648
4.49633502960205078 64.1085662841796875 -28.6683540344238281
8.49642372131347656 -56.0120658874511719 1.37522494792938232
-18.9270343780517578 -41.0717315673828125 -10.0696010589599609
7.23305940628051758 -53.9598236083984375 33.9989509582519531
-5.85781955718994141 55.838165283203125 -30.9150867462158203
9.94996833801269531 -7.8016352653503418 -31.9385032653808594
-8.51419544219970703 -33.4134483337402344 35.4843292236328125
8.02776432037353516 -75.944427490234375 -0.959067463874816895
-5.39223432540893555 8.16149044036865234 -35.8432426452636719
14.7020349502563477 -12.9830265045166016 -1.40687239170074463
-9.23799514770507812 70.9254150390625 -13.3390645980834961
5.54953241348266602 68.4824600219726562 -3.2708275318145752
-18.1548137664794922 68.3061676025390625 -15.9055461883544922
-7.11461353302001953 71.1235885620117188 2.17414999008178711
-20.8570079803466797 36.7906074523925781 -19.0401210784912109
-15.4248685836791992 -10.206049919128418 33.7167854309082031
17.6459884643554688 -22.655670166015625 -19.4932632446289062
14.3689785003662109 1.03545701503753662 -3.67472577095031738
10.2886238098144531 -43.4301834106445312 -9.24817180633544922
-0.968718588352203369 -52.041595458984375 -30.2553806304931641
-21.2267208099365234 22.2716808319091797 -4.74544906616210938
-20.2968502044677734 1.24382078647613525 -15.7534074783325195
18.3770198822021484 -16.3618049621582031 -21.8423500061035156
2.83442449569702148 66.3613510131835938 -18.7171401977539062
13.5196590423583984 -16.0682811737060547 -7.21163320541381836
6.50618076324462891 -15.4795551300048828 41.4349861145019531
-1.60714054107666016 -36.8793830871582031 -32.9217071533203125
-20.7581043243408203 5.52187681198120117 -2.23946738243103027
-1.81600189208984375 46.1771965026855469 -33.5447959899902344
-7.85587072372436523 -49.9413414001464844 30.9490127563476562
5.56200885772705078 56.5683555603027344 26.0900726318359375
-21.3779792785644531 63.9123497009277344 6.60038375854492188
-5.82549619674682617 24.6719150543212891 -34.4689407348632812
-9.61454486846923828 60.4169158935546875 -27.1183986663818359
-21.7205181121826172 44.4920272827148438 -11.729334831237793
11.1612682342529297 52.6851730346679688 -27.7594127655029297
13.4927253723144531 -54.5205497741699219 -9.04959964752197266
-10.6080703735351562 71.941986083984375 -6.31495141983032227
-22.2585620880126953 39.7273941040039062 10.4268026351928711
10.05206298828125 -39.1832847595214844 -32.2475547790527344
12.6045303344726562 26.4244022369384766 -3.53043508529663086
14.9997930526733398 -47.735198974609375 -17.7448692321777344
14.238438606262207 44.5384368896484375 -6.59774637222290039
-18.5993328094482422 -67.04302978515625 6.88196802139282227
-18.9223823547363281 -29.6999626159667969 -10.028289794921875
12.8919563293457031 -21.1341037750244141 -2.98983097076416016
19.1265506744384766 -9.36252880096435547 -15.0896673202514648
8.87916183471679688 -56.58843994140625 32.4897041320800781
-2.84317517280578613 -45.8494071960449219 35.8129959106445312
7.38337373733520508 46.3964920043945312 -29.8379478454589844
-5.73470735549926758 -50.4166107177734375 31.7564163208007812
-9.48072910308837891 -19.3539752960205078 -31.6663341522216797
9.40546035766601562 -30.9884548187255859 -29.8353767395019531
-21.59478759765625 40.160003662109375 -7.81185770034790039
13.459538459777832 19.6360874176025391 20.030242919921875
13.7876110076904297 15.5256643295288086 29.4059505462646484
8.45469856262207031 -42.5802688598632812 -2.85866189002990723
-1.34311509132385254 -53.8632278442382812 31.5913543701171875
4.06846475601196289 7.26536846160888672 41.3969650268554688
-19.1730422973632812 -62.5518035888671875 11.2636947631835938
4.97692298889160156 -61.7014541625976562 32.1145439147949219
-6.75493955612182617 3.72959232330322266 41.3316497802734375
-20.4381313323974609 -11.5042514801025391 1.38563418388366699
-19.7925090789794922 -32.442840576171875 5.62186908721923828
17.865447998046875 -46.9770927429199219 26.0066261291503906
-20.4783058166503906 60.600250244140625 -22.9232425689697266
-10.1481838226318359 52.7676506042480469 -30.4839801788330078
-20.8586406707763672 21.0742454528808594 -15.1654844284057617
-7.43644952774047852 37.873046875 35.8513259887695312
16.3465652465820312 -25.1118564605712891 -16.7913570404052734
-21.3226280212402344 15.1361017227172852 -7.88521432876586914
14.8789300918579102 -34.2742919921875 -20.4622249603271484
12.872645378112793 40.521484375 -27.0654697418212891
-2.3021693229675293 -2.35682487487792969 43.7341537475585938
8.71061992645263672 39.9039421081542969 -2.87847709655761719
15.462000846862793 -59.0992584228515625 26.7213497161865234
12.7896947860717773 -26.7815952301025391 -4.84916067123413086
6.53277778625488281 34.7792778015136719 33.3809738159179688
17.4976634979248047 -16.0432548522949219 20.1485519409179688
3.8971250057220459 -26.2187881469726562 -34.9461784362792969
13.6846885681152344 32.4081153869628906 -6.03875255584716797
-0.378101527690887451 -55.137420654296875 -27.4172172546386719
10.0369768142700195 -47.4468154907226562 -30.2978229522705078
18.8022899627685547 -14.3201389312744141 -19.2847366333007812
11.869908332824707 0.937313079833984375 35.6578330993652344
5.14738130569458008 -22.4264850616455078 41.5826225280761719
9.724212646484375 15.9535226821899414 12.3983240127563477
-18.9142742156982422 -42.5402336120605469 -12.232966423034668
8.03654670715332031 39.7535171508789062 -2.74180293083190918
-17.966552734375 -3.34048271179199219 29.1190814971923828
11.9557704925537109 -48.5747528076171875 33.6522064208984375
-19.5825767517089844 -47.4248733520507812 6.26422643661499023
14.9984159469604492 -56.7286224365234375 -18.336822509765625
14.8757028579711914 -1.32465171813964844 -1.5611720085144043
-4.43151378631591797 0.479076355695724487 -36.6230545043945312
3.33526515960693359 48.9269447326660156 31.0315971374511719
-22.0050487518310547 48.7279777526855469 -1.00204098224639893
-12.7715482711791992 42.7724685668945312 -31.44146728515625
-20.3934574127197266 57.9117431640625 -25.2094554901123047
-22.1353225708007812 54.3372154235839844 11.216064453125
-21.4450359344482422 22.9392623901367188 16.7168350219726562
-21.4995384216308594 35.7913780212402344 -7.67086124420166016
-19.5230579376220703 -23.3618812561035156 -11.6548976898193359
14.6049728393554688 -10.9614171981811523 32.7228736877441406
8.9462890625 -50.239471435546875 34.941741943359375
18.4378261566162109 -27.4060382843017578 21.4091911315917969
-6.11200380325317383 -61.8407363891601562 26.5393829345703125
8.71459197998046875 -61.4379463195800781 7.4521183967590332
-18.521820068359375 -10.2915868759155273 -24.1867637634277344
-13.7971553802490234 66.1000518798828125 -22.4681949615478516
-10.3591690063476562 -57.0291023254394531 28.3732547760009766
-21.1484966278076172 10.9497776031494141 -11.0057840347290039
12.4883356094360352 -35.779296875 35.926055908203125
-5.56431245803833008 -73.8973388671875 3.63831615447998047
-20.7237606048583984 30.2038784027099609 -17.8899955749511719
-22.2158699035644531 35.9144058227539062 11.1658039093017578
-21.0372047424316406 39.4110183715820312 -21.0498638153076172
-8.83314323425292969 48.7172393798828125 30.3618659973144531
-8.39370822906494141 48.1054267883300781 -30.8323860168457031
12.2272729873657227 21.0643444061279297 16.6564235687255859
-1.20358765125274658 61.555084228515625 -27.2889118194580078
17.6160831451416016 -10.8562726974487305 -10.3038520812988281
2.14860081672668457 -46.1289482116699219 38.3875617980957031
12.704594612121582 -55.5984687805175781 -25.3189716339111328
-15.8998327255249023 -59.5244636535644531 -19.5752220153808594
-20.1088848114013672 -38.5727615356445312 20.0286045074462891
-8.89308261871337891 -36.6872024536132812 34.2134056091308594
10.8791179656982422 -21.9290504455566406 -32.5616989135742188
-14.8416919708251953 -19.2412147521972656 33.9458389282226562
12.1277570724487305 4.98212003707885742 12.8918285369873047
17.4087982177734375 -28.5870227813720703 30.1991825103759766
-19.2013225555419922 -62.8156585693359375 9.58871746063232422
-19.7410316467285156 -10.5907106399536133 25.9947967529296875
15.5239114761352539 -3.67480134963989258 -0.902809023857116699
-1.96636557579040527 5.54056835174560547 -37.1254920959472656
-10.3897857666015625 5.05885601043701172 -32.9045562744140625
18.3570404052734375 18.2344264984130859 -11.7580137252807617
-11.1733312606811523 70.8837890625 3.1025843620300293
-19.8123626708984375 -22.0243492126464844 -8.8451385498046875
3.94858121871948242 71.3885726928710938 -6.97367191314697266
0.266535460948944092 -64.3909530639648438 27.632476806640625
6.31420087814331055 -11.4710273742675781 -33.9730644226074219
16.1261367797851562 24.1173496246337891 -7.01941394805908203
-9.38498210906982422 -17.1439895629882812 -32.0436134338378906
-22.0692043304443359 32.3244094848632812 12.5222225189208984
12.7162923812866211 25.8696956634521484 0.764679551124572754
-21.3595542907714844 52.7950553894042969 -18.2884521484375
-16.9497756958007812 -69.476470947265625 -4.65770435333251953
0.927805125713348389 34.735015869140625 -33.9011383056640625
-21.3238945007324219 33.2384300231933594 1.81149530410766602
-16.5637722015380859 13.5871648788452148 -30.0222206115722656
4.89977884292602539 -8.61718177795410156 42.7349929809570312
-20.2390003204345703 -12.2081413269042969 -11.643193244934082
8.45215129852294922 -69.9442596435546875 12.3477191925048828
-20.0544166564941406 -8.38117504119873047 -2.49578237533569336
-20.3033885955810547 -26.6630954742431641 7.62354469299316406
2.84160804748535156 -43.2231636047363281 38.2930183410644531
-17.4001007080078125 -69.00665283203125 -1.4291304349899292
-20.7873268127441406 8.10521984100341797 1.85889828205108643
-6.68202400207519531 71.6340866088867188 -1.92771565914154053
-20.5092086791992188 27.908111572265625 -22.719696044921875
11.8508138656616211 64.6995620727539062 8.09212017059326172
-19.7110443115234375 -14.8144159317016602 -15.3482170104980469
-3.30379676818847656 52.5052490234375 31.6425495147705078
17.9376335144042969 -44.5072059631347656 13.9644641876220703
-1.03498005867004395 55.3004798889160156 30.6965370178222656
-4.28295135498046875 -18.4951705932617188 -35.1994056701660156
11.7417869567871094 24.0471668243408203 7.24748039245605469
-17.1939830780029297 68.1642990112304688 5.44040918350219727
13.0595569610595703 -44.2512321472167969 7.04686307907104492
-3.83164501190185547 72.3899993896484375 2.0110936164855957
5.81302022933959961 -24.5405979156494141 40.8903045654296875
2.10020828247070312 55.4083824157714844 28.4707622528076172
4.5985865592956543 -68.6857070922851562 24.8872261047363281
13.4266471862792969 59.6336936950683594 7.61187601089477539
15.1671218872070312 -55.0799293518066406 -15.1352338790893555
18.5829086303710938 -2.27564740180969238 -12.229762077331543
9.43490314483642578 38.325592041015625 -29.7994518280029297
11.4133100509643555 -6.14999246597290039 8.8646087646484375
-8.36032295227050781 -38.5059623718261719 33.7835044860839844
6.40539693832397461 -67.5722808837890625 -19.9808483123779297
-11.2229909896850586 -14.6109199523925781 38.3459701538085938
17.2109832763671875 -10.3215789794921875 -26.3546123504638672
13.53887939453125 10.5189933776855469 31.3193359375
9.00080585479736328 -62.6073379516601562 7.46119880676269531
13.4830875396728516 59.0074310302734375 -20.4659252166748047
-21.1840133666992188 -5.94711685180664062 9.13576602935791016
13.9334917068481445 -35.2070770263671875 -13.5511589050292969
9.88455104827880859 -52.6283035278320312 -29.6717205047607422
-12.0286521911621094 44.564056396484375 28.7265243530273438
-6.35153532028198242 71.2642364501953125 2.83383655548095703
4.75344753265380859 -10.3174190521240234 42.7854461669921875
10.5883712768554688 -57.2582206726074219 -2.4927985668182373
12.8109292984008789 60.8413314819335938 -13.9107761383056641
10.6365861892700195 36.4040756225585938 14.9579229354858398
5.80144071578979492 -4.68102264404296875 -34.199066162109375
16.0979423522949219 -26.1994457244873047 -17.1138248443603516
13.5871419906616211 59.8360137939453125 -21.1559314727783203
9.18901824951171875 68.2661972045898438 2.90541315078735352
6.23777151107788086 37.7285041809082031 11.6828908920288086
-21.1006202697753906 5.81282567977905273 -10.3901739120483398
-21.6941719055175781 45.5115089416503906 -9.21658515930175781
18.0957756042480469 1.64633822441101074 -9.13518333435058594
12.4467277526855469 4.40472269058227539 34.4509162902832031
9.08214282989501953 -43.7376747131347656 36.4446945190429688
4.5873255729675293 24.3099040985107422 -33.6318702697753906
13.7673797607421875 -22.4564800262451172 -30.5349082946777344
5.83471202850341797 38.1871681213378906 9.141876220703125
-19.1695098876953125 -9.64832305908203125 -17.8280391693115234
-21.8647937774658203 34.3805389404296875 6.40698766708374023
-21.5260772705078125 1.97072315216064453 11.1230449676513672
-18.3696708679199219 -12.4676780700683594 -25.1295375823974609
-15.4941091537475586 -21.7763767242431641 -26.9267196655273438
-10.8554277420043945 53.608978271484375 -30.7919502258300781
1.93878853321075439 -70.992889404296875 -9.06922340393066406
1.59424829483032227 17.3367500305175781 40.6476058959960938
-20.8355121612548828 -14.3620052337646484 5.96335506439208984
-19.290069580078125 -6.45430183410644531 -20.5923748016357422
-20.2269210815429688 68.5699920654296875 -12.2438135147094727
2.48423886299133301 -74.7979812622070312 6.9270477294921875
-20.2340240478515625 32.7274932861328125 -25.3098030090332031
-21.0380096435546875 13.2457656860351562 18.7327709197998047
0.108503714203834534 25.8203258514404297 39.0832290649414062
-11.7865495681762695 70.321380615234375 -13.0493955612182617
-8.84920597076416016 71.2577362060546875 3.03236913681030273
-18.5296401977539062 -27.3403053283691406 -18.1578464508056641
-22.1762428283691406 43.5867691040039062 11.9578208923339844
-16.7783145904541016 8.25091457366943359 30.1915416717529297
11.0280904769897461 -56.7252540588378906 8.93441581726074219
2.01739335060119629 -3.38245820999145508 43.5666885375976562
12.5756406784057617 -25.9478855133056641 -5.60454654693603516
-19.9384422302246094 -24.7451114654541016 2.79793596267700195
5.69916915893554688 -54.4116287231445312 -29.6096439361572266
14.7422971725463867 7.32852649688720703 -0.140946656465530396
5.56260538101196289 -73.12518310546875 13.0948677062988281
-18.0347061157226562 53.3071975708007812 -29.9718780517578125
-3.02481722831726074 -25.0111331939697266 40.4624786376953125
-22.1444225311279297 56.2931900024414062 -3.87442898750305176
-21.4037227630615234 37.0979232788085938 -1.4038923978805542
-18.4072170257568359 -0.595989346504211426 28.1981105804443359
-3.13692355155944824 -57.0561943054199219 -26.656585693359375
12.342254638671875 -40.6449012756347656 6.53994274139404297
