ply
format ascii 1.0
element vertex 782
comment vertices
property float x
property float y
property float z
end_header
1.86878430843353271 -87.962646484375 8.01717948913574219
2.23689937591552734 50.5032920837402344 -3.68239665031433105
-1.70596992969512939 21.8239574432373047 7.72007369995117188
5.19688034057617188 6.05492830276489258 10.0373115539550781
-4.46769618988037109 15.4665622711181641 -4.66261434555053711
5.68830442428588867 -35.9918479919433594 1.60147154331207275
2.70138025283813477 -21.8307113647460938 -10.888859748840332
4.42501258850097656 -46.0192375183105469 7.53844833374023438
2.94653606414794922 -91.4893112182617188 6.02612400054931641
-0.199061319231987 -26.0642375946044922 -12.3000555038452148
1.99563241004943848 30.0964622497558594 -9.81627750396728516
-6.64538097381591797 -32.9292373657226562 -9.31514549255371094
-0.80917125940322876 90.7076950073242188 3.71129584312438965
3.02239513397216797 100.27374267578125 -4.58078098297119141
5.87082672119140625 -70.2665634155273438 -2.08544564247131348
-1.18798422813415527 59.2947158813476562 -5.34617900848388672
-7.95399141311645508 -79.1803970336914062 0.839478254318237305
-4.91874027252197266 -84.02996826171875 7.85814952850341797
-8.25950908660888672 -47.2417793273925781 -7.05409002304077148
2.76813316345214844 -95.9582672119140625 4.40799999237060547
2.46421122550964355 28.6848850250244141 7.53266763687133789
3.89120674133300781 17.0146465301513672 13.3687763214111328
-6.95643806457519531 -64.0933837890625 -9.34284877777099609
4.96348333358764648 -42.2633209228515625 -10.3967065811157227
-3.88783740997314453 9.36774921417236328 -9.62119007110595703
-0.308463871479034424 -99.4758987426757812 -2.36890172958374023
4.80696010589599609 -85.6415863037109375 -1.75972270965576172
1.09064459800720215 42.5122146606445312 14.8477869033813477
3.01259350776672363 39.3211174011230469 9.89087390899658203
-0.174568533897399902 -31.7555561065673828 -12.4741086959838867
-7.94052648544311523 -49.7404670715332031 1.33893918991088867
-5.12665987014770508 0.960016429424285889 -2.09540653228759766
2.09222531318664551 60.7435493469238281 -10.7691612243652344
5.67284154891967773 -51.9926986694335938 -8.73653316497802734
-8.15224742889404297 -44.4202995300292969 -1.89775419235229492
1.38647425174713135 15.4466657638549805 -11.9078140258789062
-5.22631025314331055 -5.68941211700439453 -3.00708532333374023
-0.777202367782592773 55.5811805725097656 -1.17546665668487549
2.05951476097106934 27.6472511291503906 0.331679761409759521
-1.7496650218963623 20.4565448760986328 -4.48055267333984375
4.87866401672363281 -2.23999476432800293 5.88101053237915039
1.92839431762695312 29.7015323638916016 -8.89135932922363281
-5.39206647872924805 -85.42236328125 7.26396608352661133
-2.69355010986328125 4.13492059707641602 -11.2547121047973633
-5.59901905059814453 -34.6740608215332031 5.50455236434936523
-3.01251602172851562 -86.1700668334960938 8.73079681396484375
4.08858442306518555 75.2241058349609375 9.79549312591552734
-4.70522975921630859 -87.1057052612304688 7.5658421516418457
-8.13678741455078125 -42.870574951171875 -6.90368986129760742
-0.253964900970458984 10.5627832412719727 -12.3023338317871094
-1.74002373218536377 31.6377525329589844 -9.61538028717041016
-7.34430074691772461 -66.725616455078125 4.83286046981811523
-2.36434412002563477 2.49127793312072754 10.8545818328857422
-1.4564136266708374 37.9289016723632812 11.7827644348144531
-1.42616236209869385 56.0834274291992188 -8.97013759613037109
3.60799336433410645 -6.27046632766723633 6.61466455459594727
-1.11175251007080078 36.3375244140625 8.07556438446044922
2.61828708648681641 81.5537109375 -0.394451677799224854
1.23048269748687744 -25.8334999084472656 7.03464365005493164
1.83596491813659668 91.28594970703125 5.46822690963745117
-7.93726921081542969 -38.6105461120605469 -5.44885873794555664
-5.26486682891845703 -16.3738517761230469 1.05164933204650879
-1.05477893352508545 39.4989852905273438 14.2816858291625977
-5.50820493698120117 -19.2137660980224609 0.771465003490447998
6.08418703079223633 -44.34619140625 2.4863433837890625
0.210912838578224182 -43.9641342163085938 9.99326801300048828
-0.515210211277008057 82.5181121826171875 -6.42347526550292969
4.89876317977905273 -82.8389511108398438 3.36467957496643066
2.73033833503723145 59.5740737915039062 4.48436975479125977
-4.36661624908447266 -16.8971176147460938 3.29161214828491211
2.21602869033813477 44.6612281799316406 -11.1458091735839844
2.95972800254821777 52.6370429992675781 13.9587278366088867
3.7953498363494873 79.4150390625 8.62787914276123047
-0.658991336822509766 91.7359390258789062 3.84612250328063965
2.99826431274414062 78.87542724609375 -0.406964510679244995
-8.1502532958984375 -59.5329627990722656 -7.42293262481689453
-2.82480120658874512 -34.5089683532714844 8.134246826171875
-0.99485701322555542 75.05810546875 -0.739410638809204102
-0.0671168789267539978 46.50323486328125 -1.22996687889099121
2.84198570251464844 59.4058189392089844 12.8926773071289062
2.81953024864196777 103.6363525390625 -4.99727344512939453
0.277558326721191406 -32.36358642578125 8.54898166656494141
-7.12158823013305664 -90.3199386596679688 2.02896666526794434
-1.11772012710571289 28.1832599639892578 -4.31648969650268555
-5.28980255126953125 -15.1226272583007812 -8.27628803253173828
-6.0507512092590332 -27.2271785736083984 -9.40090656280517578
2.02431416511535645 52.4494285583496094 14.0947771072387695
5.24536800384521484 -44.0277786254882812 -9.86985206604003906
3.0051274299621582 57.8638191223144531 13.1569728851318359
5.4789586067199707 -75.3823776245117188 -2.63274645805358887
-7.12965202331542969 -47.849700927734375 4.34084129333496094
2.5194709300994873 54.5237464904785156 0.555663645267486572
-4.03063344955444336 8.80795383453369141 13.4478893280029297
-0.7721366286277771 79.0934906005859375 7.89195013046264648
-1.72609794139862061 26.3565616607666016 14.2117233276367188
4.78618335723876953 -18.9232883453369141 0.245622754096984863
1.86267685890197754 33.8511619567871094 -6.74437522888183594
-0.960141897201538086 34.2217330932617188 0.785904049873352051
-2.03443169593811035 -82.9127044677734375 -8.91178226470947266
-2.91173434257507324 18.7162837982177734 -5.01435041427612305
2.53064656257629395 29.7911243438720703 4.34271335601806641
-0.365773677825927734 -40.361785888671875 -12.8979549407958984
-7.99868011474609375 -52.0116767883300781 1.2671893835067749
0.480387449264526367 43.238861083984375 -12.6273107528686523
4.93889141082763672 11.8675174713134766 -1.10209834575653076
3.37164497375488281 104.605461120605469 -3.2362828254699707
4.07586050033569336 -7.90342950820922852 -5.45625162124633789
-6.61481285095214844 -23.5521373748779297 -5.4411168098449707
-4.42969369888305664 8.95593547821044922 -8.14844322204589844
-8.41834163665771484 -47.8001556396484375 -6.16567182540893555
-0.721510946750640869 60.0911102294921875 -0.146192118525505066
2.8042147159576416 12.4361400604248047 16.3873710632324219
-4.54882192611694336 14.1139335632324219 2.09182000160217285
3.4602203369140625 65.590087890625 6.95916414260864258
-2.75644683837890625 6.45478677749633789 13.8519001007080078
-2.16700887680053711 15.8359766006469727 7.06572246551513672
-4.26071929931640625 -13.841670036315918 3.22831630706787109
-1.55223846435546875 12.2260360717773438 -12.3225460052490234
3.17995524406433105 96.0909652709960938 -1.23957252502441406
-1.53583121299743652 29.9335861206054688 13.1413545608520508
4.77975749969482422 -26.8018474578857422 -7.98829412460327148
2.37884306907653809 49.0308036804199219 14.5407094955444336
5.07127523422241211 -47.7723884582519531 6.81283760070800781
0.554669380187988281 -80.1244583129882812 -9.23959064483642578
2.20004987716674805 16.9161796569824219 2.85690116882324219
1.86653780937194824 6.60125541687011719 15.7580471038818359
5.79902791976928711 -34.1008453369140625 -2.85803890228271484
-5.0037531852722168 6.04148578643798828 5.80351543426513672
-5.06700563430786133 0.471253097057342529 -0.63515162467956543
4.58522891998291016 -85.2319259643554688 -3.1382758617401123
4.16850852966308594 -57.3162574768066406 -10.6319675445556641
3.694366455078125 69.0470962524414062 7.48557662963867188
-0.842770636081695557 50.304962158203125 5.37027454376220703
2.96167469024658203 36.0318107604980469 6.20537376403808594
-0.0135344052687287331 -59.1507492065429688 -12.2964038848876953
2.53009319305419922 66.8593368530273438 -9.47317695617675781
-3.53890562057495117 -11.7345123291015625 -10.4068984985351562
5.82648420333862305 -59.6381340026855469 -6.6194758415222168
-0.807953059673309326 69.5343704223632812 2.91140460968017578
4.67589426040649414 -87.14794921875 1.69862639904022217
2.90883016586303711 -13.3648386001586914 -9.82069110870361328
-4.05701351165771484 -11.8549776077270508 3.31117773056030273
-4.43627405166625977 10.6804103851318359 8.41791629791259766
3.48412275314331055 77.5299606323242188 2.5183112621307373
2.65241169929504395 87.6525115966796875 0.998322010040283203
-1.27896261215209961 68.157989501953125 -8.73869514465332031
-1.5200420618057251 32.4442024230957031 -11.7871999740600586
-2.70410275459289551 2.7793278694152832 10.7203683853149414
2.60655879974365234 -75.6151046752929688 -9.29774856567382812
2.48940300941467285 -39.2987213134765625 8.45974445343017578
2.30991911888122559 34.749755859375 15.5894718170166016
4.19977283477783203 72.9875411987304688 9.030059814453125
5.95487308502197266 -54.2494926452636719 -7.01119470596313477
5.36993217468261719 -69.7008819580078125 -5.69977092742919922
3.2310786247253418 -96.4863739013671875 -2.93324661254882812
-4.39234161376953125 10.5630970001220703 9.29185295104980469
3.57577300071716309 71.3293685913085938 10.2149581909179688
-3.09176993370056152 -7.9784541130065918 4.91114664077758789
5.5541224479675293 -31.5552806854248047 -4.41777896881103516
-4.28552818298339844 -63.7327537536621094 -11.2236204147338867
4.13274526596069336 -59.5013999938964844 8.65423202514648438
2.50756955146789551 32.3443984985351562 3.51327013969421387
-0.761387348175048828 51.0047683715820312 -1.38801360130310059
4.3896942138671875 7.98968410491943359 -5.85544967651367188
-0.859073638916015625 55.4386863708496094 -2.95020270347595215
-1.00941121578216553 -24.7642421722412109 -12.3631763458251953
1.22851455211639404 -67.5922622680664062 -11.114964485168457
-5.88986730575561523 -21.8628044128417969 0.157189682126045227
-6.46973323822021484 -39.0864410400390625 -10.5211696624755859
-1.56675302982330322 42.0166358947753906 -10.7322397232055664
-1.46585333347320557 34.0500335693359375 -7.59188699722290039
2.22737669944763184 -6.98507928848266602 7.72102689743041992
-2.81907296180725098 -60.7326431274414062 10.2327308654785156
-0.793769299983978271 53.4476699829101562 1.18837141990661621
-3.46630954742431641 -75.9277572631835938 9.53869056701660156
-5.61309623718261719 -10.8126535415649414 -3.91176652908325195
0.686777710914611816 -97.646392822265625 -4.12967348098754883
4.28582096099853516 -36.6190910339355469 -10.804779052734375
-0.736581206321716309 55.4152336120605469 2.26584219932556152
2.06009244918823242 56.1755943298339844 -11.1009464263916016
5.36127996444702148 8.53701210021972656 10.8963890075683594
1.93645262718200684 41.0945549011230469 15.2570581436157227
4.71055507659912109 -75.9406280517578125 5.97932100296020508
-2.57835102081298828 -35.1608085632324219 -12.5139703750610352
3.46908712387084961 -49.7779884338378906 -11.5212020874023438
5.07888221740722656 -60.5679473876953125 -9.23967266082763672
3.71839022636413574 71.3503341674804688 6.57149410247802734
2.60679459571838379 -75.3774337768554688 9.23990917205810547
-1.53796780109405518 22.5952968597412109 5.44220542907714844
2.59700846672058105 -93.2014236450195312 -5.2241058349609375
2.61968755722045898 85.6505966186523438 0.887673020362854004
0.962370693683624268 74.0499496459960938 -10.9112634658813477
5.05750703811645508 -20.2621479034423828 -1.63377118110656738
3.97599506378173828 54.5644340515136719 11.1317930221557617
-1.71356737613677979 17.8330478668212891 2.37682723999023438
-3.51979637145996094 -97.8821334838867188 4.77811336517333984
-6.77009344100952148 -94.144012451171875 -1.36067378520965576
5.73028993606567383 -63.2580375671386719 4.71262407302856445
2.67648887634277344 82.621856689453125 0.220406532287597656
6.45874214172363281 -47.1485023498535156 -0.782184243202209473
2.79041838645935059 22.1860713958740234 7.31216526031494141
2.64428472518920898 19.0561389923095703 -8.92317581176757812
-7.33087539672851562 -89.9481582641601562 0.629157662391662598
3.56135916709899902 -29.4243850708007812 -10.9539451599121094
3.34906291961669922 59.8397941589355469 7.91993904113769531
-2.71795344352722168 -16.5607089996337891 5.35259294509887695
2.97318840026855469 -82.2010116577148438 8.09548091888427734
-1.62155282497406006 20.1877861022949219 -2.3172309398651123
2.85097169876098633 53.4806976318359375 3.36973929405212402
-1.21093106269836426 16.3315334320068359 15.520329475402832
1.0026090145111084 73.48663330078125 10.3122720718383789
-7.19466114044189453 -45.3111801147460938 3.59578275680541992
-1.55773317813873291 21.0235939025878906 2.4456634521484375
-5.42003059387207031 11.3830347061157227 0.515385329723358154
-2.17226433753967285 7.35507535934448242 15.1325416564941406
-3.15496253967285156 -4.77924156188964844 5.72526025772094727
-3.15530085563659668 11.2231836318969727 13.605158805847168
-0.382012248039245605 99.8165130615234375 1.0178530216217041
-1.60806667804718018 2.24264907836914062 -11.8866024017333984
-3.85687565803527832 -31.8364696502685547 7.02266788482666016
-2.39973306655883789 -30.7846450805664062 7.81078577041625977
2.47114300727844238 23.1951580047607422 4.77799463272094727
2.98022842407226562 18.3361606597900391 -9.82205104827880859
-6.8555912971496582 -84.8347015380859375 -5.51448631286621094
-1.71568608283996582 -4.01344060897827148 7.46530675888061523
4.55017948150634766 -89.0242080688476562 -0.189386665821075439
-5.40087413787841797 -89.2100677490234375 6.4801793098449707
-1.08952677249908447 47.5872726440429688 12.5231246948242188
-7.66804265975952148 -73.951568603515625 3.21966648101806641
-4.60178995132446289 0.127945616841316223 4.53665494918823242
4.37156057357788086 -86.285247802734375 4.69198083877563477
0.921596825122833252 -60.9233283996582031 -11.9428653717041016
2.92127799987792969 98.0594253540039062 -5.17013788223266602
-1.02193748950958252 70.0460433959960938 -1.15474092960357666
3.6770026683807373 63.6559104919433594 8.46003150939941406
2.13495540618896484 16.5570354461669922 2.27815532684326172
-1.0884777307510376 40.773590087890625 3.27564024925231934
-6.49785470962524414 -95.3056640625 1.2557380199432373
-4.71890401840209961 -46.0167961120605469 -11.9593172073364258
1.2625727653503418 102.957534790039062 -6.79218721389770508
4.14689826965332031 72.6605453491210938 9.44217586517333984
1.56402790546417236 -84.6070709228515625 -8.15590000152587891
3.78983545303344727 36.6017494201660156 12.3081426620483398
3.31937766075134277 24.3916969299316406 11.1827545166015625
2.47033214569091797 -41.9926185607910156 8.85978984832763672
-1.60802376270294189 25.96697998046875 14.5198287963867188
4.63516664505004883 -13.3184394836425781 -0.0378275737166404724
2.86666727066040039 39.7682914733886719 7.17140913009643555
-0.720358133316040039 57.5953865051269531 2.30306434631347656
-4.91120243072509766 7.73148155212402344 7.69398784637451172
4.8561100959777832 -0.703270614147186279 0.82893216609954834
2.32234764099121094 48.801849365234375 -7.15790367126464844
-0.947795689105987549 61.1802558898925781 8.46624660491943359
-2.2570960521697998 14.238835334777832 11.1305656433105469
3.70622420310974121 58.4799537658691406 9.05147457122802734
5.91016530990600586 -47.0380630493164062 -7.45828962326049805
-0.499262332916259766 62.4680557250976562 11.7070779800415039
-4.54503726959228516 6.65738344192504883 9.49400997161865234
5.33068370819091797 4.0531620979309082 9.47250747680664062
-5.94148397445678711 -29.5188560485839844 2.50813984870910645
-2.00836730003356934 16.3718605041503906 2.77006173133850098
3.71581745147705078 31.0382518768310547 13.0986061096191406
-6.62597131729125977 -53.1818580627441406 6.45035362243652344
-8.54556941986083984 -57.8947792053222656 -1.8386387825012207
2.88304877281188965 26.1002674102783203 9.27132320404052734
-8.67265987396240234 -62.3107337951660156 -4.49997329711914062
-5.43515205383300781 -66.16143798828125 -10.3781652450561523
-2.3503568172454834 -92.0193252563476562 -6.6411285400390625
4.80316448211669922 -18.9772872924804688 0.108054086565971375
3.92374730110168457 -47.5331230163574219 8.19601726531982422
-7.34285211563110352 -86.6076583862304688 -3.33034515380859375
6.37896490097045898 -45.58251953125 0.352670341730117798
1.86727821826934814 19.6249122619628906 -1.8810265064239502
3.71772670745849609 8.71486568450927734 -8.33530139923095703
3.89576935768127441 69.302978515625 9.54940032958984375
3.39391565322875977 16.6994438171386719 -6.02846240997314453
-1.03607463836669922 52.7994308471679688 9.36798667907714844
-6.81805944442749023 -34.0802345275878906 0.830346345901489258
-7.89512825012207031 -44.6645965576171875 -7.94083213806152344
-8.40657329559326172 -52.5966835021972656 -1.22485947608947754
-1.70613563060760498 32.2605781555175781 -10.6145057678222656
3.07360434532165527 16.7684364318847656 -5.42568111419677734
-0.580501079559326172 81.1274948120117188 -9.55736637115478516
-6.77274131774902344 -70.4678878784179688 -8.48734283447265625
-6.92658758163452148 -52.7343025207519531 5.6108393669128418
-1.53909313678741455 26.6178073883056641 9.63950729370117188
4.46155071258544922 -7.69524335861206055 1.50730931758880615
-6.98784875869750977 -51.3815231323242188 -10.0892066955566406
5.92475080490112305 -36.5638046264648438 -0.889447629451751709
2.94155764579772949 34.5000801086425781 6.69896554946899414
2.29206061363220215 16.9378108978271484 -3.99684667587280273
3.46634840965270996 80.3760223388671875 2.49372172355651855
-2.09531402587890625 -42.7181015014648438 9.52986431121826172
6.02908849716186523 -41.0515174865722656 -5.70049095153808594
-1.85650718212127686 -34.3652000427246094 8.52936553955078125
4.28223848342895508 -7.97493076324462891 -4.13526821136474609
-1.01963400840759277 78.0764694213867188 3.43171310424804688
-1.93416965007781982 17.8453807830810547 -0.730224728584289551
4.65903902053833008 -3.16398978233337402 2.95428228378295898
1.79557919502258301 25.8984699249267578 -9.78748512268066406
-6.1701507568359375 -71.4286117553710938 -9.04958438873291016
3.62599587440490723 82.8277511596679688 3.31882476806640625
5.31923246383666992 2.1831362247467041 10.0629110336303711
-0.704390048980712891 -98.1560516357421875 5.71225595474243164
4.19757318496704102 -87.7200241088867188 -4.40118265151977539
4.6949467658996582 9.02480792999267578 -4.8499913215637207
-2.46643924713134766 -99.8876571655273438 2.12952542304992676
4.10737848281860352 -92.6354522705078125 1.51576077938079834
-4.7336430549621582 -95.4032135009765625 -4.81687688827514648
1.78502535820007324 19.8649559020996094 -2.8596184253692627
0.415596365928649902 -30.1566562652587891 -12.2833147048950195
-2.51783514022827148 -14.5442790985107422 -11.5731344223022461
-5.44783496856689453 -69.283355712890625 -9.93087291717529297
4.34951400756835938 -38.9123687744140625 6.6929316520690918
1.89201152324676514 -84.4858245849609375 -8.02173805236816406
3.8157963752746582 14.9681663513183594 12.9804506301879883
5.34088516235351562 8.75629711151123047 0.448731273412704468
-1.53060007095336914 39.6882591247558594 -8.46521472930908203
5.79579782485961914 -55.2912826538085938 4.95363426208496094
1.53500854969024658 -48.7018318176269531 9.85296154022216797
-0.404732018709182739 42.5887680053710938 -4.50251579284667969
-0.951545119285583496 81.1749801635742188 2.29582071304321289
-1.015419602394104 30.7267913818359375 2.60736370086669922
0.843318521976470947 35.2012825012207031 15.6134815216064453
-6.27378654479980469 -41.1930503845214844 5.67399787902832031
-6.93112802505493164 -85.6021041870117188 4.37045717239379883
2.82125496864318848 64.0228347778320312 -1.95880663394927979
3.34358334541320801 -24.7751083374023438 5.11702108383178711
-6.29107046127319336 -67.3644027709960938 7.39208555221557617
5.50579833984375 4.67760419845581055 4.25643634796142578
4.06670427322387695 -31.1479015350341797 -10.4863471984863281
-0.741736888885498047 57.76666259765625 -11.7944850921630859
-0.716411411762237549 59.4084930419921875 4.35381364822387695
5.44181203842163086 -35.5381355285644531 2.90682387351989746
-1.27345919609069824 62.3914947509765625 -6.81298112869262695
4.87426662445068359 6.06401777267456055 -3.1365044116973877
2.08763861656188965 33.7838401794433594 -1.35315096378326416
3.11788344383239746 -16.0146751403808594 -9.90027046203613281
-6.13300132751464844 -31.5541152954101562 2.51384925842285156
-1.99396598339080811 -68.7129364013671875 -11.3367214202880859
-1.03390610218048096 87.977508544921875 3.41050291061401367
6.12607479095458984 -41.7550926208496094 -5.2648463249206543
-0.651930153369903564 46.5745315551757812 -5.05197048187255859
4.73403739929199219 -66.391387939453125 7.34681272506713867
4.08253192901611328 -11.5094175338745117 -5.90825605392456055
-4.43383121490478516 15.4604616165161133 -3.86042308807373047
-0.723488152027130127 62.991943359375 0.163043886423110962
2.22871661186218262 26.1682949066162109 3.50511074066162109
4.87758541107177734 -47.7060585021972656 -10.4487991333007812
-0.981062591075897217 51.5954170227050781 -4.81382560729980469
-4.38106107711791992 -20.3784828186035156 4.00733757019042969
-6.05689001083374023 -88.5751266479492188 -5.72335243225097656
-1.10368835926055908 39.942047119140625 3.22574162483215332
1.71144437789916992 23.71185302734375 -8.39718914031982422
-6.68723917007446289 -35.5482673645019531 -9.85132408142089844
2.38488054275512695 -99.391632080078125 -0.369803786277770996
1.14301025867462158 58.8087425231933594 13.0695629119873047
0.92749333381652832 49.3011245727539062 14.3599472045898438
0.816211104393005371 95.4962539672851562 4.01108169555664062
-6.01554584503173828 -19.078826904296875 -7.06094837188720703
-5.15162992477416992 -6.29060268402099609 -0.465367585420608521
0.501700520515441895 5.59633874893188477 15.3143987655639648
-7.78358650207519531 -46.0688667297363281 1.17479979991912842
1.67474448680877686 45.9517021179199219 14.5989274978637695
5.67403173446655273 -54.5269241333007812 -8.54530525207519531
3.25945377349853516 -3.16825509071350098 8.93218421936035156
-5.30306386947631836 -14.0157794952392578 0.45028802752494812
2.38136816024780273 54.9758033752441406 -2.46498680114746094
-5.19463300704956055 -9.69320774078369141 -0.112388141453266144
-1.3486168384552002 31.7358627319335938 -2.0294342041015625
-0.640367329120635986 -16.4791107177734375 6.79947900772094727
4.83131694793701172 -85.3759078979492188 1.78912878036499023
-4.00048685073852539 -23.5988368988037109 5.18538856506347656
2.6788337230682373 74.0091476440429688 -6.30227136611938477
3.16689848899841309 82.7240447998046875 1.67943394184112549
-4.53267145156860352 -16.2211532592773438 -9.72246170043945312
-0.948495626449584961 83.4016799926757812 2.72704076766967773
5.27706098556518555 -80.5144577026367188 0.706454336643218994
-2.88650774955749512 -55.3468055725097656 -12.4599542617797852
-1.45806443691253662 22.81890869140625 -0.642255127429962158
6.10431575775146484 -40.7665901184082031 -5.08084726333618164
-0.364264070987701416 90.2932662963867188 -8.57737922668457031
-5.92577981948852539 -17.5184745788574219 -6.94757175445556641
-4.82200384140014648 -1.25327229499816895 2.48156547546386719
2.41792488098144531 54.620880126953125 -8.47256565093994141
0.413376808166503906 104.548583984375 0.176713690161705017
3.15944099426269531 -1.53228652477264404 10.2221689224243164
3.61759781837463379 -91.0304489135742188 5.08034944534301758
0.56333625316619873 -14.1558399200439453 -11.9225959777832031
3.90912556648254395 83.071929931640625 6.95859098434448242
-0.838964641094207764 80.3078155517578125 -1.42868459224700928
3.45444560050964355 -5.43033647537231445 -7.6987462043762207
1.55602610111236572 28.8574314117431641 -4.22409868240356445
1.06144034862518311 48.0620613098144531 -12.3874330520629883
5.54700136184692383 4.06697416305541992 6.21014022827148438
-0.144871935248374939 -47.1212730407714844 10.3403158187866211
1.56766533851623535 47.4243278503417969 -11.9958896636962891
-5.14241456985473633 -13.2487859725952148 0.80415654182434082
5.33435869216918945 -67.7124252319335938 5.39169025421142578
3.35450243949890137 0.418047577142715454 11.8736391067504883
-3.89095950126647949 14.895838737487793 -7.85803461074829102
3.70443487167358398 24.4575881958007812 13.1904802322387695
-3.07753539085388184 -50.0284004211425781 9.80063533782958984
-8.17119503021240234 -72.2091598510742188 0.449375450611114502
5.9730682373046875 -56.4716529846191406 -6.51871061325073242
3.3497166633605957 79.1493453979492188 1.34976470470428467
2.77718472480773926 65.8480300903320312 -3.84832119941711426
-2.55930280685424805 -92.1685028076171875 7.59220743179321289
-3.71472549438476562 -43.2013511657714844 -12.4498825073242188
2.04661893844604492 -78.277862548828125 -9.13850116729736328
4.373321533203125 -35.0016212463378906 -10.5188684463500977
2.26256942749023438 18.7800369262695312 -11.2501726150512695
5.86659574508666992 -46.2540054321289062 4.29723548889160156
2.65036773681640625 62.5080299377441406 -5.62759923934936523
-5.45706796646118164 -15.002751350402832 -7.73353433609008789
0.174616843461990356 6.79011631011962891 15.6112937927246094
-2.42155814170837402 -34.7454872131347656 8.36117839813232422
6.3156132698059082 -43.4049453735351562 -0.20820152759552002
-5.2260136604309082 8.81398105621337891 5.61010169982910156
2.63245582580566406 60.2083663940429688 -4.32188224792480469
5.00211238861083984 -20.3317127227783203 -1.16899096965789795
-4.95007896423339844 13.3237361907958984 -4.94252300262451172
-8.29149913787841797 -43.1266441345214844 -4.73212099075317383
-2.51370978355407715 -34.7064170837402344 -12.5169296264648438
-1.18602430820465088 37.4056358337402344 -12.4174098968505859
-2.24014544486999512 14.4601078033447266 10.6286592483520508
-0.35003197193145752 35.2481842041015625 15.4423036575317383
1.6393812894821167 21.2179069519042969 -4.48118019104003906
4.13817214965820312 46.6639328002929688 14.0964832305908203
-7.72062969207763672 -37.3326416015625 -6.95257234573364258
3.09687066078186035 -15.3059625625610352 -9.82866382598876953
5.42484188079833984 -78.0258102416992188 -0.101485021412372589
-2.81344795227050781 4.30210733413696289 11.7531194686889648
2.43465495109558105 25.4607276916503906 4.40601444244384766
-2.64539599418640137 -79.3566741943359375 -9.48042774200439453
-1.23654353618621826 5.77173042297363281 14.7385444641113281
-0.693675398826599121 65.5112991333007812 1.40383589267730713
-5.08129119873046875 1.29383218288421631 -0.332107901573181152
-2.66662240028381348 -30.7619304656982422 7.6636357307434082
2.48692870140075684 18.5377998352050781 -7.74240493774414062
-4.91290378570556641 -3.3075258731842041 -5.88369369506835938
-7.37001466751098633 -33.6313858032226562 -2.79918241500854492
-7.59702491760253906 -85.914337158203125 -2.48129701614379883
-0.980585277080535889 -8.78556632995605469 7.04123163223266602
5.53061914443969727 -64.2746124267578125 -7.08836936950683594
1.70024013519287109 -91.3793716430664062 7.31732892990112305
3.55797672271728516 84.09954833984375 3.22437310218811035
2.08498525619506836 36.401947021484375 0.134273812174797058
2.56476974487304688 59.2250900268554688 -5.28833627700805664
-8.68150901794433594 -57.2683525085449219 -5.287506103515625
-7.32057905197143555 -47.4691390991210938 -9.54757976531982422
3.00951075553894043 26.2252559661865234 10.521946907043457
4.79674768447875977 -16.6811866760253906 -2.47905540466308594
3.06027317047119141 -13.7398290634155273 -9.63956546783447266
-6.71376943588256836 -25.4741744995117188 -3.14574837684631348
2.86548447608947754 100.476806640625 -5.36577129364013672
5.75729131698608398 -38.3790473937988281 -6.41464376449584961
-1.02404224872589111 -13.4488191604614258 6.86348247528076172
1.50991463661193848 -62.9087791442871094 10.5356988906860352
-3.08979940414428711 -1.4153670072555542 7.34148216247558594
-5.49841213226318359 -41.6791343688964844 7.16307735443115234
3.16865754127502441 -93.87835693359375 4.74264907836914062
-3.12736606597900391 -35.384002685546875 -12.3402471542358398
2.52239155769348145 1.50697410106658936 13.5595664978027344
-7.46422672271728516 -35.505767822265625 -7.51717472076416016
-0.945354044437408447 80.31103515625 -8.22286796569824219
0.986507952213287354 -92.0534591674804688 7.60396766662597656
-4.74276351928710938 -49.1979408264160156 -11.8880805969238281
-0.768440723419189453 60.6340255737304688 11.7325506210327148
1.91421949863433838 46.4478988647460938 -2.06061124801635742
-1.16778826713562012 29.5627422332763672 9.17941570281982422
2.60731315612792969 92.7992324829101562 -2.3755805492401123
4.84908199310302734 -45.7314796447753906 6.97523260116577148
1.84399640560150146 18.0576286315917969 -2.31038594245910645
-1.88608765602111816 -61.3790550231933594 10.5923118591308594
1.92785251140594482 17.4442577362060547 -0.883376419544219971
1.30849337577819824 50.3872795104980469 -12.2067956924438477
-0.383763670921325684 70.7541885375976562 10.1192741394042969
-1.42191970348358154 24.0611763000488281 3.85328817367553711
6.45519781112670898 -56.0743484497070312 -0.518370211124420166
-5.31199407577514648 -99.1213150024414062 -0.0436165742576122284
-4.7177581787109375 -99.4908599853515625 0.618385732173919678
4.70556211471557617 -4.17036867141723633 6.27683019638061523
3.99075102806091309 21.9890174865722656 14.0077972412109375
-4.13139486312866211 10.5310993194580078 13.3340969085693359
-8.62157440185546875 -61.289154052734375 -2.29712390899658203
-4.8204345703125 14.5459871292114258 -4.64827251434326172
2.01479411125183105 39.7206687927246094 -0.149752825498580933
3.4507591724395752 -95.8479843139648438 2.7695162296295166
4.10493850708007812 -71.1203994750976562 -8.90257453918457031
-7.75675582885742188 -77.5234298706054688 2.44536590576171875
-2.30657005310058594 -35.9426231384277344 8.55737590789794922
-0.634176313877105713 49.6972084045410156 -0.271762102842330933
5.53599262237548828 4.04160451889038086 6.05521821975708008
-6.1938624382019043 -56.5350303649902344 7.58130311965942383
-2.75547671318054199 19.0693569183349609 -8.21108436584472656
-2.89737224578857422 18.9199924468994141 -6.63923978805541992
3.67829322814941406 -37.4820671081542969 7.20729732513427734
1.00215184688568115 79.5649642944335938 -10.4271831512451172
-1.20731055736541748 35.5062751770019531 3.94651556015014648
4.04844856262207031 57.9133567810058594 10.8337783813476562
4.02164506912231445 -9.57555198669433594 3.79295587539672852
-0.168093010783195496 33.4298286437988281 15.5028724670410156
-1.34773826599121094 58.9226875305175781 -8.05104732513427734
-7.18953132629394531 -49.5986518859863281 -9.77089595794677734
2.15944623947143555 87.2578125 -1.99061477184295654
-1.15696167945861816 49.9514236450195312 10.5142717361450195
-2.55239701271057129 -38.2011680603027344 8.77644443511962891
1.73283636569976807 31.5066928863525391 -5.37461614608764648
1.99793028831481934 -86.1192398071289062 -7.56119632720947266
-6.74727582931518555 -93.2367172241210938 -2.25042915344238281
3.6616816520690918 7.14096832275390625 14.9918012619018555
-5.54796075820922852 -35.5101737976074219 5.70411586761474609
2.29204154014587402 50.5123672485351562 -6.04898691177368164
-5.08675861358642578 0.109412312507629395 -2.93361687660217285
2.91477799415588379 14.9110612869262695 7.60199165344238281
-3.52768445014953613 -45.9661750793457031 -12.5295581817626953
-1.65360856056213379 20.1303005218505859 15.0367460250854492
-0.686220765113830566 -36.2639617919921875 -12.8195514678955078
2.66620063781738281 78.5992050170898438 -1.50928020477294922
1.16790342330932617 56.1679649353027344 -12.0115442276000977
-5.59891128540039062 -10.7378597259521484 -3.98357248306274414
3.04118609428405762 62.3050384521484375 5.16738224029541016
1.1200786828994751 -89.59002685546875 -7.04285049438476562
2.78040385246276855 31.2206878662109375 10.2943754196166992
-0.856013178825378418 38.7282524108886719 0.389996260404586792
4.56145572662353516 -5.61832189559936523 1.05438232421875
3.94063639640808105 74.6950759887695312 6.39567899703979492
2.91028261184692383 92.2653732299804688 -3.68083953857421875
5.50006818771362305 -52.0295219421386719 6.10292243957519531
3.8666839599609375 75.938140869140625 5.51646566390991211
-0.28789210319519043 100.826400756835938 0.924269497394561768
1.40813183784484863 -30.1377067565917969 7.81157922744750977
2.02721548080444336 -47.0601348876953125 9.53959274291992188
1.36463284492492676 32.7614173889160156 -11.9449119567871094
2.44700717926025391 56.9146690368652344 -2.58991074562072754
2.69121479988098145 59.9072303771972656 2.53389453887939453
3.64506077766418457 18.6853408813476562 12.0327043533325195
-0.62037193775177002 87.7861251831054688 1.13840079307556152
3.69407820701599121 7.84565019607543945 -8.26142692565917969
1.60022449493408203 22.4176616668701172 -4.53099727630615234
0.104859456419944763 -77.59112548828125 -9.88002300262451172
2.15628528594970703 28.0766143798828125 2.21649289131164551
-4.03423738479614258 -87.575836181640625 -7.4096369743347168
3.28747439384460449 76.6011505126953125 0.974058389663696289
1.59619390964508057 57.66632080078125 -11.6549797058105469
5.26000642776489258 3.61479306221008301 2.94187521934509277
2.44835114479064941 -57.5167236328125 -11.6808433532714844
-0.36323469877243042 -100.330093383789062 0.441964387893676758
0.802541792392730713 -58.9831085205078125 10.5777730941772461
3.9875941276550293 66.8817977905273438 9.80320167541503906
3.12691926956176758 17.0699176788330078 8.92741298675537109
-4.71204996109008789 -84.99847412109375 7.90941190719604492
-1.1496884822845459 32.4824333190917969 -12.5901098251342773
-8.49707794189453125 -48.4607734680175781 -3.32124710083007812
0.108666040003299713 62.4836540222167969 12.2063388824462891
-0.75395810604095459 69.1195220947265625 3.97658324241638184
3.28589773178100586 66.3162994384765625 5.43652868270874023
-1.37425506114959717 24.8138427734375 -3.60928177833557129
3.24730539321899414 70.3261337280273438 1.20862901210784912
-6.94028806686401367 -36.3333778381347656 1.30133903026580811
2.19042706489562988 23.2633438110351562 16.4527797698974609
4.61956024169921875 -50.8602485656738281 7.78856992721557617
1.47188174724578857 75.109527587890625 9.99851226806640625
4.79359292984008789 -16.6017398834228516 -2.3011479377746582
0.148285895586013794 1.51406049728393555 -12.1212558746337891
4.83595180511474609 -23.4283943176269531 1.167000412940979
-6.06593084335327148 -18.2430667877197266 -2.00400090217590332
3.03462100028991699 67.1022262573242188 0.0877068266272544861
1.98483288288116455 21.6466598510742188 -0.358724474906921387
-3.87449431419372559 -40.8582763671875 8.52885532379150391
3.09192061424255371 -96.6866836547851562 -3.09968447685241699
-7.44568920135498047 -43.4536170959472656 1.86271250247955322
-1.28413498401641846 38.5464706420898438 8.93049144744873047
2.67415332794189453 25.8262405395507812 6.37402248382568359
3.40742945671081543 71.9611892700195312 2.79060816764831543
-7.24558401107788086 -62.9318313598632812 -9.14182567596435547
0.361429423093795776 -62.6433639526367188 10.935328483581543
5.51401424407958984 -62.8722152709960938 5.6579442024230957
1.77340245246887207 -3.28876304626464844 10.0634841918945312
5.92965173721313477 -56.8641815185546875 4.4456181526184082
-5.83890104293823242 -13.52166748046875 -3.74526691436767578
2.53910517692565918 -83.0268096923828125 8.36120033264160156
6.23308992385864258 -41.301605224609375 -1.00500953197479248
-1.01988613605499268 48.6544685363769531 7.94975471496582031
-1.49020731449127197 52.2003936767578125 -10.3588438034057617
-5.60396766662597656 -73.3522796630859375 -9.27712726593017578
2.41948747634887695 60.8228530883789062 -9.69147968292236328
-1.42093193531036377 53.3908615112304688 -10.5968418121337891
1.12224662303924561 35.8092041015625 -12.3632307052612305
-5.76949119567871094 -98.4074554443359375 -1.27703249454498291
-0.780637800693511963 65.1368637084960938 0.211505413055419922
1.0623176097869873 10.2806901931762695 -11.9267196655273438
1.16179490089416504 2.68681216239929199 14.3933792114257812
4.52809906005859375 -2.58770465850830078 -2.93677902221679688
1.2202984094619751 -74.1356887817382812 10.0633459091186523
2.5524294376373291 59.5185203552246094 -6.62065601348876953
3.30279302597045898 23.6569061279296875 10.9580450057983398
-2.55826997756958008 -45.5733642578125 9.75344944000244141
1.79335010051727295 -17.5960006713867188 -11.2361478805541992
-2.73214435577392578 18.7994899749755859 -5.77481508255004883
-2.26517224311828613 -56.1647529602050781 -12.5605306625366211
4.02352714538574219 4.34757375717163086 -6.58637809753417969
3.71862006187438965 12.8477888107299805 -8.79639434814453125
-0.754171311855316162 53.1801567077636719 8.024505615234375
2.75010037422180176 -34.6527290344238281 -11.7538356781005859
-2.3892664909362793 -78.8865585327148438 9.77575016021728516
0.015424300916492939 35.1273574829101562 -13.1150960922241211
1.24576616287231445 64.6244354248046875 -11.5059804916381836
-4.65699243545532227 -79.2348709106445312 8.66527652740478516
-4.78474712371826172 9.59167957305908203 -6.62672853469848633
5.30014610290527344 -31.8787841796875 1.92771637439727783
6.28123140335083008 -53.0783576965332031 -5.44423913955688477
3.55583286285400391 -21.8623294830322266 4.38207387924194336
-1.60886180400848389 40.1991767883300781 -9.55591392517089844
1.53998672962188721 45.1655616760253906 14.6093549728393555
4.93283224105834961 -0.00861085206270217896 3.37542986869812012
2.15761756896972656 77.6583328247070312 -9.73710346221923828
-1.24945878982543945 35.7665824890136719 14.2491416931152344
-2.69875860214233398 -41.9867668151855469 -12.7537097930908203
2.7296748161315918 -8.90869617462158203 -9.62488365173339844
4.69439220428466797 5.72450590133666992 -4.01895952224731445
2.74498701095581055 69.4091110229492188 11.0284404754638672
5.49946832656860352 11.7191715240478516 1.71694791316986084
-4.72624826431274414 8.02863597869873047 -6.88084745407104492
4.21996355056762695 -64.1473541259765625 -9.83041286468505859
0.131522595882415771 16.7594165802001953 16.0009956359863281
-4.01042747497558594 17.3600730895996094 -3.30605244636535645
5.40996122360229492 -64.7920150756835938 -7.53652095794677734
-0.369314193725585938 -72.0725860595703125 10.7677145004272461
-4.50235986709594727 -65.3310623168945312 9.37636947631835938
-0.664439737796783447 63.9557342529296875 1.21638238430023193
5.8397526741027832 -60.2542457580566406 -6.3809356689453125
5.24588918685913086 -73.1166000366210938 -5.05652904510498047
-0.64196854829788208 76.941436767578125 -10.3243656158447266
6.51100635528564453 -52.4429168701171875 0.385472416877746582
1.92640268802642822 43.3930168151855469 -4.83694648742675781
-6.16394805908203125 -27.1163578033447266 0.72970348596572876
5.23924970626831055 -55.3404350280761719 6.99593257904052734
-0.883076369762420654 53.2828712463378906 8.90143108367919922
3.5102226734161377 -3.81026554107666016 8.15085124969482422
-0.369736820459365845 21.5782127380371094 15.9768400192260742
4.78621816635131836 -2.03231287002563477 1.39612448215484619
-6.04366064071655273 -55.6335105895996094 -10.8071746826171875
2.09115839004516602 74.7941360473632812 10.1393976211547852
3.38580513000488281 -36.9049301147460938 -11.5652713775634766
-8.53830718994140625 -55.6036148071289062 -1.90147578716278076
3.13213944435119629 -85.2440643310546875 7.41921901702880859
2.38432669639587402 48.5895271301269531 -9.37646102905273438
-2.53250551223754883 4.3993377685546875 12.1847219467163086
1.43645143508911133 58.4709930419921875 13.1393928527832031
-3.1971285343170166 -28.7902507781982422 6.94311141967773438
1.87152779102325439 33.3136825561523438 -3.15225410461425781
3.08220481872558594 100.993415832519531 -4.32733774185180664
4.94692087173461914 -52.8008880615234375 7.65029191970825195
-7.79773044586181641 -38.8994331359863281 -2.51571059226989746
-6.4147334098815918 -21.2205543518066406 -3.22825717926025391
2.74138903617858887 61.3772621154785156 1.35918796062469482
3.2709963321685791 76.2225799560546875 0.894957363605499268
-3.62402081489562988 -43.4804725646972656 8.98688220977783203
-5.11579084396362305 7.82451486587524414 -3.65561819076538086
2.60726547241210938 16.7540817260742188 -4.15634441375732422
-7.8616032600402832 -79.3597793579101562 1.43868637084960938
-4.61147451400756836 3.91643714904785156 -7.0093073844909668
-5.45367050170898438 -9.65053558349609375 -4.30983638763427734
5.59754085540771484 -52.5121955871582031 5.7917327880859375
5.17526531219482422 3.48985457420349121 1.86094319820404053
6.09608888626098633 -39.0363845825195312 -2.39369988441467285
-1.50475108623504639 12.2423505783081055 -12.3318910598754883
4.19024991989135742 -91.0418548583984375 -2.08858489990234375
-2.55801892280578613 -65.3019332885742188 10.3903789520263672
-0.936657071113586426 63.3712730407714844 7.80774927139282227
1.71674501895904541 22.7748184204101562 -9.24803256988525391
-0.725417435169219971 78.6157379150390625 -6.38385486602783203
-4.58759117126464844 -99.407928466796875 -1.25007200241088867
-0.419092178344726562 -0.0612405389547348022 11.1443471908569336
-4.69803524017333984 1.11246609687805176 4.45322275161743164
4.51077985763549805 -25.637908935546875 -8.61095237731933594
2.55308127403259277 77.7650375366210938 -5.13744163513183594
6.40794658660888672 -53.393646240234375 1.400229811668396
-5.78956413269042969 -68.5814285278320312 -9.77540683746337891
4.47448205947875977 -3.78694844245910645 -3.05675911903381348
2.93505191802978516 43.0271415710449219 4.49174308776855469
6.16602420806884766 -50.2985610961914062 3.01978087425231934
-0.749918997287750244 29.2829780578613281 15.4063720703125
-0.662540018558502197 41.6981582641601562 2.09991908073425293
-0.298452705144882202 51.8403472900390625 13.3887014389038086
0.745878636837005615 10.6092424392700195 16.3694515228271484
-6.52261447906494141 -63.0812034606933594 7.13145208358764648
1.01099157333374023 -35.5174789428710938 -12.4159469604492188
-1.06873297691345215 34.2905464172363281 -0.562592566013336182
-8.10166263580322266 -80.7151565551757812 -0.547888696193695068
4.18397903442382812 57.4637374877929688 11.3778877258300781
3.15706610679626465 -67.0435256958007812 9.28383159637451172
-1.13651180267333984 51.0190963745117188 -6.37436199188232422
-1.21822845935821533 38.9957427978515625 3.85881400108337402
-0.688811838626861572 59.2484703063964844 12.0375556945800781
-3.51803278923034668 -17.9953479766845703 -11.0109691619873047
-7.8078007698059082 -42.1202354431152344 -7.92198705673217773
-5.2659449577331543 8.50988197326660156 -0.196835413575172424
-7.29170465469360352 -32.0683631896972656 -5.47840213775634766
6.14875888824462891 -58.5183219909667969 -5.18163442611694336
-6.79475069046020508 -81.5182876586914062 -6.38794565200805664
-6.76694869995117188 -32.345947265625 0.380958735942840576
5.54948139190673828 4.77380943298339844 4.75968742370605469
5.7378087043762207 -35.5896377563476562 1.08816325664520264
-0.894710242748260498 102.16162109375 -5.95992422103881836
-7.84751129150390625 -64.2367324829101562 2.77539563179016113
-1.0746147632598877 74.149383544921875 -8.85995674133300781
-0.775575697422027588 54.3491249084472656 0.00241442793048918247
-1.53768718242645264 21.1972465515136719 0.0415349267423152924
-6.00577259063720703 -31.5420627593994141 3.02173662185668945
2.03850007057189941 26.6991939544677734 -0.0339299552142620087
-3.96568870544433594 -20.4603710174560547 -10.8179817199707031
2.54879665374755859 61.0870933532714844 -8.21561145782470703
3.47887802124023438 16.3335380554199219 -6.98451042175292969
-0.326905369758605957 38.7885856628417969 -13.0025711059570312
-4.67518711090087891 10.6563997268676758 5.83997344970703125
-1.08078896999359131 -51.7947959899902344 10.3252105712890625
2.52084636688232422 91.1609039306640625 -7.92065668106079102
-5.0132603645324707 -14.1820344924926758 -8.66385364532470703
-0.220749497413635254 43.169921875 -0.565320611000061035
-3.31700444221496582 6.7135014533996582 12.6357765197753906
2.78453445434570312 63.8254737854003906 -2.70858597755432129
1.81842339038848877 38.2915687561035156 -1.00009346008300781
-4.08710241317749023 -27.5294971466064453 5.94479179382324219
3.62395834922790527 94.7892532348632812 3.39912009239196777
1.38078153133392334 77.60986328125 9.52931308746337891
4.3643951416015625 74.845611572265625 9.36241912841796875
-1.140846848487854 68.0045166015625 -4.64633321762084961
-4.31728744506835938 -70.7790069580078125 -10.3818855285644531
-2.68079638481140137 -38.5087471008300781 -12.6569147109985352
3.85420727729797363 81.4410400390625 5.12864398956298828
0.976327836513519287 62.8024406433105469 -11.7273092269897461
3.07964944839477539 67.0797042846679688 1.39170289039611816
-3.09638428688049316 -1.18127739429473877 7.4736175537109375
3.10013127326965332 -74.311981201171875 8.923095703125
-1.87671065330505371 12.4522638320922852 -12.2091236114501953
2.96440482139587402 47.4336700439453125 5.79065322875976562
5.25114059448242188 -27.0485191345214844 -1.07540273666381836
6.12644290924072266 -39.3486785888671875 -0.371217668056488037
6.40303707122802734 -55.9784164428710938 -2.70713376998901367
3.55971813201904297 65.1399765014648438 7.6218104362487793
-5.74330854415893555 -87.8460693359375 6.41649389266967773
-0.406166285276412964 -30.4195842742919922 8.39850139617919922
-6.64679384231567383 -52.2538566589355469 6.28912973403930664
6.37452459335327148 -56.1839981079101562 -3.83918023109436035
5.07393646240234375 1.08724033832550049 4.89319753646850586
-7.19013404846191406 -64.0783309936523438 -9.08774089813232422
-1.21052670478820801 30.8906269073486328 11.2894878387451172
3.34927630424499512 84.3752593994140625 2.68377137184143066
-6.33275175094604492 -35.53045654296875 3.5397026538848877
-5.59582233428955078 -92.2032089233398438 5.56406593322753906
-4.69366025924682617 5.86399507522583008 8.29317855834960938
2.72545528411865234 -4.05359745025634766 -9.62621593475341797
2.78333139419555664 65.0045928955078125 -3.42687320709228516
-0.955060958862304688 80.2603836059570312 1.83988714218139648
-3.8318333625793457 -44.3861846923828125 8.96171283721923828
-0.19810117781162262 -72.88983154296875 10.6347427368164062
-0.120496004819869995 -91.9672622680664062 8.0570526123046875
-8.39384269714355469 -44.8058624267578125 -4.79063129425048828
4.51832294464111328 -12.3503932952880859 -1.73223602771759033
2.97669219970703125 63.4556198120117188 4.56788444519042969
-1.6794276237487793 20.2211341857910156 14.9803295135498047
1.05280649662017822 84.324859619140625 7.72359228134155273
2.69044661521911621 91.424407958984375 -2.42096114158630371
-4.3368220329284668 -0.41677895188331604 -8.09374332427978516
-0.932602643966674805 39.1177597045898438 -5.26161766052246094
-1.82286298274993896 22.0777511596679688 9.35832023620605469
-1.51048052310943604 -44.3555641174316406 -13.0456829071044922
-3.68973231315612793 -97.3953704833984375 -4.29680061340332031
-0.808131217956542969 53.8250541687011719 -1.66836190223693848
4.2511296272277832 -47.3925437927246094 7.84032726287841797
-7.82245016098022461 -43.3380317687988281 -0.0663832351565361023
-4.26569318771362305 1.97010660171508789 7.15131092071533203
-0.586053013801574707 90.8090744018554688 0.965248644351959229
-2.71919155120849609 -85.1739425659179688 -8.34467220306396484
3.14795684814453125 81.3513565063476562 -6.22923898696899414
0.888598859310150146 -47.3289031982421875 10.104191780090332
0.585403800010681152 -100.339614868164062 3.20615959167480469
1.31955254077911377 25.8432502746582031 16.0148773193359375
-0.499890774488449097 -65.6127166748046875 -11.7137241363525391
