ply
format ascii 1.0
element vertex 782
comment vertices
property float x
property float y
property float z
end_header
2.3885953426361084 70.5287399291992188 -2.65285372734069824
4.06305742263793945 8.30420017242431641 3.64652228355407715
-3.61338400840759277 52.7001113891601562 -2.74634361267089844
1.96342575550079346 34.9567031860351562 -7.82459259033203125
-2.93935322761535645 -24.3577098846435547 -10.9128522872924805
3.69074773788452148 -46.6790809631347656 -0.393909841775894165
4.02863597869873047 0.773407101631164551 3.17926478385925293
-4.23029041290283203 -15.6709461212158203 3.57448887825012207
3.01385283470153809 15.3892440795898438 -4.70947265625
-4.2831573486328125 79.1716537475585938 -0.349844694137573242
3.80464553833007812 39.5191497802734375 10.9617385864257812
-1.22574543952941895 43.7322158813476562 -9.970550537109375
1.31378507614135742 -2.29024457931518555 -6.53510618209838867
-3.12971854209899902 56.4323158264160156 -7.64576864242553711
4.57935571670532227 0.389483481645584106 13.4122047424316406
3.66522121429443359 -60.6039047241210938 -9.47670078277587891
2.06045627593994141 43.7070159912109375 -6.30101585388183594
1.86701107025146484 87.6644134521484375 -3.29894924163818359
-4.12767314910888672 -95.2091598510742188 4.68519687652587891
2.84878849983215332 80.7152023315429688 5.81056690216064453
-3.91702389717102051 50.673004150390625 10.5380325317382812
1.97803854942321777 14.8651847839355469 -7.56822776794433594
3.34556937217712402 -87.5627899169921875 6.83151817321777344
2.48450851440429688 83.498504638671875 -0.278549402952194214
3.62792181968688965 0.057896837592124939 16.0252780914306641
-2.28735113143920898 22.9473114013671875 -9.83498954772949219
-5.48914051055908203 -94.8996429443359375 1.38048887252807617
1.12623775005340576 -28.3248996734619141 -11.4132890701293945
2.07911252975463867 -58.4529457092285156 7.01767396926879883
-3.11397624015808105 9.12342262268066406 -8.39280605316162109
-1.50961339473724365 19.3877468109130859 15.5869131088256836
-3.61337852478027344 4.09912681579589844 6.88730144500732422
-5.46637296676635742 -90.5067596435546875 -0.949903011322021484
-3.59047818183898926 -2.83341765403747559 5.34648990631103516
-3.94971680641174316 27.0511894226074219 2.11288046836853027
3.42283987998962402 19.9300041198730469 -2.4817500114440918
3.66493058204650879 46.4019813537597656 5.38390350341796875
4.4240870475769043 12.4866218566894531 12.148747444152832
-0.195119708776473999 10.4128952026367188 -11.5721454620361328
-2.87871265411376953 10.0696239471435547 14.4672460556030273
1.63370013236999512 62.9994277954101562 -6.00728273391723633
-0.310948789119720459 -80.2178497314453125 -12.2255239486694336
1.40122330188751221 51.3758621215820312 -9.97071647644042969
1.39993321895599365 -7.03653669357299805 0.150855317711830139
3.0427851676940918 70.6695556640625 9.62488365173339844
3.97643256187438965 -34.1239051818847656 -6.80587053298950195
3.97516155242919922 34.2235832214355469 7.27844476699829102
-4.01128864288330078 33.1891403198242188 2.54909944534301758
1.96834897994995117 49.2081756591796875 -9.87932491302490234
-3.19300293922424316 9.71455574035644531 12.0966300964355469
-3.92080521583557129 57.7410354614257812 11.7413845062255859
0.15031154453754425 71.2585906982421875 -6.36775445938110352
-3.80462193489074707 -5.8977971076965332 -9.92573642730712891
4.11759614944458008 8.74602413177490234 4.38864517211914062
3.54879927635192871 -5.11695623397827148 -10.688715934753418
-2.96422052383422852 25.6211585998535156 14.4354839324951172
-4.84546566009521484 -89.8692779541015625 4.90836238861083984
-4.90345430374145508 -45.5687408447265625 -4.26333904266357422
2.73762702941894531 85.8471832275390625 4.62128973007202148
4.0433802604675293 31.3707771301269531 9.16957569122314453
-0.675085544586181641 49.5543403625488281 14.1555843353271484
-3.37260937690734863 -27.5988807678222656 -10.7105998992919922
4.73616218566894531 -94.0692520141601562 -6.41777753829956055
2.99890851974487305 -4.0414128303527832 12.9049148559570312
4.13718748092651367 -63.089508056640625 0.293942928314208984
-4.56487131118774414 81.3691940307617188 6.45255231857299805
3.29112148284912109 -79.7346115112304688 6.73133516311645508
3.02133941650390625 73.2693862915039062 7.79542112350463867
-4.98331785202026367 -55.4174232482910156 -8.57763481140136719
-1.29612505435943604 -79.1554946899414062 -12.1448984146118164
-4.18251562118530273 70.66204833984375 2.62504744529724121
-3.56541538238525391 30.815704345703125 -4.00697994232177734
2.24063539505004883 93.5193023681640625 6.8189544677734375
-2.67437458038330078 66.9290618896484375 12.1369781494140625
-4.49468612670898438 76.8855133056640625 7.484466552734375
3.26506567001342773 -24.8440265655517578 3.07128715515136719
-4.02154350280761719 40.4903030395507812 3.16933584213256836
0.567234456539154053 89.7517776489257812 -1.97999799251556396
4.3737030029296875 -79.9357833862304688 -3.44406366348266602
-0.182728946208953857 -0.576710283756256104 -9.23875331878662109
3.18567657470703125 -9.90999507904052734 5.48303556442260742
4.67203187942504883 -81.325775146484375 -0.51093977689743042
-4.46657371520996094 -11.701568603515625 1.52851247787475586
-3.37191271781921387 -74.9303054809570312 7.14989280700683594
1.33299827575683594 74.4875869750976562 -5.30154180526733398
-3.4648582935333252 89.7251815795898438 -0.660028517246246338
-0.44367864727973938 -57.9081840515136719 -11.9239006042480469
-3.49991607666015625 48.2958869934082031 -5.04468107223510742
-3.84456610679626465 31.3204860687255859 -0.653304159641265869
3.40852451324462891 -35.5345611572265625 3.11919713020324707
-2.34538531303405762 7.44596481323242188 -10.7153139114379883
-3.38295650482177734 5.62138986587524414 -6.04958295822143555
4.37543916702270508 -8.2080535888671875 -2.45700478553771973
-4.6993556022644043 -64.2924575805664062 -9.65499401092529297
-1.20316290855407715 61.2378158569335938 -9.64984321594238281
-4.08911705017089844 67.4740371704101562 4.14799737930297852
2.97306513786315918 27.6361846923828125 -4.43028593063354492
-4.88549184799194336 -66.8604354858398438 -1.8215031623840332
2.79980182647705078 0.109462462365627289 -4.86582040786743164
-5.18860530853271484 -84.9048538208007812 -1.89822220802307129
-2.03759598731994629 -25.7077903747558594 6.5401768684387207
4.30430221557617188 -90.0428237915039062 5.24875450134277344
-4.44054174423217773 80.3820114135742188 6.53084278106689453
0.298044770956039429 -0.495991557836532593 16.8579158782958984
-1.43252158164978027 77.75445556640625 -8.46835803985595703
-5.00302314758300781 -37.2189102172851562 -5.41168308258056641
-4.80261135101318359 -50.84844970703125 -1.91233992576599121
-1.85132670402526855 11.427149772644043 -10.9591083526611328
-2.31815195083618164 -1.90445399284362793 -11.4621782302856445
3.31020450592041016 51.9370155334472656 -7.63186979293823242
-2.78790497779846191 1.97856688499450684 14.4726667404174805
-2.6884300708770752 -13.9263238906860352 -10.8927879333496094
3.56261229515075684 36.8011245727539062 -0.186671912670135498
-4.39348077774047852 87.2042465209960938 0.257058709859848022
-4.80537128448486328 -43.4770851135253906 -2.01089906692504883
3.98738837242126465 -21.6401214599609375 -0.328586280345916748
2.53740859031677246 -33.2867622375488281 -10.6855602264404297
3.46219587326049805 -20.3870773315429688 -9.35261631011962891
2.16423583030700684 -6.72369909286499023 -2.71572971343994141
2.06996345520019531 -2.41791772842407227 16.8182487487792969
-3.12809348106384277 2.00619149208068848 -8.88764572143554688
-0.988444805145263672 -90.9168548583984375 8.39745616912841797
0.56913459300994873 12.3293523788452148 16.2814502716064453
3.78160405158996582 5.71482753753662109 1.11070764064788818
-4.06429624557495117 47.9326934814453125 3.52609515190124512
3.11845564842224121 47.8367347717285156 -0.118393972516059875
-5.23140954971313477 -77.9825592041015625 -6.61367988586425781
3.78357958793640137 -6.97067499160766602 -2.17671084403991699
-5.18664979934692383 -92.828887939453125 3.81062173843383789
3.49701476097106934 -4.34480667114257812 12.639796257019043
3.31329679489135742 68.1247024536132812 -8.16919040679931641
-3.686859130859375 9.78057289123535156 -2.12923860549926758
4.19428920745849609 -1.51844978332519531 5.05646944046020508
-3.3053593635559082 0.704624414443969727 10.0525569915771484
1.58260869979858398 -47.3334732055664062 -11.4714164733886719
3.02340173721313477 71.503631591796875 9.5002288818359375
3.87158799171447754 -47.1945075988769531 -7.82140111923217773
-1.60438859462738037 16.5944271087646484 15.7556056976318359
3.9530797004699707 -52.9513015747070312 -5.30782985687255859
0.850356101989746094 -4.2585453987121582 6.07252883911132812
4.427734375 -95.9770736694335938 -0.955816447734832764
1.81615805625915527 50.8654327392578125 -0.435989737510681152
2.67457842826843262 -31.6101646423339844 -10.553410530090332
4.07635164260864258 -25.3409595489501953 -1.35832047462463379
-3.72385835647583008 17.2840080261230469 -1.23078453540802002
3.34870696067810059 43.5096893310546875 0.0943769887089729309
0.737502396106719971 -75.0119552612304688 -12.0955514907836914
-3.90509867668151855 -35.607269287109375 -10.3230571746826172
-5.13302040100097656 -76.4970016479492188 -5.16759443283081055
4.02032375335693359 -19.4638385772705078 -4.41302204132080078
3.9013519287109375 35.1303215026855469 10.694148063659668
3.85207247734069824 26.0023536682128906 -8.9271087646484375
4.03694391250610352 -22.7958621978759766 -2.01878881454467773
4.39272260665893555 8.94816970825195312 9.83576774597167969
4.25171661376953125 -86.6895751953125 -7.69603586196899414
4.17598056793212891 -1.32726836204528809 4.92295694351196289
2.27720904350280762 21.2925052642822266 -10.7205305099487305
-0.932648301124572754 -5.68751096725463867 -11.21038818359375
-0.898124516010284424 11.9202604293823242 16.004730224609375
-1.4314655065536499 62.5521697998046875 -9.54459571838378906
-4.58607673645019531 83.1001052856445312 7.48468685150146484
3.6388394832611084 46.6412582397460938 4.92647409439086914
-5.02537727355957031 -61.8866500854492188 -6.16379833221435547
-3.32677841186523438 -30.2965946197509766 -10.7502336502075195
0.215288937091827393 32.6764450073242188 -10.5197010040283203
2.17849850654602051 -51.0670852661132812 -11.186863899230957
-4.45788335800170898 75.6487045288085938 6.284759521484375
-0.203744202852249146 -4.08875131607055664 15.3557577133178711
3.49152445793151855 49.6021461486816406 11.3210763931274414
4.23717594146728516 11.5027103424072266 14.3634462356567383
3.22465753555297852 17.9279384613037109 -3.58242630958557129
1.83285391330718994 -16.6853160858154297 -11.0377817153930664
3.72010993957519531 38.1646575927734375 -8.79372978210449219
-3.58903050422668457 22.3153591156005859 -3.53095483779907227
-3.36936378479003906 78.1521530151367188 10.6332874298095703
-4.81975364685058594 -19.2736930847167969 -2.34093999862670898
4.47478103637695312 -89.1716384887695312 -6.47578716278076172
-5.68858909606933594 -93.2652053833007812 -0.129497259855270386
0.459669589996337891 -53.2743339538574219 -11.8246288299560547
-5.23451757431030273 -80.3508148193359375 -7.33681297302246094
-3.64440393447875977 62.6164970397949219 -2.98870229721069336
-3.70805120468139648 0.369130700826644897 3.75444149971008301
-4.0061793327331543 -96.7064285278320312 -5.14140081405639648
-4.96300411224365234 -27.0039997100830078 -3.94349384307861328
-0.159229442477226257 -68.9446563720703125 -12.0819416046142578
-3.29951286315917969 1.56914019584655762 -6.93797159194946289
-2.75489068031311035 31.3758544921875 14.6135311126708984
2.88836312294006348 3.15649175643920898 -4.56566190719604492
3.71839213371276855 37.6941947937011719 1.6253892183303833
-3.89864993095397949 -45.443878173828125 3.7295997142791748
-2.29475617408752441 -74.475341796875 -11.8614797592163086
-0.552383244037628174 32.2383880615234375 15.1969213485717773
3.10850930213928223 -49.785491943359375 -10.2819633483886719
-1.20444154739379883 4.19669342041015625 16.4779510498046875
3.99444246292114258 31.2931289672851562 4.38081884384155273
-2.47380852699279785 -35.49920654296875 6.60283279418945312
-0.453732103109359741 -26.2360496520996094 7.04370355606079102
-3.62470006942749023 -6.49713659286499023 -0.965628325939178467
4.10089588165283203 -30.3075065612792969 -0.757942438125610352
0.377629369497299194 37.7014122009277344 -7.40854024887084961
-3.21111273765563965 8.05500888824462891 -7.72128534317016602
-4.01711606979370117 67.0654220581054688 2.26809501647949219
3.5898888111114502 -76.0256195068359375 6.25380849838256836
-2.04845857620239258 -23.9795951843261719 -11.2398214340209961
-0.546170949935913086 -51.5190467834472656 7.55426740646362305
2.68920588493347168 10.4425973892211914 -6.11548566818237305
4.04192018508911133 -20.7694625854492188 -4.72461271286010742
0.222019508481025696 55.465484619140625 -6.65188837051391602
-3.36666464805603027 -43.0247611999511719 -10.9011116027832031
-3.7890172004699707 31.0486869812011719 8.03098964691162109
-3.41034817695617676 52.9589347839355469 -5.6820979118347168
0.450820118188858032 -13.1467990875244141 6.9770965576171875
-4.45995664596557617 91.4142532348632812 7.90572071075439453
4.17720556259155273 9.96309947967529297 14.7355108261108398
3.87711262702941895 16.8203372955322266 14.6462125778198242
-4.06112289428710938 72.7109832763671875 -0.511811017990112305
4.18476247787475586 -74.6638717651367188 -0.693903267383575439
-2.56884670257568359 -35.3550834655761719 6.58183050155639648
4.11614799499511719 -35.8824653625488281 -2.99161624908447266
-3.79403352737426758 11.9346475601196289 0.0594853423535823822
2.35870194435119629 77.7838287353515625 -1.6701054573059082
3.25522494316101074 -34.3668937683105469 4.56272792816162109
3.3874211311340332 34.0775642395019531 -1.81516516208648682
-3.77253055572509766 12.5808124542236328 5.13507270812988281
-3.65332937240600586 91.9014892578125 8.25075054168701172
-3.69456815719604492 -66.5881881713867188 -10.9881162643432617
4.11195755004882812 26.1363925933837891 7.27257823944091797
-5.00041103363037109 -34.3160781860351562 -6.6938929557800293
4.14676475524902344 -74.599395751953125 -3.38203692436218262
3.89093780517578125 34.8796424865722656 11.3237428665161133
-3.7342064380645752 14.7638330459594727 -1.12183082103729248
3.46672725677490234 -41.059906005859375 1.78516614437103271
3.56651091575622559 50.6812782287597656 7.4134063720703125
-4.08559083938598633 67.8507843017578125 -0.288948148488998413
3.48026490211486816 -52.3188972473144531 3.6459801197052002
2.70013809204101562 48.7394561767578125 13.2451534271240234
4.20801305770874023 -75.4576492309570312 1.77223300933837891
0.736364483833312988 -88.91119384765625 8.23798274993896484
3.96645975112915039 -63.5417556762695312 -7.18818473815917969
2.62772774696350098 52.9486274719238281 2.29900026321411133
-4.81910562515258789 -27.8640308380126953 -0.729230225086212158
3.95199012756347656 -50.9164772033691406 -4.4253840446472168
-3.45751738548278809 8.92725181579589844 -5.18511676788330078
-3.30587935447692871 2.03231477737426758 10.3730239868164062
2.53349566459655762 43.8260879516601562 -4.4462590217590332
3.99205636978149414 13.2421808242797852 1.64121603965759277
-2.48106551170349121 19.5588779449462891 15.2540960311889648
2.59820461273193359 58.0898170471191406 -1.46562314033508301
2.83529305458068848 88.4693603515625 3.69035220146179199
3.44806647300720215 39.6449394226074219 -9.20563220977783203
3.9461369514465332 34.4127922058105469 4.7924799919128418
2.11085820198059082 -40.3094635009765625 -11.0936746597290039
-3.56710958480834961 24.8448905944824219 -3.62608671188354492
-3.87880277633666992 18.2335357666015625 1.75427091121673584
-3.30507469177246094 74.2361679077148438 -7.36475658416748047
1.9957578182220459 67.2908859252929688 -5.43838644027709961
-3.64479780197143555 -53.4373893737792969 5.54803228378295898
-3.70022487640380859 -41.618865966796875 4.85069894790649414
-4.24624395370483398 79.1376800537109375 -0.7374764084815979
3.15330028533935547 31.5601387023925781 -3.43932271003723145
3.96767234802246094 34.5091514587402344 8.16527938842773438
-3.97223186492919922 68.5537567138671875 -1.4372708797454834
4.03217267990112305 -26.3268032073974609 0.340464681386947632
-3.17159843444824219 -4.06469058990478516 11.8606433868408203
2.25400662422180176 49.1824531555175781 -4.86491489410400391
-3.40324902534484863 19.7532997131347656 -5.58283758163452148
4.25080251693725586 -92.9410324096679688 4.97466897964477539
-3.80411458015441895 -24.1219692230224609 -10.2926025390625
-5.3914189338684082 -87.1347274780273438 -6.73717451095581055
3.84733676910400391 21.2101497650146484 0.744216263294219971
-4.10490989685058594 61.4646224975585938 3.00790548324584961
3.77393913269042969 33.6637611389160156 1.21241676807403564
0.815183401107788086 94.7676773071289062 7.54822063446044922
-3.40624332427978516 -58.4971351623535156 6.22406673431396484
-4.20290088653564453 71.4668197631835938 1.99864304065704346
1.96865403652191162 24.7705879211425781 -8.21359634399414062
4.27892541885375977 -78.5233688354492188 -4.94021463394165039
0.789868056774139404 -2.86607050895690918 -6.63039302825927734
-3.04666352272033691 -94.311676025390625 6.64642524719238281
2.32330012321472168 -72.7652435302734375 7.20073890686035156
4.20778036117553711 21.6557254791259766 10.4650335311889648
-3.80240988731384277 47.693939208984375 -1.87098407745361328
-3.74110889434814453 -39.3392372131347656 4.65628862380981445
2.0463709831237793 89.6878280639648438 -1.42732107639312744
-1.13028502464294434 -27.7085151672363281 -11.4613542556762695
0.422226369380950928 5.59359407424926758 16.6200752258300781
3.99566769599914551 -55.2313804626464844 -0.995381534099578857
1.1874082088470459 19.7866668701171875 15.8753881454467773
4.61412668228149414 -86.13873291015625 -3.36793160438537598
-4.76369619369506836 -36.5127601623535156 -8.93720436096191406
-5.14368724822998047 -77.17535400390625 -8.55368804931640625
3.83563375473022461 34.13165283203125 2.12677788734436035
3.27648520469665527 19.2579936981201172 -3.29214024543762207
-3.66145062446594238 20.7625675201416016 8.62482166290283203
3.60643291473388672 -22.9622077941894531 -8.92917823791503906
0.502826929092407227 -90.630889892578125 -12.2045078277587891
-3.97163534164428711 78.4636611938476562 -3.35185647010803223
-4.48549079895019531 -76.4388351440429688 5.45636510848999023
-3.33695673942565918 81.255645751953125 10.0782127380371094
3.12527656555175781 -51.4305801391601562 -10.2743921279907227
4.27242565155029297 -79.1935653686523438 2.94716572761535645
2.38541913032531738 67.2930221557617188 6.69157218933105469
-4.70393466949462891 -9.44115352630615234 -8.47750949859619141
-4.44838142395019531 -17.2742748260498047 1.77081060409545898
4.09998703002929688 -23.7540302276611328 -4.62734317779541016
2.57606148719787598 -41.8544921875 -10.7462263107299805
-1.43709850311279297 -10.072840690612793 -11.1716470718383789
2.64333701133728027 67.2333908081054688 -0.123359695076942444
2.70632290840148926 -40.1863212585449219 6.02781820297241211
-5.48114204406738281 -89.5184326171875 -7.64658737182617188
0.293111503124237061 31.1993522644042969 15.3135910034179688
-3.93631410598754883 34.9261817932128906 0.789523899555206299
3.11395478248596191 66.65557861328125 6.33290481567382812
2.32202768325805664 45.2415199279785156 -9.86166572570800781
-4.97794675827026367 -50.35406494140625 -5.97514724731445312
-1.62749946117401123 66.319488525390625 -9.37729263305664062
1.98919308185577393 -39.271942138671875 6.66253376007080078
1.46090197563171387 79.4097061157226562 -7.98775148391723633
-3.67058396339416504 -0.333986520767211914 -1.12833774089813232
-3.04539060592651367 19.0569171905517578 -8.13823795318603516
0.421875983476638794 80.7296981811523438 -7.71411991119384766
-3.60553836822509766 31.8317813873291016 11.5261926651000977
3.60952091217041016 -46.9887580871582031 -0.261775970458984375
4.14902639389038086 -73.7562179565429688 -2.51701211929321289
0.291463971138000488 -70.0634002685546875 7.93695497512817383
4.42055749893188477 -95.9740142822265625 -0.88205111026763916
-2.8295738697052002 85.013702392578125 -4.67979049682617188
-3.35576796531677246 51.2743415832519531 -6.08723354339599609
1.37711381912231445 75.6591644287109375 2.21333622932434082
-3.52028417587280273 -61.4929885864257812 -11.0643329620361328
4.00303983688354492 -55.4832878112792969 -0.915664076805114746
-4.9600224494934082 -42.1305770874023438 -6.91510820388793945
3.97848153114318848 0.511921525001525879 2.84860420227050781
-2.56257224082946777 -70.6359481811523438 7.23300361633300781
-3.3636927604675293 -1.78763020038604736 -6.50132656097412109
-3.41475009918212891 -18.9355602264404297 5.07090520858764648
-3.6576385498046875 -4.3735356330871582 2.91092634201049805
0.642753779888153076 -76.2042770385742188 -12.1111726760864258
-1.94210243225097656 -51.8321723937988281 7.11545562744140625
4.57345342636108398 0.261369287967681885 11.9863080978393555
-3.98592615127563477 33.7702789306640625 3.22624421119689941
-0.103606283664703369 -96.4911346435546875 3.97705864906311035
4.5874934196472168 -81.501495361328125 -2.04490065574645996
0.65223926305770874 -85.4124526977539062 8.23131847381591797
3.10627055168151855 -46.671234130859375 -10.2165803909301758
-3.72814512252807617 -1.40515351295471191 1.80708837509155273
2.15850520133972168 -72.9722518920898438 7.34435510635375977
-2.64642810821533203 45.2383537292480469 -8.66296863555908203
1.14350724220275879 -0.860870659351348877 -12.257847785949707
2.89233517646789551 83.3142013549804688 -4.33984994888305664
1.1482621431350708 -91.597015380859375 8.12041759490966797
-4.95868253707885742 -65.08953857421875 -9.04570484161376953
-4.08128595352172852 -57.3974876403808594 -10.4255657196044922
-2.92669534683227539 2.00113606452941895 13.551234245300293
3.30547904968261719 34.9119949340820312 -7.85521459579467773
-0.847022354602813721 -77.2831344604492188 8.16436386108398438
3.79749727249145508 26.163970947265625 0.591412723064422607
-3.44764804840087891 37.2559127807617188 13.3074607849121094
2.81549477577209473 86.0856399536132812 -2.39135932922363281
-5.18804693222045898 -77.317840576171875 -8.05438232421875
-4.50056171417236328 -23.9259128570556641 1.84790527820587158
0.235659196972846985 -81.8715667724609375 -12.2174739837646484
2.30956387519836426 49.9838829040527344 -4.55457592010498047
-4.28919839859008789 -47.9125633239746094 -10.0309696197509766
4.08519840240478516 -26.1446990966796875 -1.79987537860870361
1.00139749050140381 -86.1647186279296875 8.16597270965576172
-4.01901054382324219 41.9371757507324219 6.12352848052978516
-3.02079057693481445 30.8610744476318359 -8.0213165283203125
-3.98502540588378906 58.1890754699707031 9.94901275634765625
-3.28876066207885742 -1.39897942543029785 -7.58857536315917969
4.11177825927734375 -26.8157119750976562 -4.15193939208984375
-1.5155947208404541 8.62903308868408203 16.0918998718261719
1.32286608219146729 69.8832931518554688 11.911036491394043
-2.26894307136535645 -87.0356521606445312 7.9829258918762207
3.64729452133178711 -29.7232418060302734 -8.88706111907958984
-4.87746238708496094 -53.6329765319824219 -8.89225101470947266
-0.565039992332458496 78.4861297607421875 -8.40523529052734375
-4.47188806533813477 -85.3972854614257812 -10.46978759765625
3.84097933769226074 40.3359146118164062 8.13311004638671875
3.47711467742919922 30.0492439270019531 14.0653057098388672
-3.13912510871887207 87.178802490234375 9.25863456726074219
-0.853109657764434814 24.2518825531005859 15.517059326171875
-3.80289006233215332 25.4931659698486328 -0.761114120483398438
3.61166191101074219 22.842803955078125 -8.46302413940429688
-1.1322399377822876 5.96625661849975586 16.2650871276855469
3.97451186180114746 -17.1563606262207031 -2.95878815650939941
-3.52460312843322754 43.3253822326660156 -4.3738250732421875
3.83850407600402832 -13.771087646484375 1.38618373870849609
2.5710911750793457 52.2256240844726562 -9.59734821319580078
-4.9989776611328125 -38.0521736145019531 -4.80396413803100586
2.49047541618347168 40.9537849426269531 -5.16686439514160156
0.405866354703903198 -41.8394355773925781 7.30665922164916992
4.22001218795776367 -82.1110687255859375 -7.21143007278442383
2.1017005443572998 87.6329879760742188 0.00935145746916532516
4.36002874374389648 14.1975822448730469 10.7269277572631836
3.35880827903747559 -45.0695724487304688 -0.644232034683227539
-3.1003873348236084 25.5732612609863281 14.1454238891601562
0.949995875358581543 -6.81310606002807617 2.89155387878417969
1.9338686466217041 67.9818878173828125 -9.41749668121337891
3.37653923034667969 -4.37571191787719727 15.2207975387573242
-3.83256077766418457 -12.1982669830322266 -10.0887584686279297
-3.256561279296875 13.832636833190918 11.8540859222412109
-3.70378947257995605 -5.71574258804321289 1.34856307506561279
3.87068033218383789 -51.3109054565429688 -0.395305722951889038
-3.96914410591125488 48.6284332275390625 0.571381151676177979
-2.05905556678771973 57.2183685302734375 13.2470283508300781
2.52146482467651367 -24.6055145263671875 5.80559301376342773
-4.10736227035522461 54.9081649780273438 6.6905207633972168
-3.65347123146057129 15.5906906127929688 -2.56762981414794922
-3.35472893714904785 93.6873855590820312 8.00613021850585938
-1.17794275283813477 -97.53265380859375 1.03243935108184814
-0.901655077934265137 -57.6682281494140625 -11.894871711730957
-3.40983414649963379 25.0407962799072266 -5.25598716735839844
-3.62957119941711426 -29.5705089569091797 -10.5156278610229492
-3.75747442245483398 18.3845539093017578 -1.16462957859039307
2.48601245880126953 90.3182144165039062 1.01138842105865479
-2.01393628120422363 2.33174395561218262 -11.4445180892944336
2.12340617179870605 17.8296527862548828 -8.69394683837890625
-0.135019123554229736 31.5494709014892578 -10.546229362487793
4.08619451522827148 -58.7911262512207031 -0.880729317665100098
-1.88476598262786865 85.7128753662109375 9.95430660247802734
0.893800556659698486 20.8468437194824219 15.8569250106811523
0.817069590091705322 -0.335725128650665283 -9.62021923065185547
3.52468538284301758 -48.8476104736328125 -9.51761245727539062
-4.80667543411254883 -23.2998294830322266 -8.50929927825927734
3.93191933631896973 -40.7619972229003906 -6.56832075119018555
-3.6306006908416748 61.1207122802734375 -4.78492498397827148
3.53279829025268555 -92.315887451171875 6.671905517578125
-1.15070772171020508 -49.6165618896484375 -11.7441778182983398
4.05727672576904297 -23.9041671752929688 -3.79660391807556152
4.24264907836914062 20.5479545593261719 11.7353687286376953
-4.04460334777832031 64.1060943603515625 11.2398014068603516
-4.62014484405517578 89.3870849609375 5.08316993713378906
3.69381856918334961 40.7798614501953125 2.44132661819458008
-4.44579267501831055 82.8958969116210938 1.96203100681304932
-4.26565456390380859 -89.8059921264648438 -10.8556814193725586
1.05153560638427734 -5.01186180114746094 -11.3305130004882812
-1.80311751365661621 25.4474868774414062 -10.2438268661499023
-4.80769777297973633 -8.77227306365966797 -7.43093442916870117
2.04616022109985352 88.1869430541992188 0.229977503418922424
-4.03788137435913086 45.6031608581542969 5.99506711959838867
4.35091161727905273 11.7585344314575195 14.0289134979248047
2.62984514236450195 14.8938055038452148 -6.28326177597045898
-4.0352320671081543 -76.742156982421875 -10.8416147232055664
-1.44788277149200439 45.3389778137207031 -9.82868576049804688
-4.79289627075195312 -19.9562454223632812 -1.5431830883026123
-5.27466630935668945 -92.8648681640625 -9.15260410308837891
1.45994853973388672 -0.0517018064856529236 -8.15271663665771484
-3.57031464576721191 -12.8069486618041992 5.78184938430786133
-3.98206448554992676 34.5765495300292969 2.92501473426818848
-4.60205936431884766 -93.7772064208984375 5.38800430297851562
2.56441450119018555 8.50393009185791016 -6.65416049957275391
2.28938531875610352 58.5678329467773438 6.90993642807006836
4.28809642791748047 -78.33349609375 0.83010411262512207
-4.62870407104492188 -27.1074199676513672 -9.09972667694091797
3.32177543640136719 -68.5179290771484375 5.83206653594970703
-4.92654228210449219 -21.7034492492675781 -7.47824621200561523
-4.18115425109863281 -45.2794532775878906 0.35384705662727356
0.497758746147155762 -10.5121498107910156 7.09323501586914062
0.439350634813308716 80.8197860717773438 -3.53547358512878418
3.9184565544128418 9.93984031677246094 1.61710166931152344
1.1653977632522583 -82.7250823974609375 -12.0528440475463867
-5.25203990936279297 -84.5297088623046875 -3.35510683059692383
-4.21960306167602539 67.4530258178710938 10.0336265563964844
-3.70514392852783203 -2.23339605331420898 2.10801219940185547
2.36769556999206543 1.10345375537872314 -7.43301725387573242
-3.84672093391418457 -62.469451904296875 5.30184173583984375
1.28565549850463867 26.0642871856689453 15.4708681106567383
4.39837408065795898 0.331897109746932983 7.63763141632080078
2.4094231128692627 47.0415191650390625 -4.41364955902099609
-1.28947126865386963 -24.8344459533691406 6.84075260162353516
2.91542720794677734 69.8496551513671875 5.69429254531860352
-2.91876626014709473 -16.7988128662109375 -10.810943603515625
1.54772663116455078 -6.90145015716552734 -1.07053577899932861
3.5111994743347168 -59.7868423461914062 3.34721660614013672
1.92513895034790039 90.5081787109375 -0.699238598346710205
-3.98705196380615234 57.0756950378417969 7.44362497329711914
3.37242317199707031 -30.3792400360107422 2.77884697914123535
2.75885009765625 -55.20574951171875 6.33237123489379883
3.53325295448303223 -62.4788894653320312 3.81620573997497559
1.57426333427429199 28.3648548126220703 -7.95389461517333984
3.73952746391296387 -80.6101760864257812 -9.63318920135498047
1.19966232776641846 47.5480155944824219 14.066645622253418
-1.58901715278625488 -69.5006561279296875 7.69454765319824219
-3.23648309707641602 43.8277397155761719 13.6178731918334961
-4.34416389465332031 -15.2703037261962891 2.60211515426635742
-2.98841047286987305 77.0848388671875 10.811558723449707
-3.9356834888458252 -45.6945075988769531 3.04900813102722168
0.173413649201393127 -46.8490524291992188 -11.7682123184204102
0.330358237028121948 -67.6567306518554688 -12.0328283309936523
-3.58492231369018555 3.95171761512756348 7.331451416015625
3.8652961254119873 -22.102386474609375 1.8145294189453125
4.05488395690917969 2.39015793800354004 3.68963479995727539
0.581332027912139893 -43.016815185546875 -11.6814756393432617
0.358791381120681763 62.9874076843261719 -7.11798477172851562
-3.73331522941589355 52.6693649291992188 0.610020935535430908
3.86812543869018555 -36.9834213256835938 -7.69217824935913086
-4.87793064117431641 -48.5040512084960938 -4.29536819458007812
0.738452792167663574 -4.0231785774230957 15.1538200378417969
2.63554883003234863 -35.0553703308105469 5.94770193099975586
-0.556108415126800537 -45.5852622985839844 -11.7532281875610352
-3.43859267234802246 -12.9580421447753906 5.98890876770019531
3.28730010986328125 -37.9918670654296875 4.64459228515625
2.95296263694763184 82.2710113525390625 -4.81301164627075195
-5.01378774642944336 -73.0010910034179688 -4.11815929412841797
4.14876556396484375 -74.005218505859375 -6.28372955322265625
-1.48503792285919189 -13.1188201904296875 -11.2118892669677734
3.99237513542175293 -59.6524658203125 0.876231074333190918
-4.81435298919677734 -34.1940536499023438 -8.67324924468994141
-3.9946587085723877 77.6159744262695312 -3.03571581840515137
3.29743194580078125 53.6370849609375 4.63946437835693359
-2.15017533302307129 21.7798175811767578 -10.106658935546875
5.23958444595336914 -90.6912307739257812 0.635669946670532227
-2.16317534446716309 -19.537261962890625 -11.1535587310791016
-5.27685546875 -82.7198410034179688 -7.42457437515258789
-3.03856182098388672 18.9382209777832031 -8.26202106475830078
-4.91742992401123047 -64.4048843383789062 -3.42664647102355957
0.830542802810668945 -4.39009571075439453 -1.66199731826782227
-3.65017175674438477 31.5277462005615234 10.8291416168212891
3.49096369743347168 -49.1514854431152344 2.88389348983764648
2.73152899742126465 56.5020484924316406 -0.670267343521118164
1.96041727066040039 55.7747955322265625 5.23610830307006836
-0.444535285234451294 32.4475135803222656 -10.4881296157836914
1.71926820278167725 -0.632944405078887939 -9.85722637176513672
3.98984193801879883 -13.6432723999023438 -4.03638219833374023
3.91789364814758301 -9.26151561737060547 -6.03114986419677734
-4.08807754516601562 -70.0894699096679688 5.63425970077514648
0.328025698661804199 -32.3786163330078125 7.08944511413574219
3.86474323272705078 38.5127105712890625 9.61970996856689453
-2.25537371635437012 14.1585636138916016 15.568115234375
-5.0656428337097168 -62.2222366333007812 -7.85638236999511719
-4.3820033073425293 -11.116948127746582 2.30716729164123535
-3.31601214408874512 85.479461669921875 9.43977069854736328
-3.67682743072509766 -5.33686733245849609 -0.739304423332214355
2.41437506675720215 72.1003265380859375 -0.761654675006866455
1.79095458984375 30.9825668334960938 15.0563144683837891
3.61834454536437988 29.6352748870849609 13.8946380615234375
0.38842502236366272 78.7953262329101562 -8.38943099975585938
3.00921726226806641 -81.6031646728515625 -10.8774385452270508
0.318945825099945068 -54.0749588012695312 7.57487678527832031
4.22049951553344727 -7.8085169792175293 2.03770875930786133
-4.83122777938842773 -91.9328994750976562 5.42635869979858398
2.1237790584564209 73.6967697143554688 -9.00749015808105469
2.0043485164642334 -30.2118721008300781 -11.0527620315551758
2.58110570907592773 81.9767227172851562 -6.3027191162109375
1.86185455322265625 -54.4995536804199219 7.0732269287109375
4.1181488037109375 -33.87860107421875 -4.99209070205688477
0.367628425359725952 30.8155345916748047 15.3358659744262695
-2.26840901374816895 -59.0792350769042969 -11.6439666748046875
-4.83658933639526367 -64.0712051391601562 -9.34526157379150391
-4.04755592346191406 58.8639602661132812 1.99380719661712646
-2.78152155876159668 -57.3713645935058594 -11.4225587844848633
-2.55910968780517578 -2.18814873695373535 -11.1838111877441406
3.0194706916809082 72.3533401489257812 9.14843559265136719
0.633805990219116211 85.8772354125976562 -5.00874996185302734
-3.68056416511535645 -82.0517196655273438 7.06755208969116211
-0.100674845278263092 -35.0863037109375 7.20584249496459961
-3.23609256744384766 16.5034427642822266 12.3750829696655273
1.71465098857879639 76.3565444946289062 1.70984220504760742
-2.68342185020446777 28.3397369384765625 -9.06093025207519531
-3.2736201286315918 38.7013816833496094 -6.22258472442626953
3.83666443824768066 24.9442424774169922 0.786004483699798584
3.28743839263916016 50.4685707092285156 2.31695246696472168
4.01613664627075195 19.8479652404785156 2.90366077423095703
0.599323451519012451 31.7276287078857422 -7.6980595588684082
3.78436446189880371 -9.59615325927734375 -7.46546602249145508
3.04155898094177246 -2.58947396278381348 4.71620035171508789
3.6955869197845459 -19.1730461120605469 -8.433563232421875
4.21030569076538086 -78.2075958251953125 -5.90629386901855469
2.9659113883972168 58.058258056640625 4.5938568115234375
2.03075933456420898 73.2910842895507812 0.610026061534881592
-4.66017913818359375 -21.5607261657714844 0.328214883804321289
2.02398562431335449 90.5774993896484375 7.83290529251098633
-3.56402945518493652 57.3977088928222656 -4.65896177291870117
3.44597148895263672 -43.9123344421386719 3.17977547645568848
3.72658228874206543 43.4609260559082031 9.02891921997070312
-2.32094788551330566 -93.8486328125 7.37679290771484375
1.50652444362640381 -31.4942569732666016 -11.309025764465332
-4.92808628082275391 -88.5027999877929688 4.14618778228759766
1.4889214038848877 76.12628173828125 2.05845379829406738
3.97297573089599609 33.1750068664550781 5.89769792556762695
4.17476034164428711 3.71822810173034668 4.75699710845947266
2.82989954948425293 2.43600058555603027 16.3639602661132812
-3.72388339042663574 -1.97683560848236084 2.11880683898925781
-2.34160089492797852 94.8075942993164062 7.59685850143432617
3.13374805450439453 -3.11891984939575195 7.16846847534179688
-0.0681470632553100586 55.7861442565917969 13.729609489440918
3.62481808662414551 -31.7652397155761719 -8.93752861022949219
3.4694819450378418 -40.9879608154296875 1.97330296039581299
3.61221146583557129 -12.3803615570068359 -8.72697639465332031
3.84598422050476074 -65.8953323364257812 -8.96520137786865234
4.39950942993164062 -0.778874456882476807 7.43682146072387695
-3.93427705764770508 78.5512008666992188 -3.84149646759033203
4.48895168304443359 -89.17205810546875 4.53334569931030273
5.09361743927001953 -92.253570556640625 -3.37541365623474121
-3.65449213981628418 35.7316513061523438 11.0844135284423828
-3.16893529891967773 29.5514469146728516 -7.0196075439453125
-3.13859295845031738 29.3043632507324219 -7.34913539886474609
3.48086214065551758 -55.381500244140625 3.33280205726623535
4.01992225646972656 -56.7724609375 -3.73700118064880371
3.90375232696533203 -50.4422378540039062 -7.6989903450012207
2.77690863609313965 59.4086723327636719 7.26076507568359375
-4.2543950080871582 68.4923629760742188 9.86709880828857422
2.26605033874511719 72.0235748291015625 -3.00173592567443848
-4.830169677734375 -86.7388687133789062 -9.997650146484375
3.22047257423400879 -1.03869974613189697 -9.841156005859375
3.56943416595458984 -43.10888671875 -9.25002861022949219
-4.12358856201171875 51.6562614440917969 5.56092309951782227
0.998300075531005859 -59.4355201721191406 7.53413152694702148
-3.41947817802429199 4.13619184494018555 9.26302814483642578
2.32485318183898926 48.9822311401367188 -4.61932134628295898
4.78049182891845703 -84.3604202270507812 -0.675078988075256348
3.53011560440063477 -78.0809783935546875 -10.0420093536376953
0.547985672950744629 53.8242034912109375 -6.49334907531738281
1.44631564617156982 -48.0406761169433594 -11.5487966537475586
2.86216211318969727 76.5487136840820312 -7.96732044219970703
-3.42432165145874023 44.82830810546875 -5.23858308792114258
-1.30905258655548096 65.6789627075195312 -9.51562213897705078
3.80343317985534668 39.947998046875 4.56354331970214844
-4.02912330627441406 56.7395439147949219 0.845208108425140381
1.96272122859954834 65.9071502685546875 12.1187639236450195
4.1013340950012207 -60.3083457946777344 -0.61878669261932373
-2.45312237739562988 -8.71193218231201172 9.28017520904541016
1.08706653118133545 21.5241832733154297 -7.40403175354003906
0.902265191078186035 67.2916183471679688 12.3576908111572266
-4.84955072402954102 -9.95368766784667969 -5.56190299987792969
-3.64593768119812012 9.67084598541259766 -2.89328122138977051
-0.979915380477905273 92.803009033203125 1.26861751079559326
0.500919759273529053 60.1979904174804688 13.1967048645019531
3.82351803779602051 -17.9008579254150391 -7.23101615905761719
4.85419225692749023 -85.2816619873046875 0.712518692016601562
3.25997757911682129 -51.6754875183105469 5.32390594482421875
-4.77517795562744141 -37.8680305480957031 -8.81922340393066406
2.42655682563781738 58.931243896484375 -2.79715394973754883
1.41194486618041992 -53.1676559448242188 7.23955154418945312
-1.54798400402069092 -82.2336654663085938 -12.1290578842163086
0.273354619741439819 48.6148948669433594 -10.0784807205200195
-1.81077933311462402 -23.3830585479736328 6.60889244079589844
3.47696065902709961 23.1282978057861328 -2.04626965522766113
3.23641276359558105 -30.2257843017578125 4.29789543151855469
2.11834263801574707 69.2577972412109375 -4.15169525146484375
3.29248523712158203 64.9719467163085938 -8.48603343963623047
4.12781429290771484 -35.0079841613769531 -2.47771453857421875
-3.36005830764770508 -47.8686790466308594 6.02589559555053711
-3.06524825096130371 -21.7766609191894531 5.86836719512939453
-5.08931779861450195 -87.6166610717773438 2.19891500473022461
-0.608543694019317627 36.9908065795898438 14.9229907989501953
2.88370108604431152 56.134735107421875 0.498252600431442261
3.27919197082519531 22.9939975738525391 -8.42486190795898438
3.1724085807800293 19.7992610931396484 -10.3402748107910156
-4.05035924911499023 -47.894378662109375 0.9948691725730896
0.645614206790924072 -73.9336318969726562 -12.0907278060913086
2.67143082618713379 85.4548492431640625 7.54648876190185547
-3.29819083213806152 16.3286018371582031 11.7368354797363281
-3.91689634323120117 -59.1448974609375 -10.6864795684814453
-3.74790143966674805 23.0022621154785156 7.60734224319458008
5.02654552459716797 -90.1559982299804688 -0.970726430416107178
3.31577897071838379 -68.0426864624023438 5.80717039108276367
4.56339931488037109 4.17341041564941406 12.8116931915283203
-5.03183746337890625 -58.9755935668945312 -6.25147294998168945
-1.70364916324615479 74.1883316040039062 11.6676931381225586
-2.96806931495666504 7.65181732177734375 13.6368942260742188
2.51210522651672363 5.08587551116943359 -6.93781042098999023
-4.10359525680541992 59.1999015808105469 3.34183955192565918
3.14673876762390137 -76.822479248046875 -10.6232566833496094
3.89967799186706543 -16.5439720153808594 0.447037488222122192
-5.26067018508911133 -82.3072052001953125 -6.71610307693481445
3.6496121883392334 -80.6833267211914062 -9.87121963500976562
4.72945261001586914 -92.9917526245117188 -6.29447078704833984
-4.07509660720825195 -5.78355741500854492 -8.78362464904785156
1.3463822603225708 74.8870010375976562 -6.6758570671081543
4.59091997146606445 -0.873973488807678223 12.3582019805908203
-4.66089820861816406 -57.6990318298339844 0.993226170539855957
-4.98336505889892578 -29.0036678314208984 -4.04108715057373047
1.20558679103851318 -23.199737548828125 -11.3395318984985352
-3.32554793357849121 47.2053909301757812 13.3768081665039062
2.26923727989196777 70.0530166625976562 -3.15099716186523438
4.265716552734375 -74.6602859497070312 2.24341678619384766
-3.74539279937744141 1.56790697574615479 1.12286317348480225
1.76776003837585449 67.1801986694335938 -9.48994350433349609
-3.6768796443939209 7.0601658821105957 5.90275716781616211
1.6687462329864502 57.1276359558105469 -6.1947169303894043
-3.30595517158508301 10.1865806579589844 11.0739765167236328
0.373159438371658325 9.50530719757080078 -8.85407543182373047
3.1830909252166748 63.9520187377929688 10.3054790496826172
0.0772484317421913147 -42.0848159790039062 7.36427164077758789
3.43039584159851074 -45.4924736022949219 3.97531652450561523
3.6609339714050293 -39.7783470153808594 -8.83371067047119141
1.14727306365966797 13.2599754333496094 16.2341594696044922
-3.84049725532531738 31.7525634765625 7.46604537963867188
-3.77697229385375977 6.70988750457763672 3.43274068832397461
4.25949859619140625 -75.4108200073242188 2.66748285293579102
-2.31849789619445801 53.3352813720703125 -8.99954414367675781
2.75958704948425293 26.5195751190185547 -8.26885032653808594
3.33800387382507324 58.8191986083984375 10.5080709457397461
-4.02017450332641602 65.4079971313476562 11.2296848297119141
-4.97342681884765625 -41.4995079040527344 -7.69378185272216797
3.96349525451660156 -21.5634841918945312 0.988977432250976562
-1.45004785060882568 31.5132236480712891 14.9626502990722656
-0.147060006856918335 92.0553436279296875 0.276213377714157104
-3.29982352256774902 65.3053131103515625 -7.43287563323974609
-0.933164119720458984 -93.6610107421875 -11.4079074859619141
3.75090837478637695 -38.7123603820800781 -8.42530059814453125
4.07300043106079102 -24.0990772247314453 -1.48777449131011963
3.96943378448486328 -56.2936248779296875 -4.801788330078125
-4.7351837158203125 -61.9469833374023438 0.554452657699584961
-4.00514698028564453 63.816802978515625 2.37628674507141113
3.53092479705810547 -65.95263671875 5.15398406982421875
3.40423154830932617 -34.5384140014648438 3.10415840148925781
3.39496350288391113 -37.621551513671875 3.68773031234741211
3.94114565849304199 -25.83575439453125 -6.89813756942749023
-3.81736230850219727 14.7178888320922852 -0.0532251931726932526
-3.43686866760253906 60.3799781799316406 -5.98367977142333984
3.61545944213867188 37.0611381530761719 -7.97359371185302734
2.18341755867004395 27.0827751159667969 -6.81092643737792969
-2.85748434066772461 -33.927459716796875 6.36277484893798828
-1.27241599559783936 71.6665878295898438 12.0569438934326172
0.758500337600708008 -89.188507080078125 8.23234653472900391
2.45321464538574219 21.1339359283447266 -6.42560577392578125
3.96969723701477051 -1.10744619369506836 2.57897567749023438
-4.82525062561035156 -51.2676620483398438 -2.59450173377990723
1.8335881233215332 40.0228500366210938 14.4482717514038086
2.75410890579223633 84.122833251953125 6.26757240295410156
-3.40481114387512207 19.8262462615966797 11.3864278793334961
-3.17723679542541504 -44.705780029296875 6.21836090087890625
1.66841661930084229 -20.0495052337646484 6.49788808822631836
-4.85034847259521484 -71.1190719604492188 0.316700845956802368
-2.91382622718811035 36.9497756958007812 -8.25281620025634766
0.479884207248687744 74.3640594482421875 -5.47552919387817383
-5.0319066047668457 -75.1743545532226562 -2.90242218971252441
3.73929500579833984 13.4802083969116211 -9.96765899658203125
1.19893419742584229 95.2745819091796875 5.54306411743164062
-5.18372154235839844 -95.457977294921875 1.81088042259216309
2.04697561264038086 -3.79684329032897949 -12.2911481857299805
3.28126883506774902 -31.4511318206787109 0.124159283936023712
-3.31997108459472656 35.1250953674316406 13.5557689666748047
-3.90905284881591797 25.3473243713378906 4.13902091979980469
2.89006710052490234 35.7050819396972656 -4.08700275421142578
2.39396548271179199 -62.1218833923339844 6.89997482299804688
-3.14700412750244141 44.3446044921875 -7.17904233932495117
2.33873963356018066 4.88752603530883789 -11.656397819519043
-2.27716279029846191 34.35906982421875 14.7427034378051758
-3.97926616668701172 44.2656135559082031 7.6546778678894043
3.50183963775634766 -28.0811176300048828 1.50176835060119629
-3.62855744361877441 25.2955532073974609 9.70136928558349609
-3.74254631996154785 1.45395004749298096 3.32453656196594238
3.77880740165710449 35.3968696594238281 12.858403205871582
2.99632906913757324 -83.2617111206054688 -10.8975639343261719
-0.787553727626800537 -49.2790489196777344 -11.7903919219970703
-4.14349031448364258 -97.0162200927734375 -2.70441961288452148
-3.8661959171295166 15.2140712738037109 2.62819170951843262
3.56022906303405762 15.9975490570068359 -8.87506484985351562
-0.959880650043487549 -69.442138671875 -12.0606870651245117
3.54459905624389648 46.6702308654785156 3.45569896697998047
0.454263478517532349 15.5565996170043945 -7.95248794555664062
0.505667924880981445 57.1980171203613281 13.4636440277099609
1.45902812480926514 60.6560554504394531 -9.75627422332763672
2.35519742965698242 74.2996978759765625 -8.80440235137939453
2.19955897331237793 48.6007575988769531 -5.37622928619384766
2.61918735504150391 35.2386093139648438 -5.16256093978881836
1.30979275703430176 -11.9260082244873047 6.77300071716308594
4.05826282501220703 21.0641651153564453 3.7846839427947998
1.6215893030166626 21.100341796875 -10.9050464630126953
4.53020572662353516 2.69759869575500488 10.7342510223388672
1.05848526954650879 -3.83127903938293457 5.86158514022827148
-1.70141875743865967 -24.7968597412109375 -11.3286256790161133
0.0923243314027786255 2.17450642585754395 -9.35143184661865234
-0.554661452770233154 33.9273262023925781 -10.4190196990966797
2.25691127777099609 35.4979438781738281 -6.31147289276123047
-0.896984457969665527 28.6998882293701172 -10.5455245971679688
-3.81015276908874512 11.3840713500976562 3.84621381759643555
3.78958344459533691 -71.3293533325195312 -9.27190494537353516
0.537080168724060059 -95.62060546875 -9.21538639068603516
-1.80054211616516113 30.5072689056396484 -10.0284137725830078
3.20705771446228027 64.1431198120117188 6.41722345352172852
2.69826436042785645 86.3662490844726562 2.82579731941223145
3.4967348575592041 -61.4562416076660156 4.68208789825439453
2.14456748962402344 32.0259246826171875 -10.2960271835327148
-3.44895243644714355 1.25399768352508545 8.57750606536865234
2.54707860946655273 27.8165359497070312 -5.85877513885498047
-3.78420567512512207 6.39278268814086914 0.232684776186943054
-3.88794779777526855 -80.3484725952148438 -11.0374107360839844
