ply
format ascii 1.0
element vertex 783
comment vertices
property float x
property float y
property float z
end_header
4.73338699340820312 24.2938652038574219 -12.2576723098754883
4.49728679656982422 19.8428764343261719 -6.98197221755981445
1.74983012676239014 107.917282104492188 6.96435022354125977
3.43940496444702148 104.541275024414062 -13.8803653717041016
-1.0411529541015625 130.843307495117188 -5.84193563461303711
-4.8591766357421875 52.0150146484375 -18.6393451690673828
-3.37888002395629883 31.8713951110839844 7.22173452377319336
-1.17315685749053955 131.0496826171875 22.5573902130126953
8.07606601715087891 -104.907989501953125 -23.4863567352294922
-4.75503873825073242 24.8672218322753906 -18.7810134887695312
11.3157415390014648 -26.0940685272216797 -16.3822669982910156
0.780045211315155029 -21.0013637542724609 44.1331443786621094
-0.980291187763214111 -19.6430606842041016 39.9562606811523438
-15.6248321533203125 -77.6726760864257812 -14.6460447311401367
-4.04930543899536133 100.440338134765625 3.19629859924316406
-0.484863102436065674 -83.75201416015625 -24.7934780120849609
-4.52822494506835938 -122.689201354980469 7.27866077423095703
-3.08673238754272461 -20.6749038696289062 7.05956459045410156
-4.81627464294433594 111.364997863769531 -10.6949281692504883
5.35614252090454102 10.4629669189453125 -16.1650276184082031
2.67133903503417969 -61.1607093811035156 -23.4190216064453125
2.03343772888183594 -15.6899881362915039 35.1708984375
2.22692370414733887 45.6634368896484375 20.8745040893554688
0.305691629648208618 112.991920471191406 20.9946460723876953
5.42107534408569336 -48.2544784545898438 -23.0588855743408203
2.60495495796203613 109.022613525390625 -4.88737773895263672
0.290989816188812256 80.7685165405273438 31.2542953491210938
0.761500298976898193 103.941871643066406 18.3346939086914062
-4.66254520416259766 88.4346466064453125 -10.4257297515869141
-2.75479316711425781 50.2430763244628906 23.1254234313964844
-4.22438764572143555 38.1628913879394531 -8.59202766418457031
12.6954755783081055 -96.399078369140625 -1.13411331176757812
-2.72748327255249023 41.0306015014648438 22.0569629669189453
4.14881181716918945 -42.6517562866210938 1.34302914142608643
17.0042953491210938 -74.9537582397460938 -12.6210117340087891
2.49420976638793945 14.3889684677124023 22.8658332824707031
-3.76521563529968262 79.41571044921875 6.21657037734985352
-14.6668014526367188 -91.2558441162109375 -6.0807342529296875
-4.55716085433959961 98.3024978637695312 -7.85310840606689453
-2.77363777160644531 -5.21829509735107422 -20.98626708984375
-3.8361365795135498 76.1339340209960938 5.11307287216186523
-2.78725910186767578 6.64303874969482422 16.5731563568115234
3.69739270210266113 -26.8659114837646484 13.2503547668457031
-13.6177225112915039 -88.1814193725585938 -21.4607963562011719
7.00911235809326172 -58.0630455017089844 1.14813768863677979
-16.1272869110107422 -100.505630493164062 -12.5999116897583008
0.0776288360357284546 -31.2815685272216797 2.61775708198547363
6.26894378662109375 -132.977523803710938 1.76560163497924805
-3.53360104560852051 86.9815597534179688 12.0946426391601562
-2.98087334632873535 -7.64686203002929688 10.2236156463623047
-15.3786544799804688 -66.0854644775390625 -12.8146648406982422
0.437556147575378418 102.946426391601562 21.3799057006835938
-3.8495936393737793 43.6713409423828125 -0.99428260326385498
-2.80807924270629883 -6.32262516021728516 13.0727567672729492
-6.2656550407409668 -28.2379074096679688 1.24869060516357422
3.2900545597076416 20.3024520874023438 10.057826042175293
8.57173824310302734 -108.366996765136719 2.3748624324798584
5.47289800643920898 -10.039301872253418 -11.5081005096435547
-4.77957248687744141 60.1242904663085938 -16.1767139434814453
-4.44207382202148438 11.9672431945800781 -19.7371482849121094
6.53067922592163086 -109.073188781738281 2.62470316886901855
3.23049616813659668 84.6581192016601562 -8.5928955078125
1.79807233810424805 118.610664367675781 4.66733360290527344
5.09628534317016602 -25.3377571105957031 -3.88001132011413574
-4.41550207138061523 23.86865234375 -14.4909133911132812
-1.30044758319854736 7.3806915283203125 37.36767578125
4.19759941101074219 -20.2568550109863281 7.23299646377563477
-4.05462312698364258 127.357887268066406 6.05171537399291992
-8.37854480743408203 -55.9504852294921875 -23.797210693359375
2.85957598686218262 -74.6313323974609375 0.991226792335510254
4.61410427093505859 30.9156265258789062 -20.3945121765136719
4.75384044647216797 34.1325531005859375 -15.3813686370849609
-2.74668073654174805 40.745269775390625 -21.9829788208007812
17.2323188781738281 -94.0228347778320312 -13.6888113021850586
-4.48522520065307617 100.32000732421875 -3.72962641716003418
-3.39485692977905273 -22.0814914703369141 0.474139004945755005
2.39493036270141602 -75.6152420043945312 0.967618167400360107
-2.87073659896850586 100.457267761230469 21.2664966583251953
-4.4921417236328125 69.1710739135742188 -9.90707874298095703
3.92719578742980957 18.9447307586669922 1.34338843822479248
0.307986617088317871 107.63861083984375 -22.8852596282958984
-3.7200624942779541 -51.7370834350585938 0.883038341999053955
2.19968128204345703 11.1832294464111328 28.7469482421875
-4.43538236618041992 28.7375240325927734 -13.6880836486816406
1.74179387092590332 127.277168273925781 2.88829445838928223
0.5536232590675354 97.3824386596679688 22.6276416778564453
-1.09046494960784912 -96.5005645751953125 -25.6130485534667969
-13.7447395324707031 -47.1584243774414062 -5.61660528182983398
-7.88817739486694336 -69.9350662231445312 0.36931842565536499
-1.85169100761413574 -28.861236572265625 6.93451404571533203
6.4444270133972168 -22.7670879364013672 -16.300811767578125
1.38409042358398438 6.46278095245361328 36.7104263305664062
2.35145902633666992 32.4820518493652344 20.1747703552246094
3.82128167152404785 -24.8349037170410156 14.9998321533203125
1.55844128131866455 107.415199279785156 8.99043369293212891
4.532135009765625 1.3925015926361084 -2.9718017578125
14.8860797882080078 -96.8386154174804688 -19.7366619110107422
2.4672243595123291 24.0056800842285156 20.1954421997070312
2.27838349342346191 73.584869384765625 8.3857574462890625
3.17077136039733887 70.0298004150390625 -2.6697688102722168
-0.146588787436485291 132.701828002929688 20.9375
8.40349006652832031 -132.550323486328125 3.43166494369506836
-2.82403063774108887 -5.62689685821533203 12.5388355255126953
-2.53491926193237305 107.8319091796875 24.6061077117919922
-16.7286243438720703 -121.535789489746094 -9.88752460479736328
-1.79400002956390381 -9.81115818023681641 31.7642059326171875
0.875892579555511475 118.883865356445312 -18.4273128509521484
12.3105354309082031 -120.549484252929688 -22.8714504241943359
-14.7471504211425781 -126.867424011230469 -21.2250690460205078
-4.36057424545288086 83.1948623657226562 -3.83261275291442871
-13.6308488845825195 -128.811203002929688 -1.47165524959564209
-3.84372735023498535 130.385055541992188 8.87691307067871094
8.23869132995605469 -36.4051895141601562 1.18544137477874756
2.11821532249450684 -4.37275505065917969 32.0107498168945312
0.354350119829177856 77.2589263916015625 30.5803985595703125
-14.8215875625610352 -63.8088912963867188 -8.62069892883300781
9.53969287872314453 -106.361068725585938 -23.2198314666748047
-15.864720344543457 -91.6987152099609375 -12.9368753433227539
2.88328814506530762 85.4816513061523438 -2.73891377449035645
2.37076950073242188 -2.25187993049621582 43.2144889831542969
10.1745271682739258 -60.1435394287109375 -22.1155490875244141
3.10015296936035156 73.0040740966796875 -2.13529753684997559
-2.55621695518493652 -21.2725906372070312 16.87841796875
3.50380373001098633 37.5262260437011719 2.6275787353515625
-3.68213343620300293 -4.87529993057250977 -4.45300054550170898
-6.58087730407714844 -129.336029052734375 8.01047325134277344
-2.22272777557373047 9.06201457977294922 28.4913806915283203
15.1545810699462891 -131.260299682617188 -8.80591201782226562
5.24282169342041016 -3.48202228546142578 -10.7049322128295898
3.11347413063049316 117.113632202148438 -18.3809566497802734
-4.06410646438598633 36.2310066223144531 -6.07083892822265625
1.72945654392242432 102.928176879882812 9.88920783996582031
-9.07298946380615234 -119.009796142578125 4.75621509552001953
4.70568370819091797 -14.1795282363891602 -3.07397866249084473
3.45456123352050781 95.9659576416015625 -11.0889453887939453
0.381163954734802246 -74.2032546997070312 -24.2552986145019531
11.3209943771362305 -65.6738052368164062 -0.32193717360496521
4.65209054946899414 22.0272941589355469 -9.69614315032958984
4.79594516754150391 23.9584064483642578 -12.6822195053100586
-1.17544925212860107 63.2543411254882812 -21.9439964294433594
17.1363372802734375 -122.1458740234375 -4.25939083099365234
1.93220996856689453 34.98675537109375 25.5949573516845703
3.32721328735351562 -19.62554931640625 19.8426570892333984
-11.2077741622924805 -129.203598022460938 4.06578350067138672
-2.09663200378417969 -9.26324272155761719 26.2881031036376953
-16.2332305908203125 -125.208724975585938 -17.6966476440429688
-4.21104049682617188 44.319610595703125 -8.50060272216796875
-4.42688417434692383 64.6334915161132812 -8.99252700805664062
9.09308528900146484 -127.735092163085938 -24.5539436340332031
-3.55936455726623535 121.837432861328125 -15.8764410018920898
2.86254024505615234 102.247520446777344 -7.47487354278564453
3.66159510612487793 47.2070274353027344 -1.87624514102935791
-4.70059394836425781 48.3420600891113281 -19.8184471130371094
-1.6744225025177002 33.0107765197753906 33.6957817077636719
1.10133397579193115 116.244659423828125 12.1819515228271484
2.16436290740966797 61.3840827941894531 15.4873313903808594
0.593682706356048584 -122.157028198242188 6.53902196884155273
1.9266277551651001 -111.787216186523438 -25.5498981475830078
1.46084678173065186 87.57855224609375 -23.9179611206054688
-3.77773141860961914 137.840576171875 7.07639312744140625
-1.51874613761901855 138.329864501953125 1.72420930862426758
-3.3862309455871582 -47.8821525573730469 0.962094664573669434
-2.82342362403869629 12.6843757629394531 16.1935157775878906
3.80294275283813477 31.4560718536376953 -0.445001095533370972
-7.43096590042114258 -78.225311279296875 0.467300981283187866
-4.14900827407836914 65.2477951049804688 -3.23643159866333008
-4.04512310028076172 15.003173828125 -20.4987583160400391
2.12680530548095703 -63.3824920654296875 1.11704003810882568
-2.68172264099121094 -19.7993354797363281 15.2915124893188477
2.9519507884979248 -13.4778356552124023 22.8234233856201172
1.77050411701202393 91.6003265380859375 10.8524923324584961
17.5820713043212891 -119.459709167480469 -14.6259689331054688
9.86647891998291016 -80.1343536376953125 0.250237345695495605
-4.24186944961547852 91.944061279296875 -1.54722166061401367
4.10484600067138672 48.0561561584472656 -9.58388328552246094
-4.61274528503417969 16.3840904235839844 -17.5052700042724609
3.23890399932861328 73.4708709716796875 -5.7715001106262207
-1.06166970729827881 -110.80194091796875 3.17983746528625488
-7.39989662170410156 -116.963691711425781 -28.0325374603271484
-3.74123048782348633 102.562255859375 -22.1339378356933594
6.2744145393371582 -108.200286865234375 2.48281550407409668
5.25777721405029297 -95.8903350830078125 1.00948238372802734
16.910919189453125 -123.90814208984375 -3.07393193244934082
1.45677971839904785 -17.9237079620361328 42.3792037963867188
3.34789514541625977 117.422088623046875 -14.2086315155029297
5.99816274642944336 -98.151580810546875 -23.6204204559326172
-14.666111946105957 -45.8631935119628906 -8.73087406158447266
-15.4290361404418945 -79.9882049560546875 -12.7626991271972656
-4.60428047180175781 121.2313232421875 -5.65511178970336914
-14.9206314086914062 -66.7118301391601562 -8.79652309417724609
2.37421202659606934 62.7885513305664062 11.305506706237793
0.308395057916641235 122.7802734375 18.0489101409912109
2.80657219886779785 38.0728111267089844 12.9646587371826172
-11.5024070739746094 -118.733627319335938 2.80356431007385254
2.85795068740844727 -57.6527290344238281 1.01393043994903564
-16.5048465728759766 -122.607475280761719 -7.12038469314575195
10.70074462890625 -132.493118286132812 2.3367459774017334
1.75227069854736328 30.2002658843994141 28.6828327178955078
-2.6708824634552002 76.0208282470703125 24.9415397644042969
-2.16943168640136719 -89.010498046875 -25.5939884185791016
-13.3855552673339844 -52.3749656677246094 -4.85977411270141602
4.08681917190551758 -6.83726882934570312 6.13848304748535156
-12.4612760543823242 -82.8104248046875 -3.34591197967529297
-1.6926039457321167 125.851287841796875 -11.0594615936279297
1.76882898807525635 -120.470024108886719 -25.7834930419921875
-2.30835366249084473 45.1572303771972656 29.0319995880126953
-4.53167152404785156 38.0500717163085938 -14.4131927490234375
-11.1213808059692383 -100.234161376953125 -25.0531330108642578
-0.995546579360961914 24.1983890533447266 -21.9103431701660156
1.55358588695526123 78.5428085327148438 18.1326732635498047
-4.01421451568603516 60.7915153503417969 0.450005143880844116
1.39496064186096191 94.1062393188476562 -24.0265254974365234
5.67494487762451172 -9.74483776092529297 -14.8275642395019531
14.9336023330688477 -97.4990234375 -3.90256929397583008
-2.33566904067993164 20.6015148162841797 27.5317878723144531
3.6627955436706543 91.8364181518554688 -17.9329662322998047
-3.49790215492248535 -117.696495056152344 -27.8784713745117188
-4.62509298324584961 120.456993103027344 -16.7882785797119141
0.403480976819992065 140.860763549804688 6.63506698608398438
-1.76163077354431152 -18.8292007446289062 32.4230117797851562
-2.96874761581420898 91.3310623168945312 21.0250720977783203
-2.18795680999755859 -4.29499244689941406 25.1744308471679688
-4.13177204132080078 64.4336929321289062 -2.60273289680480957
3.62083268165588379 18.0533294677734375 5.83401012420654297
-2.52989602088928223 17.2190723419189453 -21.8036975860595703
-2.85014557838439941 -1.29228150844573975 14.5700902938842773
0.522547364234924316 56.579833984375 33.4305458068847656
0.803229093551635742 120.032241821289062 13.0321531295776367
-4.37487459182739258 6.82258367538452148 -14.4997901916503906
-0.707011282444000244 21.7327060699462891 41.122039794921875
3.64065980911254883 86.908966064453125 -13.5605659484863281
-3.79011154174804688 100.361129760742188 8.69058990478515625
-3.7958216667175293 32.1809349060058594 -1.39264357089996338
-1.42436635494232178 -23.3560714721679688 35.1910858154296875
1.55451250076293945 -66.7594528198242188 -23.7325477600097656
-1.94730269908905029 48.7119865417480469 31.6939868927001953
-3.18487310409545898 111.459579467773438 17.0557613372802734
-3.80542182922363281 122.278861999511719 10.7302684783935547
14.4023828506469727 -126.349029541015625 2.63065361976623535
2.10266733169555664 123.659339904785156 1.22474706172943115
-0.173423022031784058 58.6527748107910156 -21.7854328155517578
-11.9034814834594727 -43.0865058898925781 -20.6670932769775391
-4.25613641738891602 -8.14962863922119141 -14.7363805770874023
14.3381748199462891 -75.49407958984375 -3.0151059627532959
2.26932144165039062 74.9156646728515625 8.10391521453857422
9.87346839904785156 -31.2926616668701172 -2.30906820297241211
5.19085121154785156 -28.9956817626953125 0.396021515130996704
-10.4368410110473633 -130.284683227539062 1.68582677841186523
6.33641290664672852 -60.0898094177246094 -22.9473037719726562
-10.6193437576293945 -103.291923522949219 -25.5372543334960938
-7.60403871536254883 -128.221817016601562 -21.8754863739013672
-2.37281012535095215 -130.197921752929688 -17.8882732391357422
3.55591106414794922 -132.154373168945312 -17.7236747741699219
3.02934598922729492 12.9909992218017578 15.6300621032714844
-3.79752779006958008 124.981048583984375 10.4335737228393555
4.06076526641845703 75.5161285400390625 -20.1834239959716797
8.13877582550048828 -39.541290283203125 1.20330929756164551
5.66507959365844727 -0.0141784697771072388 -16.9102535247802734
-15.9433937072753906 -109.689071655273438 -8.98037910461425781
-7.18198966979980469 -55.2595176696777344 -24.1395225524902344
4.88845729827880859 -22.9153785705566406 -3.7887120246887207
3.56062602996826172 -23.5313606262207031 18.4993209838867188
-2.55391383171081543 41.1210365295410156 24.9957923889160156
3.52939414978027344 77.9253005981445312 -9.62999916076660156
4.21067714691162109 17.337066650390625 -1.41249847412109375
-12.105189323425293 -31.7731685638427734 -18.2631340026855469
-0.684347629547119141 -25.5178165435791016 42.4533233642578125
16.3265533447265625 -126.245697021484375 -18.9597797393798828
5.00416707992553711 -21.1224765777587891 -6.33354043960571289
-2.77067875862121582 -16.3232688903808594 -21.2756061553955078
10.6948022842407227 -73.2352371215820312 0.123321421444416046
1.89706385135650635 83.3852767944335938 13.4407110214233398
4.33525753021240234 14.239863395690918 -3.52096366882324219
14.117645263671875 -92.6250762939453125 -20.2103767395019531
-1.53075242042541504 -132.33843994140625 -11.794830322265625
-3.26729846000671387 30.1830215454101562 -21.4721870422363281
-2.49910902976989746 -2.60952854156494141 20.0014514923095703
-4.8218235969543457 -72.3020477294921875 -25.3334541320800781
3.81622576713562012 75.9074020385742188 -22.8818588256835938
-3.22787189483642578 21.4744529724121094 8.19878482818603516
-3.35395359992980957 27.8637886047363281 7.05047607421875
4.78339433670043945 -21.6655292510986328 -2.34719753265380859
1.0805356502532959 95.4443588256835938 18.4082775115966797
-3.96690583229064941 -0.039543885737657547 -9.09412193298339844
-11.1439228057861328 -36.7281723022460938 -3.22416186332702637
5.74221611022949219 -128.409469604492188 9.72232437133789062
-1.75214958190917969 24.6338272094726562 32.9275321960449219
-15.7044544219970703 -101.625595092773438 -8.37808132171630859
-3.49752211570739746 -17.1736927032470703 -1.45342361927032471
1.60749912261962891 17.1224021911621094 33.4956245422363281
-11.6082925796508789 -96.9694366455078125 -1.52694714069366455
-3.25444960594177246 59.5359954833984375 13.0463628768920898
2.8116755485534668 20.2543754577636719 16.8146553039550781
2.29704976081848145 75.9349746704101562 8.21136283874511719
-13.8043241500854492 -129.043182373046875 -10.8275794982910156
-3.42522168159484863 56.7420425415039062 10.4507055282592773
-15.0720863342285156 -56.9825630187988281 -10.5458459854125977
9.19043922424316406 -22.9454555511474609 -22.3503799438476562
-3.22867059707641602 127.174972534179688 15.3130388259887695
0.757634460926055908 -33.3545379638671875 2.03542494773864746
-2.8965451717376709 33.0180740356445312 16.8837490081787109
1.70116078853607178 -21.9253368377685547 39.2209548950195312
-0.647275984287261963 136.952972412109375 18.9657249450683594
-8.56956672668457031 -50.4899330139160156 -23.5275402069091797
6.47620201110839844 -85.7135696411132812 0.784999310970306396
-4.25431442260742188 37.6996879577636719 -8.86944675445556641
1.68047571182250977 127.046333312988281 -10.4892129898071289
2.08115267753601074 126.526313781738281 -4.33486032485961914
-11.244755744934082 -38.5391044616699219 -2.89317059516906738
-10.7399263381958008 -111.914093017578125 1.3613961935043335
-1.50659668445587158 46.7445297241210938 36.4220542907714844
-4.17875814437866211 118.965675354003906 3.1429438591003418
-10.478215217590332 -29.5121212005615234 -8.24343109130859375
5.52126979827880859 -11.4166927337646484 -11.8988571166992188
-7.18104076385498047 -100.372032165527344 1.27458024024963379
-16.0830497741699219 -97.5320968627929688 -13.5645742416381836
-3.59203076362609863 -86.9048843383789062 0.994971215724945068
-2.64931416511535645 -6.29971504211425781 17.2054538726806641
-4.26757907867431641 35.1941452026367188 -9.94980239868164062
-1.84079146385192871 19.11962890625 32.3638954162597656
1.68939065933227539 -99.6115493774414062 1.37075400352478027
15.4042806625366211 -106.780166625976562 -19.4090938568115234
-3.77673768997192383 -4.02164983749389648 -6.37624073028564453
0.994502723217010498 59.6596717834472656 28.6740779876708984
5.64122438430786133 -13.182159423828125 -14.1753425598144531
5.74684333801269531 -4.08984756469726562 -18.4808521270751953
3.40820813179016113 31.3468589782714844 -21.0454998016357422
-2.98758482933044434 8.78688144683837891 12.1065940856933594
-4.47803115844726562 102.309967041015625 -4.41121864318847656
13.3121042251586914 -32.1297035217285156 -18.3435516357421875
3.01308250427246094 52.6625595092773438 5.80123519897460938
1.38180685043334961 -55.0029716491699219 0.956264257431030273
4.31257343292236328 -9.30907917022705078 2.25503945350646973
-2.34279584884643555 72.6669769287109375 27.3622760772705078
-0.10349012166261673 65.5211410522460938 35.883453369140625
-2.64133977890014648 85.9462203979492188 24.5086479187011719
-4.12684059143066406 71.817901611328125 -0.534331738948822021
-3.74951052665710449 16.55816650390625 -2.45556306838989258
-4.07760906219482422 79.4649734497070312 0.631435632705688477
-0.778883993625640869 -53.1317138671875 0.939760148525238037
-4.42590522766113281 128.945480346679688 -5.3939518928527832
-3.03077459335327148 114.453323364257812 18.4994869232177734
-4.1960296630859375 21.3109416961669922 -9.84603595733642578
16.4738998413085938 -53.3395462036132812 -8.73244094848632812
9.61276340484619141 -109.467697143554688 2.11057305335998535
3.59997940063476562 16.2624130249023438 5.84117364883422852
-3.59091377258300781 93.3845977783203125 11.8159646987915039
4.38120841979980469 63.5937309265136719 -21.47900390625
-5.15755128860473633 84.3146820068359375 -19.0819873809814453
15.2707681655883789 -129.304290771484375 -17.7212276458740234
-0.672885537147521973 -102.303474426269531 -25.7884654998779297
-3.71479558944702148 25.5794315338134766 -0.52022939920425415
-0.907989621162414551 -62.066497802734375 -24.0971870422363281
-13.826786994934082 -38.9341163635253906 -13.6437816619873047
-0.428900092840194702 120.484207153320312 -16.1596908569335938
0.564018189907073975 13.7913141250610352 42.6392440795898438
-0.04047345370054245 67.9724578857421875 35.4441299438476562
16.5245151519775391 -85.4979095458984375 -15.0091114044189453
2.07273674011230469 -78.511077880859375 -23.9364700317382812
10.7135848999023438 -113.258399963378906 2.23735141754150391
-4.96743535995483398 70.1239547729492188 -18.5672283172607422
-3.72484636306762695 84.452056884765625 -22.0825386047363281
-13.5487308502197266 -74.9483642578125 -20.0693912506103516
-14.8744382858276367 -65.4018630981445312 -8.20964241027832031
1.07195138931274414 -132.935516357421875 -1.73628520965576172
2.22792863845825195 -18.4366874694824219 33.767974853515625
-1.33600175380706787 -21.5751533508300781 35.9402275085449219
-15.5921363830566406 -84.5070419311523438 -10.5275516510009766
3.60457324981689453 92.9349517822265625 -14.4498414993286133
-2.43307685852050781 4.65660429000854492 24.2144355773925781
-4.04855775833129883 60.5251808166503906 -0.580085277557373047
-13.5900583267211914 -116.848342895507812 -0.443348079919815063
-4.1155858039855957 95.154327392578125 1.99433290958404541
1.56665229797363281 -13.2055835723876953 39.2751579284667969
4.62966489791870117 17.7442207336425781 -20.5704574584960938
4.12832307815551758 -131.690444946289062 5.57216978073120117
0.895402431488037109 122.889335632324219 11.8224802017211914
5.25712871551513672 -19.1088409423828125 -8.99698066711425781
-1.00674855709075928 64.9893417358398438 -21.9208240509033203
16.5029048919677734 -46.9811363220214844 -11.1428871154785156
3.21802282333374023 106.733596801757812 -22.6350841522216797
1.44059097766876221 79.9758377075195312 19.6717109680175781
-2.89995241165161133 93.9546356201171875 21.7268123626708984
2.49969244003295898 72.5943450927734375 6.56502819061279297
5.22016143798828125 -133.7191162109375 -2.99984264373779297
2.43212056159973145 67.4427871704101562 9.92207622528076172
-10.5132837295532227 -30.5114555358886719 -6.93111991882324219
7.7429351806640625 -65.5297775268554688 -22.7819252014160156
2.03349637985229492 108.649787902832031 4.70510101318359375
-3.33522582054138184 61.6215133666992188 13.5812702178955078
3.42609190940856934 83.9759063720703125 -10.8618812561035156
2.96089720726013184 26.1802082061767578 13.6441545486450195
0.665405750274658203 74.78271484375 27.5571613311767578
5.75094223022460938 -13.8961353302001953 -14.6372299194335938
0.643632948398590088 43.2768402099609375 35.6515350341796875
2.16595673561096191 122.933883666992188 -2.1353604793548584
-3.43854689598083496 74.1234893798828125 12.2184200286865234
-15.9337005615234375 -102.102783203125 -18.1139640808105469
11.1338434219360352 -27.0095958709716797 -12.8902101516723633
-2.08762025833129883 56.46697998046875 30.0136604309082031
-3.51778721809387207 -46.7815780639648438 0.941061139106750488
-4.3455653190612793 119.789466857910156 -0.556508660316467285
-4.08147859573364258 15.2588405609130859 -8.32235813140869141
3.39572787284851074 59.2343788146972656 -2.22295570373535156
-2.43009138107299805 -130.501983642578125 5.44617366790771484
12.7067651748657227 -96.4667892456054688 -1.14218044281005859
-4.44156169891357422 -23.449493408203125 -7.0527338981628418
3.89588642120361328 77.188201904296875 -22.6297111511230469
-2.24252533912658691 39.9422225952148438 29.0563030242919922
-4.30430173873901367 107.620574951171875 -1.60283684730529785
-3.4096219539642334 11.9603157043457031 5.28350067138671875
-0.118234351277351379 -51.206390380859375 -23.6316928863525391
1.76912236213684082 -75.3108673095703125 -23.9321556091308594
-5.01664876937866211 92.6586227416992188 -16.4166526794433594
2.90854501724243164 122.310173034667969 -12.7573347091674805
3.62584757804870605 -28.2039947509765625 11.1783981323242188
-3.36133933067321777 -8.054595947265625 2.45896553993225098
-4.53448581695556641 10.4167966842651367 -16.3367767333984375
15.2684335708618164 -112.431678771972656 -2.14709258079528809
4.30451345443725586 49.7915000915527344 -12.7183961868286133
13.780792236328125 -113.787696838378906 -21.2231063842773438
3.35867190361022949 0.144387677311897278 13.4452781677246094
-15.3688116073608398 -90.6673355102539062 -18.5537815093994141
1.98264145851135254 -21.2483406066894531 36.5795555114746094
14.2964468002319336 -38.7406768798828125 -9.85542678833007812
-2.35564780235290527 -18.2640857696533203 21.4603862762451172
-3.54544258117675781 103.830764770507812 13.921783447265625
-3.1430060863494873 73.838775634765625 19.080169677734375
-4.81728363037109375 106.312240600585938 -11.6909008026123047
1.44269990921020508 -15.3083209991455078 42.618438720703125
-3.26495051383972168 -8.71071815490722656 4.20267963409423828
-3.50258541107177734 70.2574462890625 11.1765117645263672
-16.5496253967285156 -115.532852172851562 -12.4589939117431641
2.03071928024291992 39.9907608032226562 23.7078609466552734
-1.28577399253845215 -2.63559889793395996 36.9327201843261719
1.26080811023712158 98.7541885375976562 15.799036979675293
-4.21026849746704102 2.53943943977355957 -12.3896217346191406
7.15663957595825195 -72.318206787109375 1.05481123924255371
-4.12330150604248047 14.1636295318603516 -20.3226718902587891
-3.54859423637390137 -11.3756065368652344 -2.05472612380981445
3.93883824348449707 19.6428203582763672 1.25389194488525391
-1.82255566120147705 -14.2887058258056641 31.2922172546386719
15.9951562881469727 -48.6182174682617188 -7.31312036514282227
0.125815346837043762 -122.938201904296875 -26.2402172088623047
2.41791558265686035 -29.5330162048339844 -23.2284011840820312
2.94097065925598145 116.004341125488281 -11.8639116287231445
-1.5405421257019043 10.9762649536132812 34.9200401306152344
-7.15335941314697266 -95.0417633056640625 0.809025287628173828
-3.51151561737060547 7.64047813415527344 1.84644389152526855
6.5161442756652832 -73.5523834228515625 1.03286182880401611
1.21495747566223145 53.8440284729003906 28.9076633453369141
-7.05770301818847656 -131.822463989257812 -0.751296699047088623
14.9208488464355469 -69.68927001953125 -3.8240511417388916
-4.56068038940429688 59.6453666687011719 -10.63677978515625
-13.2366743087768555 -96.7097091674804688 -22.8072986602783203
2.32445240020751953 11.4920110702514648 26.9290809631347656
-3.99976444244384766 -11.6193790435791016 -10.5255241394042969
-3.40749382972717285 73.56884765625 12.9334478378295898
-4.4759831428527832 -44.213287353515625 0.921233713626861572
0.39985358715057373 123.323028564453125 16.2333412170410156
-14.7841005325317383 -72.6434860229492188 -16.6942310333251953
-3.85553312301635742 -16.3559017181396484 -8.53442478179931641
-12.2767515182495117 -129.780319213867188 -12.3252449035644531
1.88324522972106934 69.93804931640625 16.4236545562744141
15.1287508010864258 -130.809356689453125 -1.74360060691833496
-3.88405227661132812 115.368293762207031 8.55920600891113281
-3.01308631896972656 72.546875 21.7499008178710938
0.513890624046325684 112.11346435546875 18.3421211242675781
-3.29350137710571289 141.281143188476562 7.24446249008178711
2.50995945930480957 -5.26725625991821289 26.7623825073242188
13.4556121826171875 -36.8197059631347656 -8.33987140655517578
-3.52360987663269043 -15.8763875961303711 -0.828248441219329834
2.96336722373962402 -1.31915962696075439 20.2258968353271484
-9.60243988037109375 -26.4906539916992188 -8.88101100921630859
-16.1821575164794922 -108.750526428222656 -17.7663154602050781
5.75070905685424805 -17.0674057006835938 -14.1244363784790039
-14.2906036376953125 -43.3325920104980469 -9.52615165710449219
-1.71695125102996826 42.9361228942871094 34.0683174133300781
-3.00569605827331543 26.1588840484619141 -21.5442962646484375
3.93834424018859863 57.3871536254882812 -9.68767356872558594
-1.32401847839355469 8.34442234039306641 36.7687911987304688
2.28518104553222656 66.2188568115234375 11.0997772216796875
0.42891693115234375 32.9326591491699219 38.8931007385253906
3.33840489387512207 115.685249328613281 -15.5199356079101562
-5.04992008209228516 93.8614883422851562 -16.9432811737060547
14.9588508605957031 -122.930885314941406 0.667604327201843262
-4.40684843063354492 75.748748779296875 -4.4335932731628418
2.9664757251739502 114.341194152832031 -11.6099863052368164
15.9964227676391602 -113.446243286132812 -18.613433837890625
0.740523636341094971 -23.8447856903076172 44.1676063537597656
8.47289562225341797 -42.2538070678710938 1.00574207305908203
-3.4817502498626709 10.6488857269287109 3.25993227958679199
14.1927576065063477 -56.6855583190917969 -19.1870403289794922
-3.4034576416015625 -21.0062694549560547 0.644587814807891846
17.7150325775146484 -114.562957763671875 -13.7942895889282227
-14.4904079437255859 -128.608108520507812 -9.44253158569335938
10.4405593872070312 -27.0184059143066406 -9.42300891876220703
-3.09894728660583496 60.7638473510742188 -21.6997528076171875
9.603363037109375 -44.0350151062011719 -22.3354034423828125
-5.57514238357543945 -33.4386520385742188 -23.8598575592041016
-3.48900794982910156 138.721847534179688 9.62151432037353516
-3.99631953239440918 107.654319763183594 3.7738792896270752
-3.11287808418273926 -119.261703491210938 5.73033285140991211
13.17803955078125 -120.885604858398438 -22.3427600860595703
-13.5696010589599609 -42.4607467651367188 -6.96343231201171875
16.1365871429443359 -101.30963134765625 -18.1874771118164062
-4.06525611877441406 59.9604644775390625 -1.74167931079864502
-5.03599023818969727 113.244041442871094 -20.2713375091552734
-10.2979803085327148 -26.3982048034667969 -14.1508092880249023
-3.27433466911315918 53.0488662719726562 13.1737375259399414
-8.90422344207763672 -80.6446990966796875 -24.8615741729736328
-4.31970691680908203 120.071022033691406 0.484002083539962769
11.448826789855957 -52.35089111328125 -21.4389286041259766
-4.03280735015869141 17.9397697448730469 -8.73262214660644531
0.307004839181900024 119.522590637207031 20.8903770446777344
-4.07373142242431641 127.902824401855469 5.43622684478759766
6.38226556777954102 -22.5844898223876953 -18.3079185485839844
2.22111296653747559 55.9824447631835938 15.1178054809570312
3.28831124305725098 18.2969856262207031 10.7797136306762695
-4.37608957290649414 41.8218460083007812 -11.7620677947998047
17.5632247924804688 -98.6821975708007812 -13.7709932327270508
1.55644989013671875 105.924064636230469 10.170130729675293
4.85709667205810547 36.062103271484375 -15.8891792297363281
-12.2505645751953125 -83.329925537109375 -22.63287353515625
1.84167897701263428 96.2255630493164062 9.65674591064453125
-1.56562232971191406 25.5908889770507812 34.7776679992675781
-6.15131711959838867 -44.33758544921875 0.713582456111907959
1.79316771030426025 130.986343383789062 -0.306665480136871338
13.5271720886230469 -48.6253433227539062 -2.70971488952636719
-2.9930112361907959 120.577102661132812 19.0652503967285156
2.45869231224060059 120.073623657226562 -4.74584150314331055
1.06503951549530029 16.4625778198242188 38.6933746337890625
3.88426923751831055 53.6149559020996094 -8.05109119415283203
-2.31844735145568848 -2.27011656761169434 25.4469242095947266
-5.55934762954711914 -59.2004737854003906 -24.5820980072021484
-2.11623549461364746 57.6417884826660156 -21.6985263824462891
1.25012123584747314 -38.86358642578125 -23.3555049896240234
-4.09062719345092773 79.6078872680664062 0.309896796941757202
-4.59031486511230469 101.404281616210938 -5.17857837677001953
-15.3373136520385742 -82.1366119384765625 -15.6259298324584961
-10.8312902450561523 -94.3134536743164062 -1.00735414028167725
1.50560557842254639 -6.80702543258666992 38.4359207153320312
8.92652511596679688 -84.2196884155273438 0.430823862552642822
-13.9287614822387695 -43.7751197814941406 -7.25016117095947266
7.44679546356201172 -115.869224548339844 4.10201120376586914
5.05257558822631836 20.5309696197509766 -15.2963771820068359
-5.10688209533691406 104.970878601074219 -17.3278064727783203
-3.64108729362487793 99.7936477661132812 10.4227361679077148
1.15421772003173828 111.419647216796875 13.0469741821289062
2.59553885459899902 69.8419113159179688 7.38431596755981445
-0.930284202098846436 -64.4907073974609375 -24.2290153503417969
3.88199043273925781 42.7866325378417969 -4.94800901412963867
-2.83951258659362793 4.68257951736450195 15.7808637619018555
-9.79416656494140625 -61.7099609375 -0.617122530937194824
3.74941086769104004 39.453277587890625 -1.1155083179473877
6.09514093399047852 -109.633285522460938 -24.1443405151367188
-3.46601486206054688 35.9062080383300781 5.71194362640380859
1.33498334884643555 -3.63625645637512207 40.5929679870605469
5.93489599227905273 -40.3158721923828125 -23.0243549346923828
-1.70901894569396973 -28.7391605377197266 8.31337070465087891
-12.1441507339477539 -32.1304168701171875 -18.5329952239990234
1.61166477203369141 27.2995529174804688 30.0501728057861328
9.94810581207275391 -29.3003711700439453 -22.4633522033691406
-4.06267023086547852 22.4085216522216797 -7.15862131118774414
-3.8139641284942627 110.052467346191406 10.3502044677734375
-14.0458517074584961 -58.0549278259277344 -18.4871330261230469
4.68580770492553711 44.0936508178710938 -19.7226238250732422
0.429233253002166748 -26.8177967071533203 42.8000946044921875
3.49438095092773438 -81.1552352905273438 0.944890260696411133
-16.1057510375976562 -111.460494995117188 -10.0484189987182617
1.9182358980178833 87.8264846801757812 10.2870512008666992
16.234954833984375 -91.7341461181640625 -17.0890750885009766
5.76229715347290039 -102.56512451171875 -23.7792434692382812
3.88007307052612305 63.9352989196777344 -10.984339714050293
-1.73505222797393799 11.8421421051025391 33.3160514831542969
1.8848952054977417 115.069374084472656 3.75628209114074707
-3.89233136177062988 58.3207893371582031 2.11880064010620117
-15.09625244140625 -47.5543746948242188 -14.6910676956176758
2.0024559497833252 105.732170104980469 3.41711306571960449
12.6749897003173828 -131.744186401367188 1.37491333484649658
-7.28335380554199219 -47.1912498474121094 -23.8896446228027344
12.2702417373657227 -53.1921844482421875 -20.9408988952636719
12.1538352966308594 -132.779617309570312 -11.235957145690918
-0.739603161811828613 -34.9809951782226562 1.489188551902771
-3.33599209785461426 92.122406005859375 16.5045948028564453
3.19303703308105469 30.8195838928222656 8.67904472351074219
-2.21223235130310059 -22.1087779998779297 24.3783550262451172
-7.04703283309936523 -93.6033554077148438 0.783240795135498047
0.302347332239151001 137.331436157226562 16.7057018280029297
13.5811891555786133 -57.2390289306640625 -2.54301786422729492
-3.22084832191467285 46.4045600891113281 15.613245964050293
-1.75885009765625 -67.1040420532226562 -24.5342350006103516
-4.85346603393554688 78.7327957153320312 -14.5741062164306641
-15.1581554412841797 -54.1476898193359375 -11.5433740615844727
16.1843967437744141 -126.4119873046875 -0.598033726215362549
3.02220320701599121 29.1127719879150391 12.472294807434082
3.90474462509155273 10.2495574951171875 3.77386140823364258
-0.0480331890285015106 28.9642219543457031 40.8366966247558594
1.73687338829040527 -132.803680419921875 -0.144081190228462219
2.11658239364624023 97.4556808471679688 5.12930059432983398
-15.1104764938354492 -68.6397933959960938 -10.1857795715332031
-2.9783940315246582 80.7468948364257812 21.0421085357666016
-2.79323673248291016 -20.3594837188720703 12.5473003387451172
-5.4366459846496582 -80.3489151000976562 -25.7181339263916016
1.38363456726074219 36.2570343017578125 31.3436565399169922
10.4097824096679688 -125.909156799316406 6.81707906723022461
0.302814245223999023 117.620574951171875 21.7341785430908203
-2.94168233871459961 44.5541191101074219 17.7199268341064453
3.64708614349365234 84.3995895385742188 -15.3377294540405273
6.80687761306762695 -69.923553466796875 -22.9607772827148438
15.2005414962768555 -44.0029182434082031 -8.06025981903076172
12.7048959732055664 -32.9059791564941406 -9.91427040100097656
16.8845329284667969 -75.8171539306640625 -10.2287464141845703
-2.12895631790161133 62.1607437133789062 30.3671283721923828
1.90237152576446533 87.8488540649414062 10.6342010498046875
-11.2954339981079102 -50.9549446105957031 -1.95423436164855957
-3.34329319000244141 82.7893524169921875 16.4846858978271484
-4.67555379867553711 -47.4593734741210938 0.88133537769317627
-2.877166748046875 27.4743366241455078 15.6414356231689453
1.91280281543731689 101.784683227539062 6.87805843353271484
13.2997016906738281 -57.4632186889648438 -20.0972404479980469
4.05695390701293945 62.5745506286621094 -13.5582199096679688
0.423129647970199585 131.114852905273438 13.0766391754150391
15.8747196197509766 -98.8969192504882812 -18.4566535949707031
-13.1596574783325195 -124.581809997558594 -25.1183223724365234
-2.84444761276245117 -11.3095483779907227 13.4508934020996094
-4.45071792602539062 128.4342041015625 -1.45591235160827637
-3.63336539268493652 48.1506538391113281 6.09268045425415039
-1.80966281890869141 -1.29107987880706787 32.7887191772460938
-2.20057034492492676 76.582366943359375 29.3502311706542969
-4.17096710205078125 45.2448005676269531 -6.25195932388305664
-4.037628173828125 109.927200317382812 5.95913505554199219
-14.1222763061523438 -108.192901611328125 -22.421417236328125
-1.83717668056488037 148.890213012695312 13.3345699310302734
-3.17716693878173828 74.08746337890625 18.3901634216308594
2.53169369697570801 -5.13863611221313477 26.4951629638671875
1.93924176692962646 -3.82853388786315918 33.8026924133300781
14.70794677734375 -86.5660247802734375 -4.18669891357421875
-3.47223210334777832 -81.7600173950195312 -25.7015628814697266
9.78565216064453125 -85.1449127197265625 -22.6983737945556641
0.344239294528961182 97.81964111328125 23.9673995971679688
3.89920306205749512 69.7855682373046875 -13.6190557479858398
1.05392241477966309 30.5384349822998047 35.0597610473632812
17.2932338714599609 -105.028121948242188 -15.6827154159545898
-3.10079503059387207 -14.6618843078613281 7.50893688201904297
0.903901636600494385 94.5069503784179688 -23.7439613342285156
-7.39369821548461914 -34.1697502136230469 -23.4432086944580078
4.43264436721801758 56.4915733337402344 -18.8168010711669922
14.14794921875 -78.1624908447265625 -2.82560062408447266
1.55550622940063477 30.0685253143310547 30.5393886566162109
0.823587417602539062 104.261764526367188 17.5404090881347656
1.71161806583404541 69.4130706787109375 19.2331199645996094
-4.25725126266479492 -14.6608028411865234 -17.2212810516357422
2.66418266296386719 70.2166748046875 5.06616067886352539
-3.76762890815734863 10.0916776657104492 -2.61341476440429688
2.7622978687286377 106.097816467285156 -6.54200029373168945
-2.18148398399353027 90.1944961547851562 29.2443962097167969
4.18473720550537109 42.0697212219238281 -9.38351631164550781
2.34898614883422852 40.7294502258300781 18.7259941101074219
2.46831583976745605 57.430389404296875 10.8133344650268555
-4.50349807739257812 76.0907821655273438 -8.87405872344970703
-9.08741092681884766 -126.369026184082031 8.38579559326171875
3.28741908073425293 93.5621261596679688 -23.5831127166748047
-16.0982933044433594 -96.2708511352539062 -15.3262777328491211
-1.97067534923553467 -15.5470180511474609 29.2988853454589844
11.9321126937866211 -27.3011074066162109 -19.1153793334960938
0.899839341640472412 85.6276702880859375 -23.3780765533447266
14.9731712341308594 -74.1937713623046875 -18.5785236358642578
-4.05795574188232422 43.8440742492675781 -5.03848743438720703
-3.56269717216491699 93.3137664794921875 12.4117240905761719
0.0705637335777282715 143.11553955078125 8.06972503662109375
-6.44053459167480469 -132.01263427734375 -2.15052223205566406
-1.48667442798614502 108.875274658203125 27.2476425170898438
-9.87904644012451172 -64.6964569091796875 -23.4344711303710938
15.2531366348266602 -41.2663497924804688 -11.4499101638793945
2.71740174293518066 110.803077697753906 -5.75443077087402344
2.54284954071044922 -37.5326766967773438 -23.2620830535888672
4.76396894454956055 -13.0908536911010742 -3.2447354793548584
15.5868301391601562 -120.969161987304688 -0.98016357421875
-0.119410209357738495 31.8285388946533203 40.19927978515625
2.74666380882263184 83.0146636962890625 1.25149071216583252
4.40675258636474609 62.1302604675292969 -20.6126689910888672
-1.68688452243804932 39.2546806335449219 33.8782958984375
3.19530749320983887 3.1148076057434082 15.8695821762084961
-5.84660243988037109 -25.3796329498291016 -2.54430365562438965
-2.44220995903015137 55.5519790649414062 27.3694305419921875
-0.25896066427230835 146.799911499023438 10.1033859252929688
-4.63595676422119141 107.813491821289062 -7.52583551406860352
-3.36693501472473145 -7.22435760498046875 2.60388064384460449
0.523666977882385254 43.1495933532714844 37.0465164184570312
12.3900184631347656 -73.0001983642578125 -21.0546474456787109
10.1687231063842773 -26.246612548828125 -9.78229141235351562
11.2196722030639648 -73.0944900512695312 -0.188734099268913269
1.32514762878417969 87.393157958984375 17.7852058410644531
0.751848459243774414 124.118637084960938 12.1826143264770508
-8.13430213928222656 -88.715423583984375 -25.6762428283691406
16.0196990966796875 -44.4717063903808594 -15.1149063110351562
-1.49712264537811279 -23.7155342102050781 34.5149078369140625
1.30365943908691406 55.0697174072265625 27.5357494354248047
11.9127712249755859 -92.4684371948242188 -0.735482931137084961
11.866943359375 -56.1459846496582031 -21.214324951171875
-2.702178955078125 131.088653564453125 20.5251235961914062
3.35873770713806152 29.1801433563232422 6.57666206359863281
-8.81067276000976562 -126.823554992675781 -27.0750541687011719
-2.95438671112060547 73.4740371704101562 22.2853183746337891
1.34810030460357666 -53.9992256164550781 -23.4798583984375
4.70215225219726562 -14.3970050811767578 -3.00589895248413086
3.47707867622375488 19.1597614288330078 8.03241348266601562
0.847838342189788818 57.33343505859375 30.3908042907714844
0.81388401985168457 -27.1704673767089844 41.5022735595703125
8.663299560546875 -31.6645050048828125 0.678110480308532715
2.93169832229614258 92.7425918579101562 -5.13786029815673828
2.80326056480407715 5.19114589691162109 19.9727382659912109
-2.93198966979980469 41.4955825805664062 17.8661460876464844
12.8654088973999023 -122.922996520996094 -22.8076705932617188
2.49146604537963867 98.8440780639648438 -0.430146992206573486
-1.13569104671478271 -44.3142204284667969 -23.5980072021484375
-4.79241943359375 39.29144287109375 -17.9218959808349609
-3.59148669242858887 43.7889442443847656 5.06901979446411133
3.58823633193969727 42.3521537780761719 -0.329806268215179443
2.4013218879699707 0.86830437183380127 26.9665279388427734
-6.77839326858520508 -44.8424453735351562 -23.9207057952880859
13.8228349685668945 -36.4707717895507812 -10.3483209609985352
4.45017480850219727 -4.73183584213256836 0.928260922431945801
8.59486675262451172 -104.433479309082031 1.62614226341247559
-2.86682772636413574 -25.5808315277099609 10.5592002868652344
4.37530946731567383 58.7959327697753906 -17.8119335174560547
9.52492427825927734 -124.272598266601562 -24.8695144653320312
16.6968154907226562 -61.7275810241699219 -13.4404916763305664
-2.91715383529663086 10.815730094909668 14.20147705078125
-3.02081298828125 6.60113239288330078 11.6324472427368164
-5.8716888427734375 -123.634895324707031 7.98500537872314453
4.66063022613525391 13.1635255813598633 -20.2035961151123047
-4.2144017219543457 42.3398971557617188 -9.34982395172119141
-3.62012434005737305 82.1417617797851562 9.63384246826171875
-6.04474687576293945 -53.2969856262207031 0.708184003829956055
3.44961690902709961 -10.5251245498657227 16.3221588134765625
-3.06149458885192871 126.309913635253906 17.8431205749511719
3.4702298641204834 -25.15704345703125 19.4293327331542969
3.74585676193237305 -123.069290161132812 7.02440929412841797
5.19127607345581055 9.02073287963867188 -14.5979633331298828
-4.59576225280761719 67.7156524658203125 -11.6272573471069336
-4.58201503753662109 42.5878753662109375 -15.1330108642578125
-3.61781764030456543 48.2470054626464844 6.22621822357177734
-0.950906038284301758 -104.051788330078125 1.99181568622589111
4.37145709991455078 32.9961013793945312 -10.4951505661010742
13.5653438568115234 -124.301651000976562 -22.4479885101318359
0.0510504171252250671 101.611366271972656 28.3604221343994141
1.01505875587463379 91.6081008911132812 20.9871044158935547
-3.08749866485595703 -13.2526254653930664 -20.9318771362304688
0.811450302600860596 84.45843505859375 23.1187343597412109
-3.49861717224121094 66.1223297119140625 10.7396507263183594
-3.60062050819396973 90.8601150512695312 11.6408863067626953
16.2440261840820312 -118.47271728515625 -18.3980731964111328
5.44147872924804688 -1.23258817195892334 -13.711583137512207
4.05466699600219727 34.2930068969726562 -4.67272710800170898
-0.537637591361999512 91.0818557739257812 31.2715988159179688
4.62076568603515625 33.4978218078613281 -13.3942861557006836
2.3553917407989502 80.6035995483398438 5.90807771682739258
-3.77933669090270996 85.599456787109375 7.32779169082641602
15.0125541687011719 -46.7021598815917969 -5.49544906616210938
3.87917542457580566 -14.9348487854003906 9.43474197387695312
-14.8336868286132812 -72.1094970703125 -7.72617626190185547
-0.238923132419586182 127.912384033203125 -8.87910270690917969
-1.79114997386932373 34.6768341064453125 32.5959548950195312
-12.6953716278076172 -98.4120712280273438 -23.5368118286132812
2.89627242088317871 112.460441589355469 -10.6980180740356445
-4.64508199691772461 -87.0743408203125 -26.0751781463623047
-0.83403700590133667 -82.1942901611328125 0.923160970211029053
-1.30597341060638428 14.1930551528930664 37.0896835327148438
-10.1449356079101562 -126.280868530273438 7.56595754623413086
-3.26407670974731445 -54.4742889404296875 0.906859874725341797
-1.65340197086334229 39.53045654296875 34.3901824951171875
2.53229522705078125 98.099578857421875 -0.559873521327972412
1.31512832641601562 135.376922607421875 0.0535636134445667267
0.157599613070487976 73.895538330078125 33.494293212890625
13.9854774475097656 -57.321533203125 -3.02768683433532715
10.2229852676391602 -25.7757968902587891 -11.0886917114257812
1.91941535472869873 -12.2100887298583984 35.6854629516601562
17.0155525207519531 -88.4067535400390625 -14.6178598403930664
-0.328822284936904907 18.3282051086425781 41.9543342590332031
3.77919149398803711 1.62992262840270996 7.24038839340209961
-4.78833866119384766 43.9556922912597656 -19.3894805908203125
