ply
format ascii 1.0
element vertex 782
comment vertices
property float x
property float y
property float z
end_header
-6.17614507675170898 -141.893692016601562 14.3958349227905273
-9.65531539916992188 -128.65460205078125 -13.4061145782470703
-5.98411655426025391 -151.46771240234375 -16.5854473114013672
4.68172645568847656 4.39348220825195312 20.7203826904296875
-0.857353508472442627 29.4680328369140625 -16.8596878051757812
0.218228787183761597 4.16797494888305664 23.1175575256347656
-9.83413887023925781 -128.368759155273438 -4.22792911529541016
-9.48336505889892578 -33.9776535034179688 -14.4935894012451172
-0.58850407600402832 124.841171264648438 13.9332265853881836
2.91765618324279785 4.86447429656982422 7.46243715286254883
6.56192302703857422 -144.129837036132812 -2.92144370079040527
-2.10823702812194824 -9.62804985046386719 -13.48602294921875
6.98323154449462891 -86.1866531372070312 -7.92843532562255859
10.8043069839477539 -37.1345634460449219 11.6300544738769531
-7.08611869812011719 -20.2176761627197266 -18.0569019317626953
1.9250333309173584 55.8892326354980469 -4.33656597137451172
6.26722383499145508 -107.117149353027344 10.3580188751220703
-9.67206382751464844 -55.3550872802734375 -2.9899599552154541
0.616393029689788818 -8.90924739837646484 -7.86878061294555664
4.72092628479003906 48.9971542358398438 17.0040760040283203
-0.931576251983642578 111.950424194335938 4.01039218902587891
5.12838220596313477 -111.2337646484375 -14.551121711730957
-2.44842267036437988 -23.5824851989746094 13.8067770004272461
7.51298904418945312 -119.860427856445312 0.0312018431723117828
-1.60906767845153809 60.0847969055175781 -7.6327366828918457
-0.53015589714050293 90.9331817626953125 -17.3908367156982422
-0.502100944519042969 8.02287387847900391 22.2460594177246094
-1.15815150737762451 159.007354736328125 -10.2966146469116211
0.809627652168273926 -12.2395439147949219 -6.37193584442138672
-9.94415855407714844 -123.907806396484375 -9.63714504241943359
1.84304523468017578 88.5408096313476562 -6.99765539169311523
5.58840847015380859 -141.803390502929688 -8.51053333282470703
4.86651277542114258 117.369400024414062 13.9496746063232422
4.02887058258056641 -97.1983184814453125 -17.1682224273681641
-0.675346553325653076 98.9493179321289062 7.21770381927490234
3.3376612663269043 128.998138427734375 1.85092508792877197
-0.393480777740478516 -10.023371696472168 -15.9241151809692383
0.796256482601165771 111.52337646484375 -14.2373256683349609
-9.70612239837646484 -43.5244216918945312 -10.9512805938720703
-8.94345188140869141 -128.069320678710938 -15.9422540664672852
-9.65276432037353516 -73.4938430786132812 1.84454536437988281
2.44101095199584961 -20.862213134765625 6.97455358505249023
0.791893959045410156 -36.0624046325683594 19.6113948822021484
-4.95084285736083984 -22.3160381317138672 1.1038823127746582
6.67620086669921875 -114.894027709960938 9.71896648406982422
-1.67221653461456299 45.4517059326171875 -6.77031564712524414
-8.34627056121826172 -139.274856567382812 12.9036378860473633
5.95805740356445312 -22.6791419982910156 2.26768803596496582
7.08612966537475586 -45.3326034545898438 -11.1627492904663086
-8.07677459716796875 -145.739273071289062 -16.0300979614257812
1.68484091758728027 -124.769744873046875 12.1560115814208984
1.11880528926849365 -51.6324653625488281 9.64627742767333984
-1.55287706851959229 55.9218063354492188 -8.14214801788330078
-9.1805419921875 -63.8122444152832031 -16.4260787963867188
1.81484353542327881 -10.8044538497924805 23.1677989959716797
-2.37171554565429688 -16.3178558349609375 -15.6046724319458008
-1.8010486364364624 48.6643180847167969 -16.2164955139160156
-9.73267650604248047 -60.7526016235351562 -12.3868904113769531
-7.49290800094604492 -103.480705261230469 9.99393367767333984
2.23293495178222656 37.0483894348144531 0.450437963008880615
5.23963356018066406 -57.0955696105957031 7.4346776008605957
-2.81949424743652344 -22.832427978515625 5.94959831237792969
3.15654706954956055 105.619056701660156 1.73763024806976318
5.16680145263671875 131.008163452148438 12.6341476440429688
-0.921752989292144775 6.85150671005249023 9.77338027954101562
-0.358349233865737915 87.2362594604492188 15.5434150695800781
-2.09361839294433594 49.0314826965332031 -14.0705623626708984
2.82092571258544922 97.8434066772460938 -0.0630544722080230713
-4.01412105560302734 -73.5726776123046875 -21.4772701263427734
10.5817880630493164 -30.7774124145507812 9.99198246002197266
-0.00172647170256823301 37.1807594299316406 -14.4245386123657227
2.37148237228393555 124.777992248535156 -5.37627220153808594
3.5328669548034668 -10.0669031143188477 12.7846412658691406
0.073148384690284729 -83.5388870239257812 11.0868558883666992
3.08066582679748535 63.9279594421386719 3.34167861938476562
2.81897521018981934 59.4704856872558594 2.85836625099182129
1.06255459785461426 -14.6212072372436523 -3.90798592567443848
-0.82007366418838501 -88.7613677978515625 -20.9044437408447266
0.116418421268463135 -119.301025390625 12.5261402130126953
0.0115608712658286095 148.841659545898438 14.9225759506225586
-0.385625720024108887 -14.019378662109375 -16.2891445159912109
4.68250322341918945 98.350311279296875 11.6525545120239258
-1.53279376029968262 9.18169021606445312 -5.70702791213989258
-0.822093665599822998 113.524681091308594 5.95616340637207031
-0.626510381698608398 100.188247680664062 15.2479362487792969
7.68195867538452148 -141.4305419921875 3.94696259498596191
-5.65851640701293945 -159.33697509765625 -7.89944076538085938
5.80733299255371094 -127.231529235839844 9.69017219543457031
-1.90417063236236572 30.1808719635009766 -11.5930576324462891
-2.19387650489807129 -75.1822662353515625 -21.3739166259765625
3.05998945236206055 162.967697143554688 -2.5325782299041748
3.55479717254638672 -52.4965286254882812 -17.5835609436035156
6.9440150260925293 -116.350364685058594 9.19530868530273438
-9.01017665863037109 -31.076873779296875 9.46944808959960938
1.77288210391998291 -155.230514526367188 0.510207712650299072
4.05376911163330078 133.433258056640625 6.05668830871582031
-0.45354539155960083 123.5 12.9620819091796875
3.76070261001586914 43.4475746154785156 10.1568365097045898
7.19884777069091797 -98.2051010131835938 8.83673000335693359
-9.64738845825195312 -87.4219818115234375 -14.1862506866455078
2.82380199432373047 91.33270263671875 0.256798416376113892
3.34477066993713379 -21.8442897796630859 4.14304018020629883
1.92752110958099365 143.9898681640625 15.937408447265625
-1.39244329929351807 91.1739883422851562 -4.56704235076904297
-3.06002402305603027 -112.010704040527344 -20.88677978515625
-0.703248083591461182 -113.196479797363281 -20.0609378814697266
-0.536758661270141602 116.55340576171875 -16.0029506683349609
-9.85914134979248047 -102.313621520996094 -12.3869590759277344
-0.473023265600204468 14.9730596542358398 20.422576904296875
7.2773900032043457 -69.9682235717773438 -7.64332389831542969
2.40017795562744141 166.250717163085938 -6.71615839004516602
3.30370783805847168 -54.7857780456542969 -17.7322940826416016
0.440142512321472168 18.0472812652587891 -10.0892210006713867
4.02582693099975586 54.5545463562011719 11.3135814666748047
-9.27722549438476562 -37.6634292602539062 -15.4636020660400391
5.0956873893737793 -92.550811767578125 -15.6331863403320312
-1.43626606464385986 35.0445976257324219 -3.7950141429901123
-1.88875329494476318 -4.80231809616088867 -10.5296916961669922
7.82289314270019531 -130.12109375 3.6619107723236084
-8.48579120635986328 -97.572998046875 -17.57269287109375
4.19248771667480469 -5.31257534027099609 22.0177841186523438
7.64505481719970703 -61.5403861999511719 -6.43036079406738281
0.319915533065795898 -15.573267936706543 -8.476837158203125
-4.4446415901184082 -135.820938110351562 15.6667490005493164
-1.76889002323150635 76.3091201782226562 -13.4072866439819336
3.20225143432617188 -152.777984619140625 3.2041623592376709
-0.467335224151611328 82.53082275390625 13.4674520492553711
-1.34035718441009521 76.62933349609375 -3.5755760669708252
2.24504494667053223 66.475830078125 -2.65870118141174316
-1.44642484188079834 8.37985038757324219 -3.83079838752746582
2.97618699073791504 88.8937225341796875 0.762066960334777832
3.90371608734130859 87.910186767578125 20.5832080841064453
7.46720504760742188 -75.8885498046875 -5.82534599304199219
-9.54639625549316406 -38.6752052307128906 -0.669500410556793213
-9.46975231170654297 -126.63165283203125 -14.1339130401611328
1.96751618385314941 -140.101333618164062 -17.9031105041503906
-9.23096179962158203 -46.4890823364257812 3.31548643112182617
7.15612316131591797 -27.2138233184814453 -11.6723775863647461
-9.08048343658447266 -32.336578369140625 8.92580890655517578
-1.81175780296325684 89.3994979858398438 -15.1238231658935547
8.08423233032226562 -26.4191646575927734 12.4011812210083008
7.30697917938232422 -40.0022392272949219 -10.1798725128173828
-0.882458746433258057 168.283905029296875 -7.12859487533569336
-0.89093482494354248 68.6639785766601562 3.6976773738861084
6.24089670181274414 -86.6425552368164062 8.9955902099609375
-0.667962372303009033 14.0453681945800781 13.8985986709594727
0.380740553140640259 -106.528427124023438 -19.6759395599365234
3.95378255844116211 23.1548614501953125 13.203094482421875
-0.464417040348052979 124.694984436035156 11.1855583190917969
-1.2641751766204834 108.861183166503906 -2.69115447998046875
3.44555902481079102 39.6680221557617188 8.56515598297119141
-6.86326742172241211 -115.429771423339844 10.5253286361694336
-1.08908474445343018 8.33051776885986328 5.48712015151977539
-1.27643668651580811 -7.73372554779052734 4.19246768951416016
3.67456984519958496 22.0519504547119141 10.2153911590576172
-4.36790132522583008 -22.9361000061035156 4.12454032897949219
-1.67094242572784424 64.9075088500976562 -8.15964031219482422
-2.21367239952087402 26.0868244171142578 -14.2893428802490234
-1.68912744522094727 37.7647666931152344 -9.94489669799804688
-1.00097191333770752 -24.6611499786376953 16.1240406036376953
-9.59624576568603516 -81.0531539916992188 1.45425033569335938
-0.389509767293930054 60.8367462158203125 17.3014392852783203
-9.67003536224365234 -54.4964675903320312 -12.8665895462036133
4.41943931579589844 -3.71761655807495117 18.0115337371826172
6.23990440368652344 -112.265678405761719 10.3251886367797852
7.19776678085327148 -58.3896446228027344 5.54552459716796875
-1.22682273387908936 114.632774353027344 -0.473889052867889404
-9.60259056091308594 -85.2822036743164062 -14.1336183547973633
-1.6621478796005249 134.192550659179688 -12.312042236328125
-1.58870458602905273 82.9035415649414062 -9.40831756591796875
0.658847570419311523 -119.055374145507812 12.4649839401245117
-4.19039440155029297 -22.0232887268066406 0.302154034376144409
-0.61703413724899292 -17.0949440002441406 -19.4958286285400391
0.238819301128387451 0.501162350177764893 -10.7468900680541992
8.74619674682617188 -54.9056777954101562 -0.730660021305084229
-0.484262943267822266 125.295730590820312 12.2771873474121094
-5.27948284149169922 -141.840896606445312 15.1011152267456055
-0.923695743083953857 175.3685302734375 0.817430019378662109
-1.94505000114440918 44.9018707275390625 -10.9184932708740234
0.7989158034324646 4.13562250137329102 23.3452033996582031
3.66445541381835938 163.28802490234375 2.36325359344482422
-1.35280895233154297 15.4101686477661133 0.887270987033843994
-1.38131141662597656 158.50262451171875 -6.59001255035400391
4.97041797637939453 84.4803695678710938 14.9511051177978516
-6.64722585678100586 -131.336517333984375 -18.9786186218261719
4.72641992568969727 -143.31597900390625 -13.4891786575317383
4.48924732208251953 165.509384155273438 5.99769115447998047
2.96238541603088379 152.508438110351562 13.6323509216308594
-4.60263586044311523 -22.0223331451416016 -20.7761878967285156
-9.93724346160888672 -128.10296630859375 -10.0119848251342773
-0.123373590409755707 154.344024658203125 13.0958833694458008
-0.793248593807220459 149.311080932617188 5.36969757080078125
4.61195993423461914 -124.170974731445312 -15.3406047821044922
-1.24681901931762695 160.395263671875 -8.45669174194335938
3.90785360336303711 145.773468017578125 14.4326839447021484
-9.61145210266113281 -31.7178611755371094 -10.9332780838012695
7.49673557281494141 -125.243637084960938 0.547804653644561768
3.3394007682800293 -20.1647663116455078 14.9341764450073242
-3.65994453430175781 -72.1864166259765625 9.45435237884521484
2.79686856269836426 3.23364686965942383 5.76175355911254883
3.21583271026611328 41.7751884460449219 6.72319650650024414
-1.66217935085296631 -16.5301284790039062 -5.8972625732421875
-0.638537466526031494 127.719772338867188 -15.0828313827514648
-2.08954453468322754 -7.01823806762695312 -13.4116659164428711
2.16597342491149902 -106.584381103515625 -18.7446250915527344
4.35025405883789062 142.662445068359375 8.38728618621826172
0.34541437029838562 5.56267070770263672 -10.2643585205078125
-1.20740687847137451 8.136749267578125 3.42604255676269531
2.79479122161865234 106.19049072265625 -1.35444748401641846
-9.52834320068359375 -41.74420166015625 -2.47109818458557129
-1.66280364990234375 16.1719093322753906 -4.82813835144042969
4.55469942092895508 -152.16595458984375 -12.8377246856689453
3.97697901725769043 98.2580795288085938 6.48769140243530273
-0.52261728048324585 53.7429771423339844 13.347294807434082
-0.432393640279769897 -14.8665437698364258 18.9934577941894531
-0.989253461360931396 18.6788425445556641 7.44565391540527344
0.950424253940582275 34.5557098388671875 -8.58004951477050781
-6.73076486587524414 -99.0586318969726562 -19.7833061218261719
-0.412923544645309448 34.060211181640625 17.6692657470703125
-6.03264951705932617 -69.2113494873046875 7.64392662048339844
4.80160045623779297 -124.153244018554688 -14.6871376037597656
3.00049519538879395 101.777427673339844 0.456951528787612915
-9.81801700592041016 -100.226707458496094 -1.88746094703674316
-9.84630012512207031 -131.943191528320312 -4.83472967147827148
-5.41551446914672852 -47.208526611328125 -20.2308368682861328
8.22887325286865234 -75.3335800170898438 -1.73530995845794678
-0.621782779693603516 101.161163330078125 16.0799694061279297
3.63447761535644531 27.2865848541259766 10.613926887512207
-5.3085179328918457 -156.911849975585938 -13.9200515747070312
-9.67889595031738281 -58.2963714599609375 -14.6550064086914062
8.38416767120361328 -85.3707046508789062 1.1991732120513916
2.5491337776184082 15.9303512573242188 4.06694459915161133
4.73724365234375 65.554473876953125 14.7245635986328125
-1.20770943164825439 147.4420166015625 -1.09706246852874756
-9.45864677429199219 -26.5675220489501953 -11.0715446472167969
-9.83364391326904297 -130.3851318359375 -6.68018579483032227
-0.812291383743286133 64.9275283813476562 6.44494152069091797
-9.65424251556396484 -133.903549194335938 3.87031936645507812
-0.338844418525695801 70.6354904174804688 15.2490825653076172
2.62781453132629395 98.5171737670898438 -1.41020584106445312
-0.49234810471534729 120.314186096191406 13.2855730056762695
4.18114566802978516 51.3700714111328125 13.2800703048706055
2.45242929458618164 168.24859619140625 -6.23954677581787109
7.53380537033081055 -41.6614265441894531 -9.0763702392578125
-9.73505306243896484 -61.205902099609375 -2.99876880645751953
-4.56343889236450195 -79.0507125854492188 9.86016941070556641
-0.662639141082763672 12.8266525268554688 14.3986530303955078
-0.963191509246826172 -2.4654088020324707 10.3154497146606445
-1.24966061115264893 -1.30100655555725098 3.03755903244018555
0.783520340919494629 -155.888885498046875 0.186388105154037476
-8.3268585205078125 -108.660285949707031 -17.7909908294677734
3.02901458740234375 -116.276901245117188 12.0606708526611328
-3.60022377967834473 -82.9677352905273438 -21.4118366241455078
-9.81865787506103516 -68.1397933959960938 -6.53945112228393555
-0.141889870166778564 76.8773574829101562 20.1745853424072266
1.03366994857788086 -78.1423721313476562 10.8543167114257812
-0.814317166805267334 -56.6743621826171875 -20.6115512847900391
1.81923496723175049 171.295852661132812 7.76258468627929688
-0.661243021488189697 12.1789674758911133 15.2911348342895508
0.429721087217330933 -17.9356822967529297 17.7087574005126953
-0.209317117929458618 128.329025268554688 14.8486518859863281
5.07147645950317383 97.2842025756835938 14.3772830963134766
-9.17437648773193359 -53.1916351318359375 2.33603835105895996
6.46861934661865234 -99.9789047241210938 -8.54686164855957031
8.72295284271240234 -54.7099418640136719 0.371689826250076294
3.38180756568908691 22.8106880187988281 8.51691150665283203
-9.60302162170410156 -44.9474563598632812 -3.56322407722473145
-2.72115421295166016 -24.9155178070068359 16.6024971008300781
0.84559863805770874 18.6575126647949219 -6.81205463409423828
-7.07088470458984375 -93.3942947387695312 9.75938510894775391
-1.08359622955322266 29.8106975555419922 2.65771913528442383
-0.0413542985916137695 66.2000656127929688 -16.5313816070556641
-1.43969571590423584 -22.5597209930419922 -21.4566020965576172
-9.66328048706054688 -44.081085205078125 -5.10106372833251953
-7.41394948959350586 -93.494903564453125 9.43824577331542969
4.62697029113769531 20.5880260467529297 17.0708656311035156
2.74610519409179688 -157.047286987304688 -4.94864892959594727
-1.81290638446807861 7.82941389083862305 -8.37836265563964844
4.88204479217529297 -118.507225036621094 11.3094425201416016
-0.519293844699859619 38.79290771484375 20.7857856750488281
8.68014049530029297 -26.1560897827148438 -0.894406557083129883
3.58204174041748047 -111.126869201660156 -17.5875778198242188
3.81042289733886719 -25.8125572204589844 16.4246234893798828
0.748056948184967041 -17.0193004608154297 -6.18100357055664062
6.24279642105102539 -62.2317962646484375 6.41687917709350586
4.48342657089233398 99.6094284057617188 10.526066780090332
-9.0040283203125 -66.8156661987304688 4.02731943130493164
-0.681078851222991943 40.833648681640625 12.2837638854980469
0.430914610624313354 -12.8011817932128906 -8.59965705871582031
5.62372064590454102 -121.341224670410156 -10.7965173721313477
3.6538538932800293 51.3605117797851562 9.34454727172851562
-1.45983600616455078 124.659675598144531 -8.01700305938720703
3.84019351005554199 121.200927734375 5.92307949066162109
-1.3990168571472168 -147.5911865234375 11.7332334518432617
10.1350746154785156 -35.4464874267578125 17.1103096008300781
-0.676010251045227051 42.9567451477050781 12.2555942535400391
-5.05914878845214844 -78.7936859130859375 9.59695243835449219
-9.67495346069335938 -87.8026809692382812 1.17715358734130859
-9.58500289916992188 -153.179168701171875 -7.94179964065551758
-0.319531053304672241 96.2931060791015625 18.4921970367431641
5.02505922317504883 137.647796630859375 13.349919319152832
-0.6780356764793396 -5.85605621337890625 17.722198486328125
2.09846353530883789 109.604682922363281 -5.97180366516113281
3.1434783935546875 18.0499725341796875 7.21964120864868164
6.31177425384521484 -88.264892578125 9.14633846282958984
-9.00528717041015625 -34.54547119140625 11.5213623046875
3.1462700366973877 -15.1390113830566406 10.5768346786499023
2.91211342811584473 93.5240020751953125 0.996211111545562744
5.73796319961547852 -85.6449661254882812 -13.9852800369262695
-0.503809213638305664 15.8177585601806641 15.8161172866821289
3.54361748695373535 114.748710632324219 18.0204181671142578
3.11215591430664062 0.181275218725204468 8.20935440063476562
8.62604808807373047 -81.580474853515625 1.82825827598571777
-0.377362966537475586 -146.184585571289062 -18.1311931610107422
-1.35102236270904541 141.97674560546875 -4.21920680999755859
1.51809394359588623 30.1103515625 23.4049797058105469
8.05803108215332031 -137.745498657226562 6.42413949966430664
2.46484899520874023 95.5970535278320312 -2.44862747192382812
4.76326179504394531 37.9305877685546875 20.2255668640136719
3.76715612411499023 -139.570770263671875 16.1246414184570312
2.00182819366455078 77.2248458862304688 -4.61452770233154297
5.21086597442626953 -153.765960693359375 -3.19134926795959473
-2.3687596321105957 19.8694782257080078 -16.3378696441650391
-1.59235823154449463 36.8970222473144531 -6.01361560821533203
-0.860600411891937256 147.439254760742188 4.75018501281738281
-1.24323415756225586 95.9961776733398438 -2.9874579906463623
-1.07421767711639404 0.580875933170318604 7.00717544555664062
3.70625710487365723 46.8392868041992188 10.447077751159668
-8.64943599700927734 -71.13616943359375 -17.3933391571044922
-1.25238215923309326 -18.2430992126464844 3.37924027442932129
3.00203275680541992 -65.802276611328125 -18.0032901763916016
-9.54431438446044922 -139.145584106445312 -13.3156709671020508
2.3475639820098877 2.36794400215148926 1.65262091159820557
-0.487209916114807129 32.2959518432617188 18.4940662384033203
-1.73943841457366943 17.9037818908691406 -7.34040403366088867
-0.950089931488037109 -63.7352371215820312 -20.3587417602539062
-1.37565934658050537 45.4346923828125 -2.19603610038757324
2.80573439598083496 110.045562744140625 -0.509900748729705811
-6.9835057258605957 -34.7653846740722656 -18.8860664367675781
4.38006258010864258 79.5355224609375 20.0548820495605469
-0.507443785667419434 16.8383140563964844 16.2851428985595703
4.5094146728515625 94.2421035766601562 10.8430423736572266
7.12317085266113281 -72.64129638671875 6.59583616256713867
5.47091436386108398 -30.4848861694335938 20.7711906433105469
6.97312211990356445 -123.910057067871094 -2.78440546989440918
-1.77058124542236328 64.7945632934570312 -11.4053544998168945
9.06455802917480469 -41.7575912475585938 -0.204820141196250916
-9.21494483947753906 -133.896591186523438 9.50333786010742188
-7.37549495697021484 -86.057098388671875 8.74610042572021484
7.82436227798461914 -40.8419952392578125 -8.16427326202392578
-0.199891194701194763 19.6051120758056641 -14.8221235275268555
4.06264019012451172 86.5322647094726562 20.6259994506835938
5.66997194290161133 -141.30023193359375 15.0299978256225586
9.0396881103515625 -28.9038124084472656 -1.80436360836029053
-1.29053699970245361 -12.7914190292358398 4.58725166320800781
8.34001827239990234 -78.5883712768554688 -0.286560267210006714
-0.517332077026367188 -6.48332548141479492 21.7668170928955078
-0.814478933811187744 64.3747482299804688 6.46027421951293945
-0.812185943126678467 97.5520248413085938 3.14767098426818848
-9.82511997222900391 -104.458946228027344 -1.8005824089050293
1.36816859245300293 -51.76922607421875 9.77376461029052734
4.11897754669189453 29.4440193176269531 14.2544651031494141
3.36278033256530762 145.01849365234375 0.781843245029449463
0.460389465093612671 42.293121337890625 -11.4407367706298828
-7.97802639007568359 -113.222991943359375 -18.1161117553710938
0.466049432754516602 -14.5525884628295898 -7.94036483764648438
7.57248401641845703 -68.9244384765625 5.37770271301269531
8.14652538299560547 -67.8256912231445312 3.70567131042480469
-1.45067298412322998 125.547225952148438 -7.81851434707641602
3.96244478225708008 150.689910888671875 13.6431827545166016
-3.72885799407958984 -48.4080276489257812 -21.1692409515380859
-9.22841644287109375 -112.622604370117188 7.37650108337402344
3.71640849113464355 -156.78948974609375 -6.88811588287353516
3.82819581031799316 -28.548675537109375 -17.1196784973144531
-0.646644473075866699 23.6938076019287109 14.1765069961547852
3.31480836868286133 100.2943115234375 2.78857660293579102
2.08398199081420898 100.902976989746094 -6.36558294296264648
-4.76611995697021484 -81.2637786865234375 -21.0905704498291016
-9.80795764923095703 -144.908187866210938 -10.7725496292114258
2.07762956619262695 -101.254173278808594 -18.9743976593017578
4.43480014801025391 93.8096237182617188 19.8938064575195312
1.03044629096984863 23.7090225219726562 23.6072483062744141
6.70167350769042969 -68.0591278076171875 -10.9335155487060547
3.57160711288452148 108.972763061523438 3.48353075981140137
-9.46016025543212891 -29.3227119445800781 -3.94757318496704102
-8.71872711181640625 -95.7667999267578125 7.85060691833496094
7.84331846237182617 -76.0125885009765625 -3.60106658935546875
3.27047872543334961 79.5945358276367188 4.18785524368286133
-0.385412454605102539 78.2457275390625 19.6947250366210938
3.37936282157897949 -125.037925720214844 -17.6899909973144531
-9.75122642517089844 -123.154685974121094 2.23041629791259766
-4.89761686325073242 -68.9735946655273438 8.42615127563476562
4.48102331161499023 -124.708633422851562 -15.7327184677124023
3.65584039688110352 102.395904541015625 19.3630638122558594
1.9742966890335083 39.3021087646484375 -1.32242846488952637
-0.344339162111282349 88.8541488647460938 14.3741884231567383
3.9654231071472168 2.05003643035888672 22.6301441192626953
-6.23456287384033203 -25.7881584167480469 -19.6182918548583984
2.02389097213745117 70.8821487426757812 -3.96620845794677734
0.466649293899536133 35.4802055358886719 22.2042350769042969
-0.963754713535308838 -129.934722900390625 -19.9632396697998047
4.09157991409301758 22.6140708923339844 13.7260408401489258
-4.89703512191772461 -153.641021728515625 3.98601841926574707
-3.81914544105529785 -48.5454826354980469 -21.1626701354980469
7.53853082656860352 -89.3081512451171875 -3.76457071304321289
-7.48333024978637695 -71.7905426025390625 -18.8667068481445312
-1.01356089115142822 -8.34229564666748047 8.81659698486328125
2.44427013397216797 19.5976161956787109 3.33119010925292969
-9.74548625946044922 -106.180419921875 1.6197509765625
1.2201915979385376 -13.0412378311157227 -3.48408865928649902
4.23307991027832031 52.6702957153320312 20.6266441345214844
-0.305236399173736572 67.106536865234375 17.4604473114013672
6.89852809906005859 -40.89794921875 -12.6527156829833984
0.801412045955657959 155.908111572265625 -11.9192390441894531
-1.61443781852722168 -13.0155754089355469 -4.75937509536743164
-1.75480520725250244 133.340850830078125 -11.3829011917114258
7.80743694305419922 -24.2722206115722656 -5.46577215194702148
-6.62799549102783203 -158.298141479492188 -6.97760486602783203
2.63779306411743164 55.4493865966796875 1.97245621681213379
-9.85237312316894531 -60.6981735229492188 -10.4229707717895508
2.77881097793579102 181.071731567382812 -2.02865433692932129
-1.20000839233398438 148.883529663085938 -1.53534221649169922
8.16824722290039062 -111.273429870605469 3.16839265823364258
1.73734784126281738 -34.9404220581054688 19.9937477111816406
-9.78962135314941406 -148.758575439453125 -2.37744426727294922
6.64892101287841797 -112.366264343261719 -5.97499418258666992
1.88610851764678955 60.0392837524414062 -3.4067535400390625
1.16350185871124268 -124.103057861328125 -19.129364013671875
-9.76471328735351562 -141.047164916992188 -1.63309311866760254
8.34493160247802734 -74.412109375 3.33404064178466797
-0.123025082051753998 -147.660964965820312 -17.7837371826171875
-9.74332618713378906 -140.567184448242188 0.41358223557472229
2.64321398735046387 82.6562271118164062 -0.555948197841644287
0.612655580043792725 34.5433349609375 -10.6531953811645508
0.0649700984358787537 18.0338497161865234 -12.685887336730957
0.895715653896331787 108.3985595703125 -13.5715179443359375
3.84558415412902832 51.3392333984375 21.3517608642578125
8.84806060791015625 -48.948822021484375 4.08286762237548828
3.55173659324645996 98.8159027099609375 4.66002988815307617
8.29518604278564453 -53.0444183349609375 3.76143836975097656
-1.77661514282226562 129.2969970703125 -10.9790363311767578
-1.68894505500793457 29.0609416961669922 -8.75930976867675781
0.0738672763109207153 -85.4949722290039062 11.2017383575439453
2.94113469123840332 121.904922485351562 18.2549228668212891
0.349228888750076294 80.6212234497070312 -15.1741371154785156
-1.26662123203277588 -17.6359004974365234 5.12670040130615234
-0.594611465930938721 -82.0676040649414062 -20.5641021728515625
7.74500036239624023 -98.6392898559570312 7.21815729141235352
-0.507409214973449707 83.62750244140625 13.4391336441040039
-0.767037928104400635 77.133026123046875 7.37213754653930664
-3.64856624603271484 -117.01763916015625 -20.8113975524902344
-1.55302810668945312 4.07478189468383789 -4.27839136123657227
5.26583671569824219 110.056938171386719 14.2052164077758789
-0.763934314250946045 -7.6026453971862793 16.3043766021728516
4.85774707794189453 24.1521472930908203 19.8513145446777344
-0.285368740558624268 3.32779407501220703 -13.9285449981689453
3.91759586334228516 -9.00955009460449219 15.509521484375
3.11856293678283691 -30.6479282379150391 20.8599853515625
4.16977405548095703 -150.77044677734375 6.10669040679931641
-8.99236297607421875 -151.045150756835938 -0.267193526029586792
6.8022618293762207 -99.7728271484375 -6.71996307373046875
4.23037958145141602 31.4560489654541016 22.2137260437011719
0.522153079509735107 13.486785888671875 -9.16301822662353516
-9.76822280883789062 -95.311187744140625 0.582643747329711914
4.17040920257568359 82.8251190185546875 20.2992210388183594
7.67889213562011719 -125.3345947265625 5.50650453567504883
3.82837939262390137 130.119583129882812 5.94325065612792969
-9.61230754852294922 -110.239616394042969 4.98193216323852539
4.434173583984375 -8.30956459045410156 21.249176025390625
8.98647499084472656 -39.1860466003417969 -1.060394287109375
-0.854956090450286865 137.46893310546875 5.84972429275512695
7.52223873138427734 -110.541648864746094 7.97592782974243164
4.16229009628295898 174.95733642578125 3.07172799110412598
-1.1320267915725708 82.7141494750976562 0.543839871883392334
4.23905515670776367 -154.698638916015625 -12.4013156890869141
7.962158203125 -94.2723159790039062 -0.65646827220916748
-9.787506103515625 -136.227447509765625 -3.11242246627807617
-1.66472423076629639 131.717819213867188 -13.0006608963012695
8.31883525848388672 -84.33648681640625 4.37286901473999023
-0.819150388240814209 146.176376342773438 4.85812807083129883
-9.95573806762695312 -98.8842620849609375 -8.99303436279296875
6.70381546020507812 -101.516555786132812 9.64714813232421875
-2.84612846374511719 -149.79376220703125 -17.9803733825683594
5.80759477615356445 -21.0336399078369141 -6.52163362503051758
-9.944671630859375 -86.0347747802734375 -8.72507476806640625
3.09381747245788574 5.44017553329467773 8.5910797119140625
2.9215700626373291 -18.5922145843505859 10.0100822448730469
0.801468908786773682 77.3909378051757812 21.0025215148925781
-0.826621472835540771 51.3685951232910156 6.49820804595947266
3.97500967979431152 161.647125244140625 4.55102062225341797
-1.48034989833831787 23.0980815887451172 -2.39651346206665039
2.17089247703552246 177.24591064453125 5.14730596542358398
-0.169562891125679016 17.0685310363769531 22.2702369689941406
4.85849857330322266 56.1090965270996094 17.1506595611572266
-2.07344627380371094 -12.0623464584350586 -16.1133880615234375
-5.76240062713623047 -145.076339721679688 -17.9712505340576172
5.38927078247070312 -105.076156616210938 -13.9651155471801758
-0.944249272346496582 139.653106689453125 2.92916464805603027
-2.0263066291809082 44.7581024169921875 -16.5879802703857422
0.605305373668670654 108.183334350585938 -14.6704559326171875
-0.312980294227600098 90.0458602905273438 15.7270126342773438
-0.597585320472717285 41.0507469177246094 13.2701616287231445
3.66887497901916504 -118.440101623535156 11.8485603332519531
-9.90162181854248047 -72.070587158203125 -8.84566307067871094
-1.79104733467102051 -28.65106201171875 19.7099666595458984
1.56705093383789062 18.40850830078125 -3.15383243560791016
4.55297470092773438 -75.7215652465820312 -16.6931858062744141
-6.05394172668457031 -89.11431884765625 10.1433925628662109
-9.59168624877929688 -80.74310302734375 1.20174658298492432
-7.029022216796875 -25.3901405334472656 -18.8326454162597656
-9.75057697296142578 -39.2039451599121094 -9.05633354187011719
-1.41082644462585449 103.513381958007812 -6.64807844161987305
6.70159626007080078 -129.264739990234375 -3.73842477798461914
-1.21827960014343262 162.5013427734375 -8.19687938690185547
-0.784819245338439941 72.8945999145507812 7.79849624633789062
-9.77879905700683594 -106.769065856933594 0.0229962971061468124
0.503426313400268555 73.4150009155273438 -14.6087369918823242
-0.721858322620391846 155.403610229492188 5.58071804046630859
2.4428558349609375 -35.5627174377441406 20.30413818359375
-1.19773030281066895 -128.407501220703125 13.0504617691040039
-1.60150933265686035 -132.013214111328125 14.8293352127075195
-1.43734288215637207 44.4623756408691406 -3.20334553718566895
2.77228975296020508 -68.7518539428710938 9.72034072875976562
-6.29500007629394531 -47.945709228515625 7.61415195465087891
4.49770593643188477 25.2250766754150391 22.2997360229492188
-0.74673229455947876 142.672042846679688 -12.9133291244506836
-1.30988705158233643 122.602989196777344 -4.35328817367553711
0.57698369026184082 -58.6452064514160156 9.07747745513916016
9.22176361083984375 -42.9338836669921875 10.3440713882446289
-9.64237213134765625 -36.7974624633789062 -5.94498586654663086
-9.57320117950439453 -38.05303955078125 -11.2218818664550781
3.21230578422546387 47.7729682922363281 6.38415002822875977
4.65073442459106445 -94.6073532104492188 -16.4657478332519531
-8.45313644409179688 -75.6602859497070312 6.22095584869384766
4.14810562133789062 -118.786384582519531 11.675663948059082
-2.5039064884185791 -55.4604034423828125 8.30001258850097656
0.292771667242050171 122.368011474609375 18.1721935272216797
-0.762854635715484619 -75.07952880859375 10.2848787307739258
9.99092483520507812 -31.9496746063232422 4.31226062774658203
0.55820167064666748 127.648773193359375 17.1065788269042969
-7.55432701110839844 -47.3979873657226562 6.55646419525146484
8.35781478881835938 -57.6942977905273438 -2.88246536254882812
-4.9256892204284668 -136.875701904296875 15.791717529296875
3.83715009689331055 82.8155593872070312 5.60847759246826172
4.70731925964355469 112.942680358886719 11.7554903030395508
2.1026008129119873 -66.4337387084960938 -18.5123519897460938
8.76470088958740234 -29.3063812255859375 -3.55590009689331055
4.88230371475219727 -96.3648681640625 10.9606742858886719
2.80025935173034668 104.810501098632812 -0.76070094108581543
-8.92926502227783203 -30.2580814361572266 10.6578731536865234
2.02297067642211914 154.74273681640625 -8.76959037780761719
1.63488471508026123 117.024063110351562 -9.83916950225830078
8.28332042694091797 -50.0232734680175781 5.1003575325012207
-0.878426432609558105 -6.39477109909057617 -17.0136508941650391
-0.456251710653305054 -148.52252197265625 10.7071752548217773
-1.11138021945953369 135.065109252929688 0.158633068203926086
-5.15325832366943359 -153.468597412109375 4.03415060043334961
-6.29343891143798828 -42.35333251953125 11.3563623428344727
-9.62697029113769531 -103.731704711914062 -13.8026046752929688
-1.23579132556915283 121.823936462402344 -0.132734581828117371
2.97520041465759277 86.8315505981445312 0.655625104904174805
0.523831605911254883 -117.926200866699219 -19.4287776947021484
-1.00154054164886475 -5.34082412719726562 -17.2035560607910156
3.54555869102478027 143.692825317382812 2.66757082939147949
-1.19011914730072021 147.043731689453125 -4.39383029937744141
8.59403133392333984 -67.6606674194335938 1.57068002223968506
-4.96447992324829102 -68.1514816284179688 -20.6977863311767578
-1.75536537170410156 5.99234628677368164 -8.09154510498046875
0.199510693550109863 -58.8355178833007812 8.92917728424072266
0.993329107761383057 -56.4705429077148438 -18.9178314208984375
-0.501938283443450928 73.6868972778320312 12.2197532653808594
8.51819419860839844 -65.1644058227539062 -1.10458993911743164
4.9335789680480957 -143.807907104492188 -12.2236099243164062
5.12757682800292969 -115.439704895019531 11.2171106338500977
2.93570566177368164 140.949050903320312 -2.07903933525085449
5.06591415405273438 69.6336441040039062 18.9789218902587891
5.03839969635009766 119.626716613769531 13.5094785690307617
-0.722769558429718018 90.8832321166992188 8.96590805053710938
-1.14827823638916016 83.45599365234375 0.190160959959030151
-0.72785031795501709 23.0619716644287109 13.3372507095336914
7.82960033416748047 -30.7407875061035156 -8.76711177825927734
0.589208304882049561 17.8527660369873047 -8.96981525421142578
1.10345029830932617 26.9714946746826172 -6.4929499626159668
-1.04279804229736328 -130.122344970703125 13.7574138641357422
4.63062334060668945 -5.29950618743896484 19.2686634063720703
-8.41618919372558594 -57.3548660278320312 3.91560816764831543
3.44102334976196289 25.7408599853515625 9.33941936492919922
-1.57760345935821533 -14.4345579147338867 -4.66888093948364258
8.47047519683837891 -76.6758270263671875 0.220294788479804993
-8.94236469268798828 -34.5678901672363281 11.9456310272216797
-0.549241602420806885 109.471221923828125 11.3393955230712891
-1.49443948268890381 152.573532104492188 -8.36675834655761719
3.68592214584350586 126.050254821777344 5.23891878128051758
8.30599117279052734 -54.738555908203125 -3.50022363662719727
7.93000698089599609 -141.361373901367188 5.54277229309082031
4.71403694152832031 93.822021484375 12.0300693511962891
-1.37508618831634521 159.07000732421875 -7.19996738433837891
-0.691312909126281738 11.0219974517822266 15.7188329696655273
-0.339238107204437256 109.291999816894531 13.9833030700683594
2.59615111351013184 182.93072509765625 0.661943793296813965
3.66930413246154785 28.4117565155029297 11.1443595886230469
3.38294172286987305 -22.6872653961181641 7.33375167846679688
0.893905222415924072 43.2914466857910156 -9.33581829071044922
2.22954869270324707 68.6951751708984375 -2.69940066337585449
-9.51351642608642578 -83.0003662109375 4.23034381866455078
4.17382431030273438 141.7255859375 6.65298557281494141
-3.27236127853393555 -95.4227066040039062 11.8600912094116211
-3.10537075996398926 -38.3892478942871094 18.0109081268310547
2.72408652305603027 115.827163696289062 -2.43309926986694336
3.97021055221557617 -15.5722846984863281 18.1167964935302734
4.53241586685180664 45.0752220153808594 20.2578468322753906
-1.31389069557189941 73.0641250610351562 -3.74300050735473633
-0.673208713531494141 52.4397392272949219 10.0509920120239258
1.78097271919250488 29.86932373046875 -0.671526253223419189
-4.98192739486694336 -67.5161514282226562 -20.6524066925048828
-1.09316504001617432 50.1547508239746094 1.69136738777160645
-0.461115151643753052 120.408775329589844 14.1540203094482422
2.63204479217529297 51.89105224609375 1.84496784210205078
-1.29226410388946533 89.8515243530273438 -16.7871932983398438
-0.216095894575119019 69.7673110961914062 17.6078910827636719
-3.38948869705200195 -103.594459533691406 12.5324325561523438
7.85288095474243164 -104.534721374511719 7.49232387542724609
2.90881800651550293 155.641281127929688 -2.85174751281738281
-7.79525041580200195 -144.986801147460938 -16.4169902801513672
3.12629532814025879 46.3678436279296875 5.11658573150634766
-9.83113861083984375 -141.723129272460938 -4.91195201873779297
-1.21200716495513916 99.4579620361328125 -1.55908823013305664
-7.24418973922729492 -138.350341796875 -17.8237228393554688
7.77220726013183594 -43.7094535827636719 -7.80096530914306641
-0.884026587009429932 176.044723510742188 1.98165297508239746
3.42605757713317871 29.4936141967773438 9.80771255493164062
0.795442581176757812 43.8192291259765625 -9.99758148193359375
0.490287840366363525 4.53285455703735352 -9.34409236907958984
-1.42332804203033447 136.421432495117188 -6.94978475570678711
4.91750288009643555 121.340103149414062 12.656285285949707
-0.710440933704376221 -5.80328130722045898 17.3888053894042969
0.716342747211456299 88.6637954711914062 -14.1932802200317383
8.39143657684326172 -30.1305141448974609 -5.58190011978149414
-0.261139035224914551 -143.362991333007812 15.3417139053344727
-7.01027107238769531 -84.6449966430664062 -19.5033760070800781
-8.54176807403564453 -44.6863327026367188 6.0988154411315918
4.7085261344909668 35.5744400024414062 18.3487434387207031
2.96074485778808594 98.7094345092773438 0.601816892623901367
4.41243648529052734 149.678131103515625 6.81764650344848633
2.3119046688079834 30.0457286834716797 2.15914797782897949
-1.43613600730895996 43.8710441589355469 -3.03615546226501465
-9.83087825775146484 -148.082656860351562 -5.19891977310180664
-9.74548625946044922 -92.9275054931640625 0.410706281661987305
-9.62652683258056641 -33.05084228515625 -9.56277751922607422
-1.52817380428314209 47.7403907775878906 -5.05909538269042969
-1.13152599334716797 148.677902221679688 -0.736025691032409668
7.47968864440917969 -83.2352523803710938 -4.42827939987182617
7.49144983291625977 -128.149703979492188 6.27104425430297852
-1.01381707191467285 30.4955997467041016 5.91789913177490234
0.553343594074249268 6.72805643081665039 -8.49238109588623047
-9.49152374267578125 -39.2745094299316406 -14.746983528137207
0.257751703262329102 56.2089653015136719 21.2200355529785156
-0.824950098991394043 134.242584228515625 4.62483358383178711
7.47659873962402344 -120.819122314453125 -0.0286694616079330444
-2.29267001152038574 -136.549819946289062 16.5430946350097656
3.53289103507995605 150.648910522460938 13.9293031692504883
-0.259627938270568848 19.7535152435302734 -15.072845458984375
1.26066648960113525 184.130935668945312 1.11944222450256348
5.33374357223510742 -40.6142921447753906 -15.7582902908325195
-1.14283990859985352 111.739356994628906 -0.891814827919006348
-1.1631242036819458 113.357795715332031 0.920326888561248779
-6.08336734771728516 -134.1190185546875 13.9611959457397461
-1.11023616790771484 -15.5769004821777344 8.08196735382080078
2.6013638973236084 62.7309761047363281 0.292959988117218018
-0.44407576322555542 175.68414306640625 7.71061992645263672
-0.972226619720458984 -14.872736930847168 11.4922018051147461
-9.71724891662597656 -47.1483192443847656 -7.43550491333007812
1.44095206260681152 45.4749069213867188 -5.47003698348999023
-0.167179957032203674 -9.80090236663818359 22.4749813079833984
-9.632293701171875 -45.4544715881347656 -4.08933925628662109
-5.93277740478515625 -86.4833831787109375 -20.4254055023193359
-0.692022025585174561 122.211944580078125 8.24286556243896484
7.99998092651367188 -119.705078125 4.83073186874389648
2.50794458389282227 168.209991455078125 -6.07679939270019531
1.99128150939941406 -120.722892761230469 -18.7189979553222656
-0.0419464409351348877 -159.895767211914062 -9.13290977478027344
4.58564615249633789 10.1739215850830078 20.7565555572509766
-8.66606426239013672 -107.42156982421875 -17.1896038055419922
-8.78445625305175781 -105.806365966796875 8.2042999267578125
1.34694123268127441 46.8798904418945312 -6.43854808807373047
-3.54363346099853516 -67.1779861450195312 -21.3323879241943359
-0.685927927494049072 44.4300041198730469 12.5769166946411133
-1.37928569316864014 66.328704833984375 -4.47269916534423828
-9.34654808044433594 -106.940505981445312 -15.4074182510375977
-9.17102146148681641 -138.824356079101562 -14.6971511840820312
9.62390041351318359 -38.4354743957519531 2.73261117935180664
-1.57933330535888672 106.676872253417969 -8.92678356170654297
-0.664234936237335205 23.1089439392089844 14.4168977737426758
-2.13826584815979004 -157.956512451171875 -2.48139238357543945
3.48682928085327148 177.512588500976562 3.42987155914306641
2.70289993286132812 32.7785530090332031 4.33041572570800781
-1.60157155990600586 -9.00109100341796875 -3.22456574440002441
4.42175483703613281 143.867095947265625 8.94633007049560547
-3.31853079795837402 -151.949905395507812 -17.4000873565673828
-0.840949177742004395 37.9542121887207031 9.97640037536621094
-9.85734462738037109 -124.912605285644531 -1.2610633373260498
-9.78365993499755859 -63.6679191589355469 -6.69440412521362305
4.44436883926391602 101.046005249023438 9.94026279449462891
-0.0377753973007202148 44.5629158020019531 21.3984355926513672
-3.16984963417053223 -110.815811157226562 -20.8949737548828125
-9.32122802734375 -124.278511047363281 -14.9144372940063477
-8.54580402374267578 -32.2807426452636719 -16.907958984375
3.97582006454467773 130.859024047851562 16.2441825866699219
6.69148492813110352 -70.2272109985351562 -10.8552722930908203
-1.44690299034118652 155.874221801757812 -10.2134494781494141
7.06378507614135742 -89.3797683715820312 -6.34482717514038086
-6.15492439270019531 -63.2661933898925781 6.89552736282348633
-1.09628844261169434 48.3633270263671875 3.56179451942443848
2.36732625961303711 179.9658203125 -2.81709718704223633
-1.18518483638763428 165.98822021484375 -2.54507803916931152
-6.11506509780883789 -118.470794677734375 -19.8826847076416016
4.3122553825378418 116.246772766113281 8.80329990386962891
4.60577392578125 123.176361083984375 16.1183528900146484
2.57033181190490723 72.4950637817382812 21.1206398010253906
-0.270710110664367676 -11.5131359100341797 21.4783935546875
-1.42338907718658447 133.663589477539062 -4.37319183349609375
-4.34768247604370117 -125.730384826660156 -20.5117168426513672
-0.864742636680603027 161.992782592773438 1.8410646915435791
6.97093820571899414 -58.4107742309570312 -10.5169620513916016
-8.90430927276611328 -103.268531799316406 -16.7126026153564453
-0.948816955089569092 -23.0002326965332031 -21.1916980743408203
3.49122166633605957 76.9000778198242188 20.4338016510009766
-1.9674985408782959 15.1737546920776367 -11.2888698577880859
-9.77731418609619141 -71.0858993530273438 -12.1610298156738281
-1.98283171653747559 61.7999916076660156 -13.7275991439819336
-0.851293385028839111 139.11773681640625 4.13818502426147461
-0.518274366855621338 58.4189453125 13.9073562622070312
-1.17066335678100586 14.8868846893310547 4.95717287063598633
3.18518543243408203 25.2683506011962891 7.64717340469360352
-9.82878971099853516 -150.262069702148438 -4.53290271759033203
-1.80893123149871826 70.89044189453125 -13.7020378112792969
10.2183990478515625 -31.7601585388183594 16.3506793975830078
4.29417991638183594 -31.8283843994140625 21.4156341552734375
-2.20808887481689453 -3.85767340660095215 -14.3545436859130859
5.30292606353759766 148.843582153320312 11.1401138305664062
-9.35078144073486328 -39.1365814208984375 3.61386775970458984
7.28356218338012695 -77.8953399658203125 -6.81746053695678711
2.03637981414794922 80.6508407592773438 -5.75418615341186523
-1.4456866979598999 94.6837921142578125 -5.16067075729370117
7.99940204620361328 -103.235740661621094 0.907778322696685791
-0.480825901031494141 77.9550094604492188 13.4612550735473633
-0.835476696491241455 122.371330261230469 4.94944572448730469
-0.517238378524780273 123.779197692871094 14.0174140930175781
0.546730399131774902 64.6884918212890625 -14.7792148590087891
5.35074520111083984 74.2792892456054688 18.0657577514648438
-1.47065567970275879 91.8790512084960938 -8.08848762512207031
-1.66673660278320312 115.3740234375 -9.81037712097167969
-0.574230432510375977 -25.7525711059570312 17.1970672607421875
3.72040534019470215 101.936599731445312 4.52900552749633789
3.39322590827941895 58.4417152404785156 6.27650070190429688
5.08132600784301758 124.528282165527344 13.864924430847168
2.59067678451538086 74.1150131225585938 -0.890178143978118896
7.69596672058105469 -96.79315185546875 7.40622329711914062
-1.10127913951873779 44.7064247131347656 1.29192352294921875
1.03424763679504395 109.016998291015625 -13.0714359283447266
2.09988236427307129 173.738906860351562 -5.80056190490722656
-0.700719714164733887 -0.980654120445251465 15.4482908248901367
-6.28679704666137695 -135.555557250976562 14.4784841537475586
8.22845077514648438 -43.1056442260742188 12.5676202774047852
-8.44498252868652344 -38.2218170166015625 -17.2133026123046875
6.88301706314086914 -141.925582885742188 -0.877137124538421631
6.16185379028320312 -46.8479080200195312 10.6271028518676758
6.72616004943847656 -79.7843551635742188 -9.57705116271972656
8.10286426544189453 -114.59893798828125 3.16148710250854492
-1.04751861095428467 10.0254030227661133 6.66103744506835938
-9.87231063842773438 -122.923873901367188 -4.56144332885742188
-6.16637372970581055 -142.197235107421875 -18.2478790283203125
-9.8295745849609375 -98.9227752685546875 -2.32279276847839355
4.12926530838012695 43.7680206298828125 13.421905517578125
-1.66022658348083496 125.202346801757812 -10.4586772918701172
0.965672731399536133 120.252235412597656 -13.4013757705688477
3.1433870792388916 142.697189331054688 -0.418463408946990967
0.0967307314276695251 -131.16650390625 13.9955596923828125
5.30233192443847656 -102.7423095703125 11.0374374389648438
2.1956021785736084 10.1785898208618164 23.3349132537841797
-1.58942222595214844 74.7187881469726562 -9.59450626373291016
-2.98908138275146484 -76.4718017578125 10.0245122909545898
