ply
format ascii 1.0
element vertex 786
comment vertices
property float x
property float y
property float z
end_header
13.0623245239257812 102.181037902832031 -21.7384414672851562
3.19143772125244141 -213.098800659179688 -3.63638019561767578
-34.7110977172851562 -115.721359252929688 8.20440387725830078
-10.6697111129760742 -288.809356689453125 2.04426455497741699
32.2250709533691406 -352.482818603515625 -0.486379295587539673
16.8913974761962891 224.47930908203125 7.84789371490478516
-23.5647830963134766 -55.4426803588867188 -19.682159423828125
18.2725772857666016 -17.18267822265625 -1.15323889255523682
11.9724454879760742 -182.89361572265625 -16.9331417083740234
-6.09162330627441406 -122.309410095214844 -34.2559623718261719
24.5936565399169922 127.842742919921875 -0.40930292010307312
-9.07325935363769531 -212.949325561523438 -0.432212769985198975
18.3389759063720703 261.502716064453125 -14.1519804000854492
-10.555206298828125 -239.857376098632812 -10.2474098205566406
10.6674871444702148 153.466796875 28.0425491333007812
14.8979358673095703 224.267807006835938 -3.01524734497070312
8.70774364471435547 -206.320785522460938 -12.9648218154907227
-26.7077713012695312 50.0687713623046875 -10.406707763671875
-5.35098886489868164 69.7659988403320312 17.3785362243652344
-0.522877514362335205 297.228424072265625 10.1669559478759766
16.2886028289794922 239.828811645507812 0.841735959053039551
-23.6069831848144531 -181.0086669921875 -0.936416089534759521
20.6471023559570312 241.781723022460938 -6.21311855316162109
16.9715576171875 -139.667495727539062 27.8068027496337891
18.2650775909423828 130.913009643554688 18.3032894134521484
23.4059486389160156 96.1077346801757812 -8.84912872314453125
4.99204540252685547 194.768447875976562 17.8406810760498047
-14.5668344497680664 -301.986419677734375 -1.96993803977966309
12.8455705642700195 265.239837646484375 -0.404598832130432129
-20.8719196319580078 96.1674880981445312 9.94992542266845703
18.1782321929931641 209.756271362304688 20.9171600341796875
-11.0228290557861328 -53.3969345092773438 23.173126220703125
-16.6353092193603516 -9.02527141571044922 10.3385171890258789
17.0384922027587891 -15.9186334609985352 -1.71141171455383301
2.75951910018920898 21.3553428649902344 20.8648910522460938
-18.7408180236816406 -64.1858749389648438 30.5022163391113281
14.3074102401733398 -158.131820678710938 17.0353069305419922
13.5941867828369141 -86.7908554077148438 24.4050922393798828
-0.655353009700775146 -240.98236083984375 0.812743604183197021
26.7298660278320312 191.954666137695312 10.7676658630371094
-6.94460105895996094 -156.051803588867188 19.3911495208740234
-22.408447265625 135.866012573242188 -17.9799613952636719
-41.4788742065429688 -71.3336639404296875 -5.20805931091308594
-22.1402778625488281 285.34002685546875 -2.12611269950866699
1.33015799522399902 290.902099609375 9.50352764129638672
8.02518939971923828 237.7861328125 -23.32281494140625
-24.2621078491210938 213.437423706054688 4.57163095474243164
-11.8919429779052734 122.968109130859375 22.9835338592529297
31.9361476898193359 -100.744728088378906 0.656813442707061768
3.57732558250427246 -108.392601013183594 46.24591064453125
47.6677284240722656 -334.8775634765625 -11.5315847396850586
24.7498912811279297 -159.667953491210938 7.03652381896972656
-6.41898298263549805 203.212005615234375 -25.9233894348144531
-7.22626924514770508 292.6375732421875 -19.7271728515625
-6.5876612663269043 -48.5069084167480469 24.4756698608398438
3.42285323143005371 -144.392623901367188 23.9972782135009766
22.1112937927246094 83.5318832397460938 9.57188701629638672
-4.4642481803894043 259.751617431640625 -20.7336692810058594
59.9572944641113281 -306.29998779296875 -12.2070550918579102
-23.8170509338378906 216.34521484375 -4.89617347717285156
28.602447509765625 -130.785980224609375 4.9140467643737793
21.9317760467529297 48.7636795043945312 11.458343505859375
20.6067619323730469 81.3507919311523438 -11.534266471862793
-23.4782142639160156 198.573623657226562 10.3025951385498047
2.93942809104919434 76.234771728515625 -25.8834743499755859
19.6311798095703125 73.4682769775390625 5.38843536376953125
54.3895225524902344 -294.267547607421875 -3.58574056625366211
13.543701171875 180.368179321289062 27.88250732421875
-24.3889713287353516 -77.6959686279296875 -21.2347049713134766
26.8828926086425781 222.416946411132812 6.69464206695556641
-6.25714683532714844 171.322158813476562 19.283294677734375
16.4358234405517578 46.4246406555175781 -20.3145866394042969
-26.1677112579345703 78.3668289184570312 -5.21129989624023438
-5.49255704879760742 366.989959716796875 4.37004947662353516
-20.4455375671386719 16.7827129364013672 -22.1671295166015625
0.31855502724647522 -7.7205963134765625 -27.659942626953125
28.9657230377197266 -160.666915893554688 -13.3412113189697266
28.7090511322021484 -83.7400741577148438 1.28392529487609863
8.69457054138183594 -203.080474853515625 -0.538980543613433838
16.2994194030761719 -10.8888978958129883 -15.4011402130126953
-33.7148361206054688 -114.843338012695312 15.3032064437866211
12.6316356658935547 218.919387817382812 13.043940544128418
-25.8383846282958984 36.8004570007324219 -8.52161312103271484
-7.56825113296508789 288.9664306640625 -20.0748939514160156
7.61241292953491211 9.40408515930175781 18.2436122894287109
-27.1556396484375 134.188385009765625 -2.82034182548522949
-28.1742229461669922 159.227813720703125 -13.229365348815918
-65.7190170288085938 -131.234573364257812 -8.33199501037597656
-10.003748893737793 71.2650909423828125 -26.2323589324951172
13.8129062652587891 -17.3909378051757812 10.205108642578125
14.9786128997802734 58.6518783569335938 -19.9465866088867188
-13.5923423767089844 -227.937103271484375 -3.55453634262084961
8.57932090759277344 -353.485443115234375 -7.09192991256713867
-58.1165924072265625 -124.680259704589844 4.44331789016723633
-16.4873237609863281 303.5859375 -3.58511090278625488
20.7483730316162109 32.6808242797851562 -13.5667257308959961
-18.7354679107666016 18.8670063018798828 -23.5734958648681641
-1.79775917530059814 -98.499969482421875 -33.3715019226074219
22.2201881408691406 22.2856101989746094 -2.68547892570495605
-3.70673274993896484 304.955322265625 9.73090457916259766
-19.2764911651611328 -128.999832153320312 -47.8261909484863281
23.0659141540527344 -146.8402099609375 -25.845123291015625
-43.0748558044433594 -77.7478408813476562 -8.15449333190917969
-17.4464321136474609 291.882659912109375 -6.49690675735473633
-29.6043777465820312 -117.064559936523438 -5.70996570587158203
39.8452072143554688 -137.490524291992188 -14.6599826812744141
-19.3647251129150391 306.012420654296875 0.267447412014007568
-7.68881654739379883 15.1233692169189453 18.1859474182128906
2.11171674728393555 371.74407958984375 2.32223033905029297
34.1504859924316406 -117.458137512207031 12.8245706558227539
22.0283832550048828 164.471893310546875 -3.33271980285644531
-4.05881977081298828 201.056655883789062 21.2531089782714844
60.1003227233886719 -297.240203857421875 -8.94094657897949219
3.28800797462463379 -182.699737548828125 -13.4454460144042969
-11.6889028549194336 -135.655364990234375 -56.4687309265136719
-9.75200843811035156 -127.695999145507812 -46.2586784362792969
-9.41451168060302734 -270.25030517578125 2.64371252059936523
-27.5747852325439453 141.989364624023438 1.81694567203521729
-14.4736108779907227 262.664764404296875 -17.0424137115478516
33.68682861328125 -86.4371337890625 -11.5453376770019531
2.93761181831359863 394.77862548828125 -12.2051630020141602
15.350529670715332 116.809951782226562 24.1051387786865234
15.7795810699462891 -125.885635375976562 33.216766357421875
10.5236101150512695 -126.458793640136719 45.2285346984863281
-35.2204780578613281 -100.2506103515625 47.0857887268066406
24.8721771240234375 132.947158813476562 -0.473924547433853149
-27.4394798278808594 -124.372787475585938 -15.7708873748779297
14.6403818130493164 177.448226928710938 -21.4157772064208984
-12.9379787445068359 -118.900138854980469 -32.486053466796875
-11.7967615127563477 373.3206787109375 -9.64466953277587891
17.770538330078125 228.003768920898438 17.1432895660400391
-16.41082763671875 221.412933349609375 -20.5788383483886719
27.0764217376708984 -100.047615051269531 1.61150598526000977
2.7133638858795166 -344.558929443359375 1.1333242654800415
21.9256362915039062 12.6574058532714844 -4.67879676818847656
-6.32847690582275391 305.61614990234375 -17.6856422424316406
-14.2374067306518555 -111.855506896972656 -33.7328071594238281
-24.6589927673339844 -170.463088989257812 -1.00909066200256348
-66.5226898193359375 -131.373077392578125 -7.74102926254272461
12.4750871658325195 -57.6516685485839844 19.0748348236083984
22.3625907897949219 98.9312667846679688 -3.40531182289123535
17.9786243438720703 39.0213241577148438 -18.5064239501953125
-20.7610588073730469 192.677627563476562 -17.6658954620361328
22.1177406311035156 120.932891845703125 9.61747169494628906
20.4921855926513672 81.8111114501953125 13.1862220764160156
17.6426162719726562 234.50262451171875 1.55088376998901367
18.2223739624023438 -135.539337158203125 31.4083232879638672
13.9785623550415039 -10.1667537689208984 10.6558628082275391
9.21710395812988281 328.471893310546875 0.402148783206939697
17.5832786560058594 -23.2508220672607422 2.14180874824523926
24.1497268676757812 86.0609054565429688 -5.69949531555175781
-20.3774490356445312 221.577926635742188 3.64455485343933105
43.5946273803710938 -125.205886840820312 -11.3264751434326172
3.43410301208496094 364.93707275390625 1.95467782020568848
-13.2522411346435547 207.313674926757812 17.1800460815429688
10.137822151184082 193.516937255859375 22.9212169647216797
56.6120948791503906 -318.0028076171875 -12.2040071487426758
-3.59052729606628418 -100.158821105957031 -33.4491729736328125
7.98629045486450195 134.800674438476562 27.525177001953125
-13.5067739486694336 332.84613037109375 0.42330402135848999
-24.5124893188476562 -56.1805038452148438 19.1514110565185547
-10.433384895324707 -9.31081104278564453 -27.2251396179199219
-11.4834165573120117 -162.355804443359375 -30.6139621734619141
-48.4603500366210938 -93.5842819213867188 1.32396078109741211
-2.7004847526550293 -326.80364990234375 1.89828741550445557
21.4175758361816406 6.91399717330932617 -3.63301491737365723
10.8721647262573242 94.6563262939453125 25.9259128570556641
13.8014583587646484 -157.085281372070312 13.6726322174072266
30.9370708465576172 -112.943458557128906 -4.15016651153564453
-2.5613858699798584 203.502029418945312 -24.6211662292480469
7.37198352813720703 -126.64068603515625 34.9964141845703125
-2.78481459617614746 -120.368309020996094 49.0785942077636719
19.6120471954345703 188.594635009765625 -12.9943943023681641
-12.7837209701538086 -148.070571899414062 20.2054767608642578
9.19356346130371094 -12.9859180450439453 -21.7031116485595703
-9.26870059967041016 10.7533187866210938 17.3715686798095703
20.9692039489746094 246.895050048828125 2.47052121162414551
-25.6429424285888672 -111.852371215820312 -21.66436767578125
-8.70154857635498047 401.42193603515625 -2.00776863098144531
-13.1302499771118164 -167.265029907226562 13.4855823516845703
20.038787841796875 -128.594940185546875 -34.3263130187988281
-5.43233871459960938 -338.247711181640625 -10.8093414306640625
21.75885009765625 95.7321243286132812 -11.0826902389526367
-4.24910402297973633 -32.0971145629882812 17.0307807922363281
-36.0023269653320312 -101.719100952148438 26.8070964813232422
19.3981380462646484 -41.9821243286132812 1.58023011684417725
12.7838163375854492 296.397796630859375 -15.3855972290039062
14.9010496139526367 -152.45556640625 -30.4420089721679688
1.14645981788635254 -328.3359375 -12.6600151062011719
-28.5882835388183594 -153.30303955078125 -5.07906579971313477
2.98951411247253418 254.717926025390625 13.1988248825073242
-0.290990442037582397 161.875457763671875 23.2137660980224609
10.5110292434692383 -119.429122924804688 -34.4503593444824219
-5.01066017150878906 -313.797576904296875 -13.8849372863769531
45.3590469360351562 -106.137527465820312 -9.45683574676513672
-16.8223381042480469 44.7104568481445312 -25.6301250457763672
-6.1317896842956543 186.982864379882812 19.807342529296875
8.84632015228271484 252.258316040039062 9.47143268585205078
-17.7721347808837891 231.590347290039062 0.362154185771942139
23.8485221862792969 230.592071533203125 4.02904462814331055
9.44456386566162109 -174.675399780273438 7.58459806442260742
-54.4765090942382812 -141.884445190429688 3.8123466968536377
-44.1149635314941406 -85.4189987182617188 -12.7594966888427734
14.6406335830688477 -179.257904052734375 -11.1424951553344727
-30.0629711151123047 173.416290283203125 -11.0370044708251953
46.0096931457519531 -135.260971069335938 -11.5319013595581055
-19.7898273468017578 153.180801391601562 12.6579675674438477
-2.69620728492736816 204.760498046875 -23.3173198699951172
18.3611736297607422 272.49969482421875 -8.74508094787597656
13.890254020690918 -337.78985595703125 -8.77444171905517578
-7.61611270904541016 -265.797271728515625 -13.0010538101196289
12.0672283172607422 189.257247924804688 -21.7111110687255859
-13.1370296478271484 38.78802490234375 -27.4800853729248047
-23.4219684600830078 -64.1427078247070312 -23.2650489807128906
27.6174106597900391 -133.887969970703125 10.9865665435791016
-1.99716746807098389 101.092498779296875 24.6182537078857422
-30.8071537017822266 -63.8694953918457031 4.22943115234375
-1.04199016094207764 -280.66943359375 0.0596238933503627777
-3.53731775283813477 297.60748291015625 9.90634918212890625
33.1096420288085938 -146.531005859375 -2.89661812782287598
-14.5160379409790039 193.9342041015625 17.6940650939941406
-17.148834228515625 87.2314834594726562 -23.6679573059082031
-13.1845264434814453 -122.044654846191406 -35.6381797790527344
3.97528481483459473 315.106597900390625 -17.4662246704101562
-6.35087728500366211 -17.5480918884277344 16.2027416229248047
27.8263015747070312 -85.4958343505859375 17.4661712646484375
21.1338386535644531 59.0703887939453125 -5.97412252426147461
6.20902061462402344 12.2894153594970703 18.0474567413330078
18.1579818725585938 -42.7349128723144531 9.85827350616455078
6.90282487869262695 237.826263427734375 14.938812255859375
-24.7734718322753906 60.6385307312011719 -14.1466884613037109
4.84045982360839844 315.072906494140625 -17.2113761901855469
28.2250175476074219 202.573394775390625 8.42582893371582031
0.366968691349029541 57.3834152221679688 22.7435932159423828
-26.0139713287353516 -74.8771820068359375 -7.83907032012939453
-11.0886240005493164 25.3484458923339844 -28.4349021911621094
15.87554931640625 239.820220947265625 -18.3836822509765625
19.7306499481201172 155.234649658203125 -15.2233247756958008
21.3109531402587891 235.080429077148438 8.93891620635986328
23.8648757934570312 -160.15631103515625 -3.67423224449157715
3.65390133857727051 -132.437881469726562 -35.7013969421386719
6.7375950813293457 -126.040016174316406 51.9522552490234375
-11.0301322937011719 -65.3332061767578125 -30.7159805297851562
-15.2328424453735352 302.128570556640625 2.80980801582336426
40.5015907287597656 -118.773056030273438 -28.766082763671875
11.1915206909179688 -189.90460205078125 -1.95970737934112549
-12.9382991790771484 -235.660064697265625 -0.778012931346893311
14.2130203247070312 207.762863159179688 18.1278362274169922
-54.902862548828125 -110.357810974121094 -12.8473787307739258
4.76523351669311523 -26.7888565063476562 16.0132217407226562
0.825649082660675049 -124.115333557128906 -35.1703910827636719
-28.6546058654785156 -96.5561599731445312 34.0777130126953125
9.57856655120849609 173.8734130859375 -23.0929698944091797
-24.2226448059082031 190.648147583007812 -8.84692192077636719
5.67371797561645508 372.618927001953125 -0.284918159246444702
12.5795211791992188 -106.760208129882812 27.2809696197509766
21.4735240936279297 -158.451248168945312 -25.2844371795654297
-24.7079792022705078 -30.0441150665283203 -7.65657806396484375
-34.1026878356933594 -77.0943450927734375 15.2099056243896484
13.8966770172119141 264.81512451171875 8.21232414245605469
-16.3106155395507812 -135.259933471679688 -54.0929946899414062
9.861083984375 -353.266845703125 -3.74970126152038574
13.9091119766235352 -23.8158817291259766 -16.2006511688232422
-19.1997585296630859 -76.64923095703125 -35.3684959411621094
-22.2248744964599609 -132.972885131835938 27.0795230865478516
-25.3774166107177734 35.9298744201660156 -14.8063735961914062
17.2421627044677734 -128.205581665039062 29.8524894714355469
-21.2884445190429688 -120.594337463378906 -29.9224720001220703
12.2937326431274414 -134.82171630859375 39.7530364990234375
3.31891298294067383 169.471847534179688 27.1613807678222656
-3.70654869079589844 241.084609985351562 11.506535530090332
31.1998691558837891 -66.7798233032226562 -8.78018856048583984
17.5169181823730469 -159.151123046875 16.7180557250976562
-17.8613452911376953 -211.635940551757812 -14.6907215118408203
-25.3426456451416016 44.0370941162109375 -16.4979648590087891
-14.669952392578125 -213.598480224609375 -23.2350482940673828
32.6159591674804688 -70.7148284912109375 -8.86915111541748047
-17.0317668914794922 -97.7252960205078125 -42.7926025390625
-22.6311111450195312 -180.73974609375 -7.25173377990722656
23.6433162689208984 -122.199546813964844 -33.6342124938964844
-6.08685016632080078 -166.528274536132812 14.31591796875
22.2024803161621094 174.791290283203125 6.40370941162109375
-12.3175840377807617 -279.731719970703125 0.802565991878509521
42.2736968994140625 -129.625106811523438 -12.3463249206542969
17.8775463104248047 110.680694580078125 20.0532417297363281
0.528317570686340332 197.3331298828125 -23.2854080200195312
-5.27233028411865234 65.0168533325195312 21.2105293273925781
-47.0853691101074219 -111.583412170410156 -16.538177490234375
27.3858261108398438 -103.465675354003906 10.2155904769897461
-22.8891143798828125 -49.6316184997558594 -20.1850624084472656
-17.3561687469482422 182.742034912109375 -20.0483894348144531
-3.78854012489318848 6.24114131927490234 -29.2094459533691406
35.8558235168457031 -351.26080322265625 -12.6873340606689453
26.02764892578125 -123.50177001953125 13.260706901550293
-4.4899592399597168 -136.140655517578125 46.9381599426269531
14.3348016738891602 209.951995849609375 18.6843338012695312
9.56736087799072266 326.9276123046875 -9.55008220672607422
-2.91365599632263184 187.009368896484375 -26.1166172027587891
13.1073198318481445 277.27227783203125 -3.18938374519348145
-6.51262950897216797 199.06158447265625 21.5076675415039062
43.9850006103515625 -121.934104919433594 -2.19266581535339355
-15.5134439468383789 0.372844576835632324 -21.5618114471435547
-9.70242023468017578 361.11712646484375 2.89535355567932129
0.0511116012930870056 -328.71112060546875 0.754446744918823242
-1.65115141868591309 351.3258056640625 -15.2614803314208984
-23.432830810546875 52.7936630249023438 -17.1632003784179688
-1.18539142608642578 -46.3244361877441406 -28.8854160308837891
-14.6494808197021484 331.009796142578125 -3.38854408264160156
29.4295005798339844 -87.2792510986328125 -13.1105279922485352
-33.6414375305175781 -113.643936157226562 33.60186767578125
30.65081787109375 -118.772087097167969 3.30660653114318848
-30.9284496307373047 -89.8587799072265625 44.62646484375
-41.6304931640625 -74.0717620849609375 -0.497158735990524292
-23.8533344268798828 -128.518035888671875 -40.5508766174316406
22.5239181518554688 -152.63372802734375 -23.8143596649169922
14.252314567565918 211.6639404296875 19.6458187103271484
-0.16515718400478363 -3.15410637855529785 17.0004482269287109
-19.6297378540039062 -126.536720275878906 12.3018875122070312
-22.0656280517578125 220.2198486328125 -14.9085531234741211
30.3921775817871094 -97.701568603515625 -1.26398062705993652
-58.2646293640136719 -131.43359375 6.22218847274780273
35.2425651550292969 -117.151451110839844 21.1080379486083984
2.71062898635864258 -209.389373779296875 -16.5239677429199219
13.7604284286499023 -172.31280517578125 -28.4027023315429688
24.61114501953125 -97.0472488403320312 -29.8904914855957031
11.8168516159057617 196.433807373046875 14.8700275421142578
-18.7498722076416016 -12.725921630859375 7.70543098449707031
-7.09860801696777344 -329.172576904296875 -12.9087343215942383
4.00470066070556641 255.267349243164062 19.1795978546142578
-20.7334823608398438 97.1997299194335938 9.39443397521972656
20.8578567504882812 114.749664306640625 17.5060939788818359
-22.5190658569335938 -134.183303833007812 -26.3841457366943359
7.78428888320922852 190.470245361328125 17.7773418426513672
22.0752716064453125 -117.630691528320312 39.4765357971191406
4.20118188858032227 -1.79068386554718018 -26.8050060272216797
5.59161949157714844 -141.65679931640625 25.1324691772460938
3.5859375 -101.43603515625 38.8494033813476562
21.7613029479980469 54.3602180480957031 5.49529838562011719
-64.8033370971679688 -134.097915649414062 1.97836852073669434
18.7787189483642578 67.3204879760742188 2.45046520233154297
38.5258140563964844 -123.524055480957031 -21.4026432037353516
14.3927783966064453 -119.813980102539062 34.8945274353027344
8.32873439788818359 200.490478515625 -22.7011775970458984
-4.43836212158203125 158.844818115234375 21.0127735137939453
6.92818164825439453 -105.390060424804688 -33.4872169494628906
-3.7443087100982666 -112.44842529296875 42.7895050048828125
-37.3330917358398438 -111.920402526855469 9.04077911376953125
37.5939064025878906 -138.567306518554688 -12.8712310791015625
3.88641977310180664 122.700576782226562 26.8800716400146484
-25.5814781188964844 -137.23321533203125 -36.5992698669433594
34.0360984802246094 -132.184860229492188 7.5299839973449707
-18.4778499603271484 229.664764404296875 -18.9067802429199219
9.54554843902587891 275.391357421875 7.12667226791381836
-7.45176982879638672 383.414703369140625 3.83950901031494141
-7.89906454086303711 343.973907470703125 -12.6794357299804688
-6.98761844635009766 -53.9971427917480469 26.7224254608154297
-37.0309410095214844 -125.995033264160156 64.0490188598632812
-31.7100925445556641 -52.4000434875488281 -8.22641563415527344
28.0259513854980469 -133.42584228515625 10.6625881195068359
-3.16755175590515137 295.9307861328125 9.95627498626708984
35.7944259643554688 -103.744743347167969 -14.2654914855957031
21.2014904022216797 72.2394027709960938 -6.52819156646728516
15.8059110641479492 108.3592529296875 -18.1992855072021484
-20.4704399108886719 -196.247894287109375 -12.9856853485107422
6.92236137390136719 -196.231857299804688 4.89619970321655273
2.53989672660827637 61.9093170166015625 -25.9163818359375
-24.7318916320800781 172.094024658203125 -11.2466564178466797
15.0873680114746094 199.297836303710938 24.8258132934570312
10.6640691757202148 219.708724975585938 2.33741331100463867
-16.4890346527099609 321.00244140625 -7.69929409027099609
-11.8462610244750977 73.4263534545898438 15.2039279937744141
-13.103032112121582 385.87469482421875 -4.75257492065429688
41.8177223205566406 -118.409088134765625 -5.97140693664550781
-0.249014034867286682 -285.8756103515625 -3.29526090621948242
-27.2596187591552734 -123.709732055664062 -16.9142093658447266
28.4028911590576172 -98.2918548583984375 1.35693824291229248
9.22762584686279297 -112.984756469726562 39.4121170043945312
5.68435573577880859 379.726837158203125 -0.770949423313140869
2.6759340763092041 243.141983032226562 12.1894111633300781
-33.8180656433105469 -100.514076232910156 41.6884803771972656
-17.1107692718505859 271.10601806640625 -12.6785297393798828
16.5458698272705078 -340.70849609375 -1.18885111808776855
-20.2161998748779297 267.66949462890625 -11.2161540985107422
-22.7700386047363281 -128.9345703125 50.2693748474121094
17.2935752868652344 79.8354568481445312 -18.20379638671875
6.10722732543945312 -154.524917602539062 29.6927680969238281
1.11649191379547119 246.324188232421875 16.500152587890625
9.21116352081298828 -187.737884521484375 2.05466365814208984
35.4531364440917969 -117.674217224121094 20.191986083984375
-36.1912460327148438 -122.759956359863281 17.4301700592041016
-23.6788864135742188 -61.9562034606933594 -21.2991600036621094
-24.4627647399902344 -165.734283447265625 -0.654225528240203857
31.2736892700195312 -128.187942504882812 -3.78398847579956055
-5.18714141845703125 -75.1434402465820312 -31.6323833465576172
-15.3187856674194336 280.499847412109375 -15.9429044723510742
23.7408618927001953 113.067390441894531 8.04799270629882812
15.7452268600463867 34.9761466979980469 -19.3080387115478516
6.0930328369140625 91.483673095703125 -24.4500198364257812
-16.2959671020507812 -127.067771911621094 -36.7222518920898438
50.3949127197265625 -342.06414794921875 -0.804686069488525391
3.76062464714050293 248.603546142578125 12.0329780578613281
1.56225848197937012 -48.0448036193847656 21.9614791870117188
3.8056032657623291 233.77691650390625 -22.0924320220947266
-12.9935455322265625 235.401092529296875 15.1523923873901367
-8.15602397918701172 -118.069595336914062 49.0244331359863281
17.1036510467529297 234.462875366210938 7.59309244155883789
3.3697209358215332 324.2193603515625 -17.5713539123535156
-1.41803467273712158 67.7232666015625 21.2003574371337891
2.82037949562072754 -232.449630737304688 -6.65277671813964844
-1.30433022975921631 120.516937255859375 26.6238975524902344
20.4701423645019531 125.850570678710938 15.4208364486694336
-15.9883689880371094 -100.949981689453125 41.2176170349121094
-22.7998886108398438 -168.557540893554688 -13.1346092224121094
21.9007186889648438 -66.279541015625 -15.1543731689453125
40.361785888671875 -117.499893188476562 -18.1504096984863281
-4.4661097526550293 -206.295501708984375 -20.5015735626220703
18.617431640625 -131.46160888671875 -34.8540191650390625
-8.26159095764160156 -329.036895751953125 2.03591465950012207
58.2951240539550781 -318.791107177734375 0.180242672562599182
23.2239265441894531 -122.426155090332031 43.4999198913574219
-5.23467540740966797 -124.345169067382812 -34.4136428833007812
9.14449214935302734 -207.143539428710938 -10.8525781631469727
22.7572860717773438 134.402252197265625 -4.21586990356445312
-0.926725387573242188 320.491180419921875 7.7997288703918457
22.1298103332519531 -43.9071235656738281 -7.45749378204345703
-16.3155441284179688 -64.2052536010742188 -31.4260787963867188
-13.1135244369506836 9.19649124145507812 -26.0752925872802734
-0.0374536029994487762 239.55181884765625 -21.6663379669189453
13.4239797592163086 -18.5750389099121094 10.931920051574707
11.414484977722168 302.116119384765625 1.69158577919006348
22.9832839965820312 165.261962890625 -0.668007493019104004
-23.4358863830566406 208.202468872070312 -12.8723134994506836
7.7003483772277832 202.565216064453125 -23.6575965881347656
-7.36568212509155273 149.288009643554688 -24.0135135650634766
-8.91704654693603516 -212.936965942382812 -0.818056046962738037
-32.0679092407226562 -84.72125244140625 26.7869300842285156
-20.8812389373779297 95.9603118896484375 -19.9922466278076172
21.8775806427001953 -46.6870498657226562 7.3214569091796875
-36.9130363464355469 -128.050155639648438 12.0349149703979492
-3.48813772201538086 48.5021514892578125 -27.5382289886474609
17.8799152374267578 -52.0569229125976562 15.5733585357666016
-4.01828575134277344 -323.763214111328125 -13.8585433959960938
-5.63844394683837891 -88.3753204345703125 -32.6878509521484375
14.0300006866455078 46.3202552795410156 -21.5000553131103516
-17.0390834808349609 -111.958564758300781 49.4302406311035156
-7.31846761703491211 -14.7233266830444336 15.2630014419555664
-10.0420141220092773 155.346221923828125 -23.3695411682128906
6.75755405426025391 -184.5782470703125 6.169189453125
3.2104341983795166 -122.869880676269531 55.0430221557617188
14.138427734375 287.622894287109375 -15.3450908660888672
2.05831074714660645 393.622314453125 -13.0048494338989258
-24.2999725341796875 168.760635375976562 4.78542566299438477
-16.4545326232910156 260.4638671875 5.84726428985595703
-15.937708854675293 -11.3551568984985352 -21.3656024932861328
-23.5133934020996094 208.311477661132812 -12.1849374771118164
-26.7736053466796875 -67.2713088989257812 32.3620529174804688
-43.9156227111816406 -139.09326171875 -1.13052964210510254
29.1169261932373047 -90.0167694091796875 3.26344132423400879
-10.5561056137084961 -110.380073547363281 -47.1293869018554688
17.0111503601074219 67.6416854858398438 7.63970279693603516
31.5915546417236328 -86.9269485473632812 1.79382872581481934
-7.93761730194091797 125.159042358398438 17.1126003265380859
22.24267578125 102.790496826171875 -6.23288440704345703
-23.2730674743652344 -13.6048765182495117 -3.79819464683532715
12.632603645324707 245.177352905273438 1.07238411903381348
-22.9890766143798828 132.648391723632812 -16.8898048400878906
3.70503568649291992 -17.8974132537841797 -26.2602348327636719
-23.1176338195800781 -115.074241638183594 -39.8866081237792969
20.7681522369384766 181.406326293945312 9.58904933929443359
12.0240077972412109 -174.568603515625 -16.7538890838623047
52.841339111328125 -129.013351440429688 -3.45317769050598145
29.5846157073974609 -126.02972412109375 38.4717483520507812
22.7055702209472656 -165.986907958984375 -4.21264028549194336
-8.03903007507324219 293.833251953125 -19.6549072265625
-29.4151096343994141 -81.2586898803710938 3.19186592102050781
-13.1005449295043945 377.33770751953125 -7.85366201400756836
-22.2146339416503906 46.5980873107910156 -19.9438495635986328
-11.6119718551635742 -332.122283935546875 -3.24638199806213379
-68.2863616943359375 -133.807235717773438 -1.48016536235809326
22.9988250732421875 256.51434326171875 10.0293254852294922
5.25096559524536133 93.0255126953125 28.7899188995361328
-18.204803466796875 -128.83184814453125 45.6587905883789062
-21.0739631652832031 219.29058837890625 -16.2869491577148438
6.84891366958618164 126.8087158203125 26.9393501281738281
51.3300666809082031 -321.820953369140625 -8.24967384338378906
-44.0042343139648438 -118.117622375488281 -11.9021215438842773
-14.7128286361694336 -95.3538894653320312 -43.2368278503417969
-26.9747848510742188 -143.665283203125 -6.87528133392333984
9.66345787048339844 -94.373077392578125 -31.975616455078125
1.84627306461334229 -184.2406005859375 -26.7282390594482422
-20.3252696990966797 -177.511383056640625 7.10799741744995117
2.52702832221984863 83.1398162841796875 20.8256359100341797
29.8485946655273438 -123.48516845703125 36.9116096496582031
-1.47398507595062256 92.2406158447265625 22.5085353851318359
-28.8143768310546875 -97.3195114135742188 32.372711181640625
-22.7436733245849609 258.30401611328125 -3.23432660102844238
27.4907741546630859 -113.830902099609375 16.1222305297851562
-0.187843218445777893 -197.587753295898438 8.55327606201171875
-1.96159398555755615 -132.433258056640625 37.7728233337402344
22.1017951965332031 17.4492759704589844 -4.98670005798339844
-41.5663185119628906 -124.628631591796875 -7.21694135665893555
-14.3500890731811523 -77.7904815673828125 -33.3644981384277344
6.71285390853881836 11.068049430847168 17.9454441070556641
45.4280891418457031 -105.220718383789062 -8.58534145355224609
-3.74238777160644531 -239.014480590820312 -13.4691352844238281
4.35842704772949219 210.295913696289062 -25.2881050109863281
1.53969979286193848 -326.60406494140625 -3.39690542221069336
21.9977531433105469 -339.334259033203125 -5.96709680557250977
21.9654064178466797 138.83001708984375 4.92635822296142578
0.503534674644470215 -194.280258178710938 8.69659519195556641
-23.2733573913574219 -147.6456298828125 9.85885524749755859
-23.5696792602539062 -127.631813049316406 63.6222572326660156
26.7711143493652344 -102.505645751953125 12.1035900115966797
12.1321525573730469 -68.9725189208984375 -28.2534332275390625
-21.2686347961425781 274.426971435546875 -1.14320361614227295
7.78822517395019531 161.317413330078125 30.7843971252441406
-21.8855934143066406 -53.0123291015625 -26.126312255859375
-3.21671962738037109 -68.949920654296875 -31.0112838745117188
23.6825942993164062 152.033462524414062 -8.17777633666992188
6.04050111770629883 146.557525634765625 29.3554553985595703
-8.41832447052001953 153.294509887695312 -23.7753448486328125
12.1408157348632812 191.14483642578125 18.0165233612060547
-18.6520366668701172 34.9402122497558594 14.0759220123291016
-11.3122482299804688 -15.8977537155151367 13.6121912002563477
-11.4092292785644531 385.614166259765625 -9.54453754425048828
21.2445278167724609 -139.541824340820312 23.3589878082275391
-0.120296239852905273 -316.7069091796875 -8.96057796478271484
-13.8135766983032227 353.948883056640625 -5.79486846923828125
23.1642341613769531 238.802383422851562 3.74941897392272949
0.129784911870956421 185.45684814453125 -27.683074951171875
-34.2833480834960938 -119.537857055664062 30.4159812927246094
-27.9930572509765625 -151.112457275390625 -15.8286943435668945
24.8463783264160156 -173.93853759765625 -19.8776512145996094
29.1111106872558594 -114.720970153808594 8.11085224151611328
29.3961277008056641 -87.8314132690429688 -14.6690855026245117
3.1817164421081543 -122.179290771484375 42.8736839294433594
1.4725421667098999 190.1693115234375 -24.3565292358398438
-5.80118989944458008 311.704925537109375 -17.0405769348144531
25.4812335968017578 146.898056030273438 7.62764072418212891
0.543180882930755615 126.518547058105469 27.3595447540283203
-27.5426006317138672 -119.187355041503906 -8.11103534698486328
-5.87398719787597656 -128.665939331054688 35.9130287170410156
25.1866378784179688 -100.153907775878906 19.8452892303466797
12.8573713302612305 -95.1390533447265625 -31.7490234375
0.898432374000549316 -281.912628173828125 -6.77325677871704102
22.3957614898681641 156.992919921875 5.07961368560791016
-51.9858055114746094 -142.209182739257812 -4.78376960754394531
-12.1366920471191406 97.1024856567382812 19.48980712890625
20.8779029846191406 115.820144653320312 15.4514398574829102
-31.8726310729980469 -82.774505615234375 26.0205173492431641
17.73211669921875 98.9903488159179688 22.6474514007568359
-24.6360626220703125 -119.369064331054688 -35.974853515625
1.06137490272521973 -273.044952392578125 -5.69322538375854492
23.7286128997802734 181.691070556640625 -4.45503377914428711
-17.5967197418212891 267.845428466796875 2.45611476898193359
-11.4549646377563477 -182.984588623046875 -29.8164634704589844
-0.47464868426322937 -90.0013580322265625 40.3845901489257812
-18.7096900939941406 -45.841705322265625 22.2503128051757812
53.8763465881347656 -342.09112548828125 -3.05700564384460449
-1.10758674144744873 -68.054412841796875 -30.7607536315917969
7.16394853591918945 234.106155395507812 14.5326738357543945
4.0155487060546875 165.152984619140625 -25.5873374938964844
18.6431713104248047 222.054397583007812 15.8581609725952148
11.5024518966674805 176.148956298828125 15.6291179656982422
-8.02012348175048828 130.1014404296875 17.4314098358154297
-12.6917810440063477 -221.279312133789062 -5.18213605880737305
31.6125259399414062 -355.333221435546875 -11.0907716751098633
10.1079473495483398 263.427032470703125 7.94206953048706055
12.9166908264160156 -108.925079345703125 28.0647087097167969
19.3642597198486328 62.5003585815429688 4.5781855583190918
6.88250160217285156 -196.602615356445312 4.77649450302124023
17.2505264282226562 224.381591796875 -2.69069170951843262
61.1163253784179688 -316.117767333984375 -12.291778564453125
22.2318267822265625 151.622024536132812 -10.0081014633178711
-3.37948441505432129 -187.64678955078125 13.3972711563110352
-27.3625030517578125 158.83953857421875 -10.2825384140014648
11.6884231567382812 283.4918212890625 6.18167829513549805
-22.7703571319580078 -1.60421311855316162 -13.1122112274169922
-33.4892501831054688 -88.6663742065429688 38.3722305297851562
-26.4016551971435547 61.4891166687011719 -2.94881582260131836
-0.492487788200378418 123.081146240234375 27.0263042449951172
22.1839790344238281 139.682754516601562 -10.4615774154663086
17.2146511077880859 -42.3124313354492188 -15.1454095840454102
22.9860954284667969 115.096611022949219 1.42543685436248779
-17.1194667816162109 -186.946701049804688 10.4877920150756836
-1.47632443904876709 61.9226455688476562 23.7459621429443359
16.6272926330566406 274.330169677734375 3.39331626892089844
15.7020711898803711 -49.6964340209960938 -22.7577896118164062
-11.2050485610961914 -208.76190185546875 -25.8657379150390625
25.4241428375244141 -79.4243621826171875 16.0876522064208984
31.0165729522705078 -136.057281494140625 -2.85201907157897949
-19.7951259613037109 -131.779556274414062 48.8339614868164062
-5.77148056030273438 -245.7933349609375 -13.3139820098876953
11.2114620208740234 -189.596115112304688 -8.59831809997558594
26.20916748046875 -149.068634033203125 12.4225120544433594
10.2976503372192383 -341.705780029296875 1.30906152725219727
-22.7492408752441406 104.520431518554688 -17.8553657531738281
-1.57369852066040039 -47.3111534118652344 -29.0087051391601562
32.0590629577636719 -144.968048095703125 3.37874293327331543
-16.1238727569580078 -50.4100112915039062 23.5122852325439453
16.5349769592285156 272.015411376953125 4.49847126007080078
-16.8446331024169922 -38.8641586303710938 -25.1228141784667969
22.2967510223388672 -129.583297729492188 21.4570503234863281
16.6964073181152344 209.31085205078125 23.2082767486572266
24.4197883605957031 -74.706085205078125 -25.6284675598144531
-0.908777356147766113 -269.722869873046875 0.48909074068069458
-18.0036449432373047 241.67169189453125 1.39888572692871094
-6.37047195434570312 137.616851806640625 28.5594120025634766
-13.0885219573974609 228.114334106445312 15.1187362670898438
-13.7245817184448242 -319.6197509765625 -0.236894384026527405
2.91278576850891113 86.1255416870117188 28.7183399200439453
-8.38061046600341797 -132.899459838867188 38.8242111206054688
-23.7060031890869141 -52.7123985290527344 23.4789352416992188
-14.9373378753662109 296.293731689453125 -14.1863260269165039
50.7847785949707031 -340.881561279296875 -12.7156457901000977
2.58816695213317871 -94.0178451538085938 -32.840118408203125
1.93054115772247314 71.0858078002929688 25.7487888336181641
-26.9901866912841797 -67.1910629272460938 24.32373046875
8.05165672302246094 -150.620452880859375 19.5568752288818359
50.0700149536132812 -341.5714111328125 -12.7261257171630859
-24.5233535766601562 14.1318473815917969 -0.627998173236846924
33.9148521423339844 -113.233833312988281 -0.0886216163635253906
31.5135040283203125 -91.8653640747070312 -12.9875650405883789
-25.8914356231689453 92.8090286254882812 -2.65222764015197754
-23.5647449493408203 -3.27243924140930176 -8.81440639495849609
42.8491477966308594 -113.552665710449219 -10.7573509216308594
-9.96130657196044922 -184.693984985351562 -29.8266563415527344
10.324305534362793 229.211639404296875 2.06328868865966797
7.16988372802734375 -194.778945922851562 -19.7968025207519531
-27.8665866851806641 -132.518508911132812 -16.5347003936767578
1.4240947961807251 -228.075607299804688 -3.04544162750244141
21.2257099151611328 159.166763305664062 11.8205280303955078
21.6516532897949219 124.049217224121094 -0.530423164367675781
17.70733642578125 200.18157958984375 20.3017234802246094
41.4588890075683594 -334.354461669921875 -2.41473007202148438
16.4414825439453125 120.956817626953125 22.7475509643554688
3.18518900871276855 347.953643798828125 -13.8288774490356445
-12.8362188339233398 -268.106292724609375 0.0562030300498008728
-22.3336944580078125 -48.8669624328613281 21.6993904113769531
13.2285137176513672 236.87054443359375 4.86339569091796875
-21.6673564910888672 -133.0980224609375 62.2924766540527344
-14.4702472686767578 -305.262908935546875 -1.68839728832244873
-15.8978252410888672 -212.054977416992188 -3.95197558403015137
8.62082862854003906 188.678329467773438 25.4527320861816406
13.4517984390258789 180.261993408203125 27.9867267608642578
26.0654792785644531 209.932373046875 11.0489034652709961
-19.9678821563720703 98.404388427734375 16.3817100524902344
-12.5053958892822266 362.41162109375 -9.285980224609375
2.43908238410949707 175.770919799804688 19.7435436248779297
-22.9522666931152344 58.5185546875 -18.723541259765625
22.9891433715820312 230.1741943359375 -11.2348518371582031
24.9127006530761719 132.007965087890625 -0.42895624041557312
5.95646572113037109 145.959213256835938 -24.6206264495849609
-22.4869956970214844 -183.298660278320312 -13.4487552642822266
-0.88804018497467041 266.27154541015625 -21.4726524353027344
22.2535648345947266 256.94671630859375 6.84939670562744141
-6.03658151626586914 236.878631591796875 13.2055788040161133
5.37817955017089844 87.8695144653320312 -25.0126953125
5.72440052032470703 384.906402587890625 -0.909922361373901367
-16.4123992919921875 281.815948486328125 4.13673686981201172
-2.01429533958435059 141.04449462890625 19.3890361785888672
-0.388332009315490723 368.873046875 -14.8418245315551758
-13.4107599258422852 213.284744262695312 -22.9105453491210938
21.8169345855712891 -179.4576416015625 -21.3484687805175781
20.6166000366210938 -43.0784416198730469 5.08451032638549805
11.7260551452636719 274.305755615234375 7.1337733268737793
20.5892868041992188 238.139083862304688 -4.9543914794921875
-35.8758659362792969 -70.238067626953125 -11.8077125549316406
-15.6319141387939453 -37.5174293518066406 -25.9429397583007812
63.2598762512207031 -311.275970458984375 -2.78437399864196777
18.12506103515625 -77.9742279052734375 25.1492652893066406
-28.4063663482666016 201.343063354492188 4.24824333190917969
18.9597873687744141 193.386978149414062 -15.8050966262817383
-8.59174919128417969 -4.07880973815917969 15.5925197601318359
23.5144729614257812 -109.240081787109375 29.0984725952148438
37.6074943542480469 -102.560234069824219 -18.4010009765625
-8.80899429321289062 -164.895187377929688 14.423828125
8.44329357147216797 -115.184913635253906 -34.3093681335449219
14.1905603408813477 -137.432571411132812 36.6975898742675781
-6.74440670013427734 -108.649192810058594 50.323974609375
-38.0757102966308594 -112.910285949707031 9.52359962463378906
18.2195529937744141 -52.7954177856445312 -21.8466339111328125
44.3221473693847656 -124.801399230957031 -22.5691719055175781
26.3600883483886719 -87.8039474487304688 22.6491107940673828
-17.1701679229736328 78.7277450561523438 -24.5914039611816406
55.9879226684570312 -332.79876708984375 -12.6285161972045898
22.7445487976074219 81.7418746948242188 2.02822518348693848
-7.66265249252319336 26.6011314392089844 18.4891529083251953
10.1125087738037109 -86.8682785034179688 24.9779949188232422
-20.5059375762939453 23.829925537109375 -23.0971832275390625
-12.6472158432006836 266.9537353515625 14.6945505142211914
15.9362726211547852 -18.7574806213378906 -19.0749912261962891
-25.4500770568847656 128.330108642578125 3.33208489418029785
-18.3244037628173828 241.69989013671875 2.1173405647277832
4.79486513137817383 -70.5159225463867188 -30.1830425262451172
-13.1177654266357422 332.794891357421875 -10.3939218521118164
16.2398967742919922 187.653762817382812 -17.5464687347412109
-11.0442600250244141 -327.424407958984375 -9.27240848541259766
-25.5411224365234375 104.068832397460938 -15.5148916244506836
30.7637615203857422 -125.424613952636719 -8.12784671783447266
4.34957742691040039 -330.398834228515625 -5.15328121185302734
-12.3490924835205078 359.69329833984375 -9.51281070709228516
19.8583393096923828 106.95123291015625 15.9231491088867188
-27.4635143280029297 -108.2501220703125 -7.11267471313476562
17.5750102996826172 135.938949584960938 -15.9349641799926758
0.0165818240493535995 340.0477294921875 -15.6283988952636719
27.0277938842773438 -90.5619888305664062 5.15053081512451172
42.3223228454589844 -112.076461791992188 -10.8524055480957031
-3.60745334625244141 84.447662353515625 17.5637321472167969
8.12566947937011719 224.529464721679688 13.3799037933349609
-1.7603534460067749 -41.6645584106445312 -28.2973403930664062
45.2100982666015625 -120.669227600097656 6.15907526016235352
3.64050173759460449 -87.4023056030273438 27.1455535888671875
-24.5940971374511719 73.299957275390625 2.96566438674926758
-0.416027724742889404 -278.389556884765625 -2.44794011116027832
-7.70531988143920898 366.207763671875 -11.9931573867797852
11.4323768615722656 264.826019287109375 8.04014301300048828
17.1970005035400391 -170.879440307617188 -22.1629219055175781
-15.7225627899169922 -122.461654663085938 53.5661773681640625
-57.7670059204101562 -113.206008911132812 0.515519082546234131
5.03910112380981445 366.9630126953125 0.674998939037322998
39.0744247436523438 -340.886993408203125 0.138777315616607666
-9.00555038452148438 332.28546142578125 -13.4511537551879883
-9.68749046325683594 -170.748764038085938 13.9492397308349609
-3.39624500274658203 -131.685516357421875 44.9278488159179688
31.1660881042480469 -352.86248779296875 -0.602454900741577148
2.2031397819519043 -79.3986434936523438 26.3415985107421875
17.5678386688232422 -132.355789184570312 30.3425102233886719
-31.0767269134521484 -120.196510314941406 26.0673904418945312
-5.84326791763305664 156.431533813476562 19.2873497009277344
14.41339111328125 -6.61231756210327148 12.5021381378173828
11.7096691131591797 95.3846664428710938 -22.9519481658935547
8.18083572387695312 -126.654121398925781 48.9558525085449219
-35.2597236633300781 -142.174957275390625 15.7187681198120117
13.3185663223266602 288.22235107421875 -3.4088749885559082
21.5506629943847656 -169.179855346679688 -0.962332487106323242
-0.423053085803985596 -315.846710205078125 -6.25548362731933594
-24.7691383361816406 59.8931045532226562 -13.9376068115234375
50.62744140625 -123.737495422363281 1.71871352195739746
-7.90603733062744141 -109.519371032714844 43.5058822631835938
39.0659294128417969 -106.902030944824219 -25.8076400756835938
-24.6880435943603516 -140.26904296875 2.81318497657775879
2.97163891792297363 -152.744949340820312 36.5348777770996094
-23.3925743103027344 -121.659576416015625 14.365534782409668
24.3304500579833984 142.397659301757812 7.36452817916870117
-26.4882907867431641 -83.0179519653320312 -11.4707937240600586
-4.03974246978759766 6.7222285270690918 -29.3066654205322266
12.6655311584472656 265.859619140625 8.07248687744140625
19.6641426086425781 125.883834838867188 -17.2155284881591797
15.6575918197631836 -23.8184852600097656 -13.5895252227783203
-13.7478923797607422 96.677215576171875 18.1151046752929688
14.6448574066162109 -169.984420776367188 -29.8675651550292969
-11.5531988143920898 213.924240112304688 -24.3643646240234375
-15.9205341339111328 -61.20416259765625 26.6367740631103516
21.2838382720947266 201.470626831054688 -12.0510358810424805
-13.0166454315185547 150.340255737304688 -22.6040439605712891
-12.6821918487548828 -294.137481689453125 0.760450661182403564
20.4627323150634766 -119.617279052734375 23.3895416259765625
-12.50799560546875 58.8909568786621094 14.7346582412719727
25.1168079376220703 214.204299926757812 -6.79485988616943359
11.2204008102416992 222.112518310546875 -22.2575092315673828
-3.68541240692138672 248.492462158203125 -20.8199729919433594
-9.27073001861572266 299.073486328125 -19.2355575561523438
-17.1474094390869141 38.8851699829101562 15.5308876037597656
-25.0073833465576172 19.7984504699707031 -4.66312265396118164
-16.6171360015869141 -46.1061973571777344 -26.8869609832763672
0.42885097861289978 -15.936375617980957 17.0005874633789062
-23.3259468078613281 -131.923904418945312 28.9766464233398438
-14.5700044631958008 333.128662109375 -6.3239436149597168
-24.9893360137939453 5.49488353729248047 -0.759735286235809326
-39.4873695373535156 -109.338829040527344 -13.628809928894043
21.5603485107421875 261.913177490234375 -12.521240234375
29.8172931671142578 -129.125747680664062 39.4482498168945312
-11.4624967575073242 185.070602416992188 -22.5786628723144531
-12.4450645446777344 251.756210327148438 10.2735395431518555
-25.9592742919921875 152.085418701171875 -16.4057807922363281
-21.9808883666992188 -28.7886543273925781 -15.6247797012329102
-11.9262351989746094 334.521636962890625 1.66017401218414307
5.86518526077270508 174.58258056640625 -24.5179500579833984
31.9539089202880859 -78.649200439453125 1.06798112392425537
-24.1696281433105469 -130.6988525390625 -25.4435386657714844
-31.6277599334716797 -121.407234191894531 51.52752685546875
23.2794628143310547 -125.572311401367188 18.4013099670410156
-25.6429653167724609 71.0304946899414062 -12.2304916381835938
0.159838944673538208 300.75372314453125 9.94489479064941406
-7.09844255447387695 224.579666137695312 -21.5618839263916016
