ply
format ascii 1.0
element vertex 785
comment vertices
property float x
property float y
property float z
end_header
-9.15392112731933594 138.152191162109375 10.2192544937133789
-17.3710651397705078 -150.385467529296875 1.47220051288604736
18.027862548828125 60.123809814453125 24.5201930999755859
-24.1982517242431641 -39.5494346618652344 -17.0829410552978516
-22.9183425903320312 -12.3323850631713867 18.8276290893554688
12.8831987380981445 -50.6909408569335938 -26.0793857574462891
-3.67847895622253418 -73.3665771484375 -27.6491813659667969
2.35370779037475586 54.6296920776367188 -28.7500762939453125
-15.4466180801391602 84.0477447509765625 -23.3332500457763672
-31.5691299438476562 36.5874366760253906 -1.78119933605194092
-4.31964588165283203 80.1925277709960938 -27.3231792449951172
-13.6254777908325195 23.6641349792480469 26.6266651153564453
29.2241802215576172 -42.4623756408691406 6.38130807876586914
23.0503330230712891 92.3402938842773438 21.7285404205322266
10.2305641174316406 94.7554550170898438 25.8321437835693359
24.4120349884033203 80.8899917602539062 20.4668903350830078
5.02017784118652344 -148.0703125 -14.8616580963134766
26.1102199554443359 5.48847770690917969 18.3895683288574219
-14.1642560958862305 7.24345827102661133 -24.9890727996826172
23.4509773254394531 126.027381896972656 -15.9962005615234375
-14.403986930847168 -43.3483467102050781 26.2923355102539062
12.6090517044067383 -18.3358974456787109 -26.5419216156005859
5.02948570251464844 -106.312576293945312 16.5405044555664062
4.38172769546508789 100.148933410644531 -28.2922153472900391
9.27339649200439453 -70.635040283203125 -26.7007617950439453
-23.0076141357421875 22.0167694091796875 19.0578956604003906
0.906808197498321533 -152.34893798828125 5.63827800750732422
-19.3375415802001953 -103.11077880859375 6.98716020584106445
16.3450584411621094 12.4537143707275391 24.4975452423095703
-25.0465488433837891 34.0105438232421875 -15.6801223754882812
8.22839450836181641 44.0840187072753906 27.0900363922119141
12.0724077224731445 38.6040115356445312 -26.3222332000732422
8.41324329376220703 13.7933273315429688 26.4228496551513672
26.6063594818115234 9.84451007843017578 17.5432834625244141
22.2376213073730469 56.9768257141113281 -20.6124000549316406
-17.6986980438232422 -82.2003631591796875 -18.7656593322753906
-20.349456787109375 70.6379318237304688 20.7133712768554688
-10.4235658645629883 18.1549129486083984 -26.689544677734375
-28.3322372436523438 124.8536376953125 -4.12483835220336914
17.0613422393798828 -62.2586631774902344 -24.2449474334716797
-17.4681034088134766 87.7041549682617188 23.7053680419921875
5.36722898483276367 -101.543701171875 24.0645713806152344
24.1870594024658203 -87.104217529296875 18.0126304626464844
-14.5616817474365234 -151.279052734375 -7.64567995071411133
-12.7836294174194336 -113.44854736328125 -13.7930364608764648
-26.2773780822753906 110.08026123046875 -14.9865121841430664
-18.7860088348388672 -102.8050537109375 -9.96254730224609375
2.55662012100219727 127.635688781738281 23.7078685760498047
-11.0169486999511719 1.02875471115112305 27.9455623626708984
8.71486949920654297 111.247459411621094 25.7374687194824219
-30.4737224578857422 -18.5011367797851562 0.672658860683441162
-29.5873374938964844 51.6655616760253906 7.47598171234130859
28.9180355072021484 11.2564754486083984 9.58239269256591797
30.5415878295898438 87.0809326171875 -0.677327156066894531
-19.024871826171875 -119.073921203613281 -4.2181696891784668
-28.2422523498535156 -75.421051025390625 12.2113542556762695
3.43881893157958984 -5.67442083358764648 -28.6421718597412109
24.9809665679931641 2.57794809341430664 19.2863311767578125
17.0334606170654297 -107.854362487792969 -4.25864028930664062
28.2650089263916016 31.4875984191894531 -10.6184015274047852
-6.67255210876464844 -146.586257934570312 17.4612617492675781
-12.440211296081543 129.785980224609375 24.8479938507080078
-20.6429805755615234 -34.5611114501953125 20.9833259582519531
-2.231597900390625 133.491912841796875 19.7609043121337891
-25.0684604644775391 8.54198360443115234 16.3179988861083984
-6.42216300964355469 23.3978004455566406 28.9882011413574219
-20.6478023529052734 120.247917175292969 -18.9414844512939453
29.4242115020751953 57.2105789184570312 10.1499385833740234
26.4508800506591797 108.432273864746094 -9.43604183197021484
29.3382358551025391 90.4214935302734375 -8.06554412841796875
26.0981483459472656 -89.9952011108398438 -0.113662838935852051
0.795591235160827637 -52.003326416015625 -28.6100006103515625
27.5788726806640625 -68.1887130737304688 4.56747198104858398
10.2942991256713867 46.9582595825195312 -27.4062881469726562
28.4851436614990234 -60.63665771484375 3.70847153663635254
4.32497930526733398 -96.055511474609375 -27.0271148681640625
30.5392818450927734 87.760955810546875 -3.80099821090698242
-2.21300220489501953 42.2021293640136719 29.0079593658447266
-29.1005516052246094 91.1494522094726562 3.31467342376708984
-26.6391067504882812 110.906387329101562 -14.9368228912353516
25.4403724670410156 111.968605041503906 19.6076297760009766
-29.2805633544921875 6.4774937629699707 5.90346479415893555
-30.1584014892578125 -88.27459716796875 -3.40980267524719238
2.36046028137207031 11.8497028350830078 -28.7609481811523438
2.04663538932800293 -108.686454772949219 -26.2907733917236328
20.0012855529785156 -20.4154224395751953 21.7555732727050781
-13.0936832427978516 108.245903015136719 27.0518646240234375
-19.7875404357910156 71.3926773071289062 -20.8384666442871094
-29.3517017364501953 51.1694526672363281 2.05168247222900391
-28.2945594787597656 -92.213714599609375 -0.796363651752471924
13.9628839492797852 95.3790206909179688 -26.9673404693603516
-16.1279830932617188 -30.4777641296386719 25.5533199310302734
6.10996341705322266 -32.6904296875 25.636566162109375
-1.99552321434020996 125.519142150878906 25.5611286163330078
25.7463893890380859 -37.1492500305175781 17.5969257354736328
-4.86304616928100586 -13.9480180740356445 27.9511470794677734
-13.0148210525512695 101.349563598632812 27.1595802307128906
-9.28999710083007812 -89.2795944213867188 25.9150924682617188
5.93757390975952148 -12.7605314254760742 -28.5912570953369141
24.8205070495605469 -101.6890869140625 -14.9192008972167969
16.3704566955566406 -11.9409694671630859 23.4898643493652344
16.1504249572753906 41.6688041687011719 -24.7973785400390625
21.9565811157226562 -64.855621337890625 -17.4163646697998047
23.4535179138183594 -29.7580070495605469 19.5807914733886719
-17.6485557556152344 105.452568054199219 -20.8556938171386719
30.3511619567871094 33.9827232360839844 -1.61822319030761719
16.8087406158447266 -108.715003967285156 -5.22631597518920898
-17.1254749298095703 -60.3330307006835938 22.6006011962890625
-28.9201946258544922 84.89208984375 -10.1258134841918945
27.6985511779785156 -63.4991683959960938 -5.63543510437011719
7.94702625274658203 51.7468032836914062 -28.0385704040527344
27.9050483703613281 39.03173828125 14.4659032821655273
-24.1273975372314453 -17.9991245269775391 16.696807861328125
25.9208869934082031 -58.3413276672363281 -11.636998176574707
24.9175243377685547 -62.8724174499511719 17.6081790924072266
-18.1985874176025391 -130.298004150390625 8.73298835754394531
21.4914989471435547 -61.4308738708496094 -18.5681343078613281
19.5178699493408203 48.6910858154296875 23.6797733306884766
-17.0890007019042969 -103.846267700195312 -13.7914056777954102
28.3576583862304688 103.112167358398438 15.2212543487548828
-23.3777236938476562 111.91668701171875 -18.3347835540771484
-19.5095672607421875 -119.157257080078125 -2.04395055770874023
-1.56872129440307617 33.8029136657714844 -28.6317825317382812
-5.24795675277709961 -107.064926147460938 21.8057441711425781
-19.2767295837402344 40.5837936401367188 22.4949531555175781
-2.83979439735412598 -152.521957397460938 7.38158750534057617
-26.3845005035400391 -26.7677555084228516 12.9775838851928711
26.3871612548828125 -64.7195510864257812 16.4392547607421875
-11.9573659896850586 -71.4965896606445312 -24.400634765625
29.6848354339599609 35.1437644958496094 6.47015142440795898
-29.8897666931152344 -0.904201686382293701 3.79713201522827148
-7.25393486022949219 134.092941284179688 -17.7591285705566406
-3.5607764720916748 -75.2863311767578125 25.2918033599853516
14.7565288543701172 133.205917358398438 -21.3447380065917969
-25.5279464721679688 3.63242435455322266 15.3733301162719727
25.7195701599121094 33.9266090393066406 -14.5547494888305664
-6.02785682678222656 78.93243408203125 29.0410480499267578
6.42483329772949219 -32.1030616760253906 25.5752716064453125
30.4506664276123047 88.45819091796875 -4.21075296401977539
29.8650913238525391 47.083709716796875 -2.41243124008178711
24.1634120941162109 -83.856414794921875 -16.4674835205078125
12.1321001052856445 53.2837257385253906 -26.8642787933349609
-28.8602066040039062 -25.5176849365234375 8.14712047576904297
3.79017782211303711 -82.8135986328125 -27.4684429168701172
3.12608122825622559 -9.74991703033447266 -28.6364517211914062
-28.4276676177978516 -42.2340087890625 7.26557302474975586
21.9397830963134766 121.425827026367188 -22.2034244537353516
-14.094085693359375 -87.3504867553710938 25.7085342407226562
-19.7851734161376953 -143.463897705078125 -4.81791067123413086
-1.93011629581451416 61.2124099731445312 -28.1661376953125
16.7105846405029297 6.84924650192260742 24.2376480102539062
-28.6875743865966797 -95.6976165771484375 4.79852962493896484
19.7750415802001953 -2.97461700439453125 -21.4517555236816406
26.7904853820800781 64.2154617309570312 -13.3986024856567383
-13.2657957077026367 25.3223094940185547 -25.3069553375244141
7.54346895217895508 -106.463729858398438 -26.5080642700195312
13.7715749740600586 -19.1432819366455078 23.7918739318847656
-18.8485736846923828 86.3726043701171875 -21.8065128326416016
30.3246078491210938 37.1206855773925781 1.31540286540985107
18.2330894470214844 48.6241111755371094 -23.8491096496582031
-29.334442138671875 57.0155906677246094 6.87599420547485352
0.548082411289215088 -37.7625694274902344 -28.5520954132080078
19.7744731903076172 -109.453872680664062 -7.44203901290893555
-16.8006229400634766 -150.125259399414062 -6.24059247970581055
-19.70855712890625 100.125106811523438 20.8931159973144531
5.88217639923095703 -79.041748046875 24.2612876892089844
25.2440433502197266 -67.9608154296875 -13.1872282028198242
29.1920852661132812 70.8761672973632812 -6.99733304977416992
-16.1144447326660156 118.735939025878906 25.0220756530761719
-25.7902011871337891 5.57985591888427734 -15.907353401184082
-9.08257865905761719 -134.761260986328125 16.5431632995605469
30.5200347900390625 102.383651733398438 3.07392024993896484
-6.82070493698120117 -70.4565353393554688 -26.8845329284667969
26.4248123168945312 -67.5648040771484375 -10.7702245712280273
-20.9270191192626953 133.859878540039062 8.26999855041503906
-22.3087940216064453 132.388046264648438 -16.8575496673583984
6.62272167205810547 -152.525711059570312 -6.85167789459228516
-14.8950958251953125 -145.35797119140625 -12.8736858367919922
-23.4294490814208984 -35.1383781433105469 16.9561557769775391
3.03403735160827637 60.5577354431152344 -28.6736698150634766
11.074030876159668 28.8845901489257812 26.3142547607421875
-25.5498600006103516 -89.363037109375 17.5368118286132812
15.7914838790893555 -45.8931083679199219 22.484283447265625
9.99391078948974609 -125.889091491699219 10.5467615127563477
28.35498046875 60.6442642211914062 13.4860124588012695
29.76190185546875 88.2756881713867188 9.96822357177734375
27.3128662109375 32.9003524780273438 15.6271085739135742
-27.4894351959228516 -19.6077976226806641 -14.633392333984375
-1.96043622493743896 -75.4696426391601562 24.9660415649414062
29.9954776763916016 89.2694625854492188 8.67167472839355469
-7.79106569290161133 17.5769691467285156 28.7826557159423828
-21.5701618194580078 124.501045227050781 17.150421142578125
5.60774612426757812 97.9110183715820312 27.2300014495849609
29.8296566009521484 -0.110284611582756042 -2.3314824104309082
9.87938404083251953 -19.5007133483886719 -27.7000179290771484
27.2758865356445312 -68.0839614868164062 -5.90532350540161133
-15.3519477844238281 -74.2563018798828125 24.6003894805908203
-32.1297416687011719 100.102066040039062 -2.1579442024230957
15.9539070129394531 -109.008018493652344 -7.57573318481445312
16.9440975189208984 135.11883544921875 -16.1631221771240234
17.3479862213134766 26.7264747619628906 24.3608551025390625
26.7160396575927734 37.4200439453125 -13.065974235534668
29.4006919860839844 -18.8729724884033203 7.23711347579956055
-10.6546802520751953 -145.8143310546875 16.4629364013671875
-24.1035842895507812 -69.02978515625 -13.7921104431152344
29.0614395141601562 -13.0223121643066406 -6.49793910980224609
27.0933399200439453 112.063621520996094 17.5154914855957031
19.7598495483398438 -109.045204162597656 -13.9570827484130859
-10.2720441818237305 -90.8863372802734375 -26.2308578491210938
16.94171142578125 -91.8658447265625 -23.2624950408935547
8.86839008331298828 -70.1937103271484375 23.3069267272949219
-30.3663253784179688 -50.3377647399902344 -6.10718965530395508
24.4116439819335938 132.0968017578125 16.5557975769042969
-20.1506385803222656 -144.398269653320312 -3.80579662322998047
-17.7160472869873047 82.6329269409179688 -22.4254360198974609
29.2527999877929688 33.455413818359375 -7.32603931427001953
13.7553949356079102 -44.6635322570800781 23.2399444580078125
-18.0492897033691406 -113.992851257324219 -7.27152204513549805
0.481422185897827148 -50.0025711059570312 -28.5684165954589844
-15.7307348251342773 40.7679824829101562 25.3724613189697266
14.080413818359375 117.408836364746094 23.7681159973144531
-21.1007041931152344 76.1505661010742188 -20.0558052062988281
-30.6856689453125 -37.3051910400390625 -0.936281561851501465
-27.4509716033935547 -87.356170654296875 6.59376668930053711
-18.5530757904052734 68.5373992919921875 22.4248905181884766
-17.1403751373291016 -114.384201049804688 -8.94448661804199219
11.8075742721557617 13.5230379104614258 -26.7280139923095703
-17.0190963745117188 136.781494140625 0.837906360626220703
-6.62010478973388672 -89.46148681640625 -27.5470733642578125
11.5179843902587891 -77.0380706787109375 22.0805854797363281
-11.6207275390625 -41.2006492614746094 -25.3426170349121094
-5.76315593719482422 53.9885368347167969 29.1567878723144531
-17.4537734985351562 -12.6810808181762695 -22.7350559234619141
11.5464744567871094 131.638885498046875 18.4705638885498047
-14.0401248931884766 137.02911376953125 -0.168722257018089294
1.11211252212524414 -45.5257797241210938 26.2504005432128906
9.66013145446777344 -149.824447631835938 -9.24096584320068359
-11.0597171783447266 -152.225296020507812 -9.080169677734375
-0.816137909889221191 4.74836969375610352 27.548065185546875
-18.6157188415527344 -127.962944030761719 7.65293502807617188
-5.38415956497192383 -11.5669288635253906 -27.3976879119873047
-9.59270191192626953 37.7666282653808594 -26.7744541168212891
7.2370600700378418 -23.2405948638916016 -28.2530326843261719
-28.6946392059326172 -93.6600341796875 0.124865442514419556
29.0295524597167969 67.8827667236328125 11.4969053268432617
25.9491596221923828 65.9134597778320312 18.3385810852050781
-31.1459770202636719 -11.0306453704833984 -3.02360844612121582
13.7493562698364258 -128.428802490234375 -1.99853289127349854
23.0745010375976562 62.6492576599121094 -19.8964405059814453
-29.8673000335693359 -15.6338787078857422 2.74454855918884277
-7.45082521438598633 -152.202957153320312 1.54542648792266846
-22.7565898895263672 0.728596150875091553 19.2886943817138672
-18.2920703887939453 66.8367080688476562 22.6662330627441406
-6.13225412368774414 -137.560150146484375 17.4043045043945312
6.34249019622802734 -139.628662109375 14.3874998092651367
29.9372406005859375 5.35086631774902344 -0.191037014126777649
-9.63670730590820312 -38.881195068359375 27.5428714752197266
10.4805097579956055 -151.866973876953125 -0.701620817184448242
1.53657877445220947 -18.6165351867675781 27.1817340850830078
27.3397655487060547 -41.2978782653808594 -8.08174324035644531
22.8538742065429688 112.968299865722656 -21.0388755798339844
-22.0345611572265625 91.7192001342773438 18.8676261901855469
31.0245361328125 99.2497711181640625 -0.278143703937530518
29.4148769378662109 -36.1452255249023438 4.38992118835449219
8.32183456420898438 -42.5744247436523438 -27.6024875640869141
-1.83372128009796143 38.4850311279296875 -28.6380977630615234
25.4035930633544922 87.3610305786132812 19.4195938110351562
12.6101808547973633 88.2673568725585938 25.3617439270019531
-23.3807392120361328 133.738876342773438 -13.5158843994140625
12.3223915100097656 -54.2454833984375 -26.3396873474121094
27.8374061584472656 132.2108154296875 4.97944927215576172
-18.9792537689208984 89.4482040405273438 22.6795864105224609
6.16248941421508789 -34.0766868591308594 25.5857334136962891
13.7432765960693359 -115.538475036621094 2.92922210693359375
-8.08210277557373047 55.3025169372558594 28.9931812286376953
19.9815521240234375 125.952171325683594 -23.3308639526367188
-31.5648727416992188 78.9656982421875 -1.77744126319885254
29.2810077667236328 118.562583923339844 11.3221521377563477
-6.82796382904052734 1.06049168109893799 -27.3627262115478516
-28.4551048278808594 79.3210525512695312 8.22126579284667969
12.7635354995727539 53.9755516052246094 -26.5614757537841797
22.5452175140380859 88.2926864624023438 -20.6175956726074219
21.2328834533691406 60.6258468627929688 22.6432056427001953
-24.8518047332763672 -48.7812652587890625 13.016840934753418
-30.2788143157958984 -31.6981887817382812 -2.03184819221496582
27.1710433959960938 95.3557205200195312 -12.7045717239379883
7.48528480529785156 -151.415054321289062 -8.80156898498535156
28.3892955780029297 -66.1623916625976562 10.5661411285400391
27.2552566528320312 -103.073883056640625 11.8198127746582031
-25.4123897552490234 12.4853372573852539 15.9778118133544922
-20.5205478668212891 -103.84796142578125 5.43531370162963867
-15.2447032928466797 -63.1925888061523438 -22.0877876281738281
28.8250579833984375 35.7684364318847656 -8.96585273742675781
-4.26138496398925781 32.6788673400878906 -28.3120346069335938
-0.885997354984283447 130.659942626953125 -23.8598155975341797
-19.0282058715820312 -31.4141578674316406 -21.3183002471923828
29.5841197967529297 125.418891906738281 2.35704231262207031
-18.8092594146728516 115.722251892089844 -19.4190235137939453
-16.0901317596435547 -40.8981399536132812 -23.1010036468505859
-11.3595504760742188 -55.8969230651855469 -25.0422420501708984
14.0574913024902344 28.4499187469482422 25.5966434478759766
-19.2067337036132812 56.7136497497558594 21.7885265350341797
-10.891362190246582 -40.9379501342773438 27.3702011108398438
16.9624958038330078 96.2960586547851562 -25.8752326965332031
27.8472976684570312 -33.8114433288574219 13.7508916854858398
-1.60515522956848145 -112.686363220214844 17.81024169921875
27.1079654693603516 62.4528617858886719 16.2691307067871094
27.0234794616699219 126.749443054199219 -8.37697505950927734
13.7092094421386719 106.592247009277344 -27.2769927978515625
7.81850481033325195 123.018272399902344 24.5566082000732422
0.531782686710357666 -85.0736923217773438 24.9749774932861328
-6.71004533767700195 57.3913002014160156 29.1531982421875
6.09408473968505859 128.22882080078125 -25.3457508087158203
-19.7041740417480469 66.7365875244140625 21.3538379669189453
-15.2316789627075195 118.969413757324219 25.6861343383789062
19.8433170318603516 15.1968669891357422 -21.5312957763671875
-19.0073299407958984 -79.3936538696289062 21.8451461791992188
-23.6464309692382812 125.448554992675781 12.4527788162231445
18.592193603515625 -4.97931241989135742 -22.1702709197998047
-16.2311305999755859 110.768852233886719 -21.1997394561767578
24.5806293487548828 26.902435302734375 -15.8868007659912109
26.5740852355957031 129.970962524414062 15.349888801574707
-11.1298427581787109 -96.8477859497070312 25.3342952728271484
6.71475553512573242 -33.0052375793457031 -28.1569442749023438
-29.7880668640136719 -12.4411487579345703 2.68747115135192871
6.31268024444580078 37.103302001953125 27.2131729125976562
4.44319629669189453 -44.9283523559570312 -28.3795623779296875
16.7256145477294922 109.700508117675781 -26.1917572021484375
-30.4452877044677734 -51.95697021484375 -6.07599830627441406
6.00055789947509766 -152.41558837890625 -8.02734947204589844
-24.8176212310791016 2.17067432403564453 16.3369178771972656
5.67094516754150391 -22.4467010498046875 26.0874958038330078
28.8558235168457031 -32.4382476806640625 10.1863861083984375
-20.2955169677734375 -68.9753189086914062 20.7940883636474609
-3.67588639259338379 -83.4945907592773438 25.4611282348632812
23.5537586212158203 -69.6167144775390625 -15.7516336441040039
25.1782588958740234 46.5645751953125 -15.2212142944335938
-31.2339286804199219 -59.4073982238769531 -0.636803388595581055
-15.2681083679199219 109.296379089355469 -22.3535022735595703
-30.360992431640625 116.433441162109375 -7.7600703239440918
-0.439630717039108276 -100.925933837890625 24.9798145294189453
6.13032722473144531 24.1715774536132812 -28.5243625640869141
-9.61433506011962891 -107.067314147949219 -15.993525505065918
-19.7058525085449219 -5.33011770248413086 22.5018501281738281
12.7536678314208984 -56.5002899169921875 22.758148193359375
-25.4768791198730469 71.8253097534179688 15.0238838195800781
22.3877449035644531 -107.56854248046875 1.37849044799804688
29.1142787933349609 67.9219131469726562 -7.47765922546386719
-7.8507227897644043 75.21112060546875 -26.4263572692871094
14.6892194747924805 -73.3685150146484375 -25.1392326354980469
-14.8481960296630859 108.319511413574219 -22.7022037506103516
30.1911582946777344 55.1370811462402344 6.29949378967285156
22.243988037109375 -1.36082041263580322 -19.3809185028076172
26.3218021392822266 -17.0777626037597656 17.4187717437744141
9.66956806182861328 54.6253318786621094 -27.7314338684082031
-6.10898399353027344 -29.0978412628173828 -27.4253692626953125
7.82817506790161133 -14.7805442810058594 25.7316055297851562
28.8458003997802734 -0.672310113906860352 9.15651130676269531
-11.8102550506591797 -1.29867494106292725 27.6751365661621094
30.0600624084472656 98.308624267578125 5.77787923812866211
13.4075441360473633 -129.877227783203125 -4.3575282096862793
-12.871211051940918 48.4203453063964844 -25.4537296295166016
-15.1684122085571289 -129.567611694335938 -11.8497171401977539
4.05279970169067383 116.020317077636719 -27.6619987487792969
14.8869485855102539 79.8794784545898438 -26.1074180603027344
6.0918879508972168 -40.5391769409179688 25.1939315795898438
0.650683820247650146 -152.350128173828125 12.9059305191040039
-29.1332283020019531 74.081512451171875 4.33507871627807617
-29.0359706878662109 79.4716033935546875 -10.1846399307250977
-28.1372146606445312 105.911376953125 -11.5520792007446289
-1.21654200553894043 -68.2850112915039062 -27.9902477264404297
27.7279415130615234 -37.4683341979980469 -8.03530311584472656
0.518407940864562988 114.26776123046875 27.0603103637695312
-5.88776636123657227 126.765861511230469 25.6573314666748047
21.7056083679199219 -102.907180786132812 19.3683815002441406
7.37266016006469727 -46.7703056335449219 -27.8870830535888672
0.942109167575836182 -41.9024009704589844 26.4279060363769531
-26.5088291168212891 -66.3355789184570312 13.9077329635620117
27.8901081085205078 -42.0527763366699219 14.2237911224365234
-29.6720695495605469 49.8786888122558594 7.57518577575683594
5.02561426162719727 109.141029357910156 26.7860450744628906
3.38696384429931641 79.6298675537109375 -28.6261768341064453
-29.0428638458251953 -82.9334716796875 11.8107337951660156
-21.1495342254638672 -96.678680419921875 -17.7423725128173828
14.5786752700805664 56.4839706420898438 25.9024028778076172
-24.2111625671386719 17.0539283752441406 -16.8528575897216797
7.95326089859008789 -52.7040824890136719 -27.5857620239257812
-26.2369937896728516 97.4172286987304688 11.2167158126831055
-7.80258607864379883 28.2879753112792969 -27.4928340911865234
-24.8815250396728516 72.1828231811523438 -16.1648426055908203
-1.86860620975494385 -106.050758361816406 19.4108486175537109
27.5285625457763672 57.8873443603515625 -12.1869287490844727
-27.2036647796630859 -73.5032424926757812 13.4791812896728516
4.37011194229125977 -23.1954708099365234 -28.6310977935791016
7.20853900909423828 -93.3900833129882812 -26.5328922271728516
13.9676418304443359 98.1567840576171875 -27.1018581390380859
28.5023574829101562 1.88233399391174316 -8.84709835052490234
-31.1375141143798828 -8.02344322204589844 -1.36479794979095459
21.4619941711425781 18.2349586486816406 22.1751251220703125
7.55450439453125 39.4972381591796875 27.1135520935058594
0.672614574432373047 -97.4902114868164062 24.7947959899902344
13.212031364440918 -122.309478759765625 -7.77511787414550781
-7.48020124435424805 -59.0605812072753906 26.9965782165527344
6.4979853630065918 112.711357116699219 -27.7555065155029297
-18.5603446960449219 67.1872711181640625 22.4472827911376953
-27.5319766998291016 40.5566520690917969 11.3489055633544922
18.1405849456787109 27.0323047637939453 24.0119342803955078
-15.6910915374755859 35.5529022216796875 -23.3873443603515625
27.0976276397705078 -66.7694091796875 -8.23053359985351562
29.8478488922119141 4.27474212646484375 -2.58280444145202637
-26.2425365447998047 118.114860534667969 9.77646350860595703
23.7087192535400391 35.5248680114746094 -17.1836719512939453
9.93982982635498047 35.5300483703613281 -27.1624507904052734
-14.0204172134399414 -34.4810104370117188 -24.4214019775390625
-12.6213188171386719 60.3176727294921875 -25.3714008331298828
-17.0417251586914062 36.7411155700683594 24.3535404205322266
24.6842765808105469 -101.407615661621094 -15.1958398818969727
8.31725311279296875 30.5159358978271484 -27.7157783508300781
-26.3935546875 93.0737686157226562 -13.9672212600708008
25.1419467926025391 -91.3019943237304688 -14.0572662353515625
-24.3418827056884766 88.9442367553710938 15.4098215103149414
7.90522384643554688 -67.0166168212890625 23.9276123046875
-29.2582225799560547 115.724502563476562 -13.73382568359375
-30.1448955535888672 -2.95387554168701172 1.7209010124206543
-24.1081027984619141 -26.9412860870361328 -17.9905014038085938
-19.5044231414794922 -12.0242853164672852 -21.4532413482666016
7.7580876350402832 98.8398590087890625 -28.1291751861572266
20.0543880462646484 105.877616882324219 22.5413742065429688
11.9732742309570312 -53.4207725524902344 23.2547664642333984
0.395248144865036011 36.7141494750976562 27.9408187866210938
13.2099399566650391 89.0986785888671875 25.2157096862792969
-28.3504772186279297 -41.9857368469238281 -12.283238410949707
-16.3141231536865234 77.6339874267578125 24.205047607421875
14.6579608917236328 -48.2952690124511719 22.6722431182861328
3.03284716606140137 -25.7602291107177734 26.7009181976318359
-29.1869049072265625 -73.3157119750976562 -7.12752866744995117
-31.1061916351318359 78.6867523193359375 -4.62971162796020508
11.8587865829467773 -105.992950439453125 13.561894416809082
-13.3632736206054688 -69.2552566528320312 -23.2374973297119141
-8.98114776611328125 -33.0220756530761719 -26.2964458465576172
19.0106277465820312 -53.1241874694824219 20.7355594635009766
7.63865089416503906 135.348968505859375 -16.4043121337890625
18.6618785858154297 61.4297370910644531 -23.5391979217529297
18.9843730926513672 121.833198547363281 22.1261959075927734
-29.7632331848144531 1.79726493358612061 4.24098587036132812
-13.2288846969604492 -123.500404357910156 13.9167671203613281
-12.2918186187744141 91.1269454956054688 27.6515159606933594
3.07255768775939941 -152.356796264648438 5.10665512084960938
27.4382133483886719 -21.3362503051757812 15.0570230484008789
-14.243290901184082 24.7292652130126953 26.1996135711669922
-25.0542926788330078 106.034622192382812 11.2241840362548828
15.9658584594726562 87.4898529052734375 24.4966793060302734
-26.75732421875 107.835693359375 8.43764781951904297
-30.5187015533447266 -32.339935302734375 -5.41404199600219727
22.7203464508056641 112.209701538085938 -21.1895256042480469
-6.51389169692993164 138.631515502929688 3.59909176826477051
4.05380010604858398 1.8551175594329834 26.6819076538085938
-30.4206428527832031 36.5620155334472656 -6.35703086853027344
15.0641555786132812 38.6513099670410156 25.4966087341308594
-31.4585914611816406 79.0908126831054688 -3.13302826881408691
-4.04542732238769531 43.1943511962890625 29.1376857757568359
-16.2557525634765625 -104.632209777832031 23.6475315093994141
-17.7681598663330078 -122.988822937011719 8.91887283325195312
0.163355529308319092 -118.314552307128906 16.669708251953125
-27.3801975250244141 -6.57233285903930664 -14.8188610076904297
-25.5404319763183594 87.6062469482421875 13.7407636642456055
28.6680660247802734 49.23760986328125 11.9015293121337891
-28.8347110748291016 91.6243667602539062 4.08983898162841797
21.206817626953125 -106.578544616699219 18.78094482421875
4.92632198333740234 54.3382339477539062 -28.5984153747558594
9.54841041564941406 118.369277954101562 -27.5796298980712891
-1.50549840927124023 -111.174354553222656 18.0004825592041016
-18.9815330505371094 33.03277587890625 -21.0017452239990234
5.083404541015625 -151.454635620117188 -11.2548255920410156
9.38263702392578125 -125.85369873046875 11.274876594543457
-24.6988868713378906 -100.969772338867188 13.6543169021606445
8.05536651611328125 -108.806709289550781 -20.870849609375
-29.5945167541503906 -13.4981842041015625 3.63865160942077637
24.964996337890625 -0.854739069938659668 -15.7297248840332031
-2.18422818183898926 -58.729400634765625 25.8623256683349609
7.57669782638549805 -133.28302001953125 -15.3791475296020508
-29.2932205200195312 51.0779685974121094 5.85234165191650391
3.81452155113220215 112.294097900390625 -27.8401889801025391
-14.6896457672119141 -151.784622192382812 -5.82218265533447266
11.3401498794555664 -150.102981567382812 6.43906927108764648
10.9072389602661133 138.226730346679688 2.1848299503326416
-10.5191488265991211 -134.124221801757812 -15.3290643692016602
6.99611186981201172 -151.730484008789062 -8.65936851501464844
-9.70313453674316406 70.6212615966796875 28.8121299743652344
28.7212638854980469 43.6469612121582031 -9.78533840179443359
27.7478237152099609 -63.4332618713378906 -5.18818950653076172
23.8495235443115234 -103.965980529785156 -17.1331768035888672
13.9922237396240234 104.289199829101562 24.4461841583251953
1.51920771598815918 85.0406951904296875 -28.3199939727783203
-28.7398929595947266 48.9196891784667969 9.94761562347412109
-21.6344070434570312 24.5215415954589844 20.4191055297851562
-22.7555198669433594 101.24871826171875 -18.4497737884521484
-19.6915817260742188 115.899658203125 -19.0603237152099609
-16.3372611999511719 -35.7529029846191406 25.2383518218994141
11.7813739776611328 126.016044616699219 -25.9845523834228516
-30.4979877471923828 71.859619140625 0.689714550971984863
-22.0378627777099609 -35.1862449645996094 -19.2062492370605469
17.8152790069580078 135.304519653320312 4.99211502075195312
12.7721853256225586 -74.509552001953125 -25.7761421203613281
-2.9935760498046875 -141.153457641601562 -20.0016288757324219
-3.35565090179443359 -65.2550811767578125 25.7868022918701172
-27.4464683532714844 -87.4302825927734375 -10.3222236633300781
-12.3004341125488281 -125.33172607421875 -14.1101284027099609
18.4957008361816406 -82.4610519409179688 20.1111774444580078
-3.77959799766540527 122.726776123046875 -25.9162750244140625
12.996281623840332 120.371475219726562 24.2453975677490234
-2.26751542091369629 18.2670764923095703 -28.5078010559082031
-3.8395683765411377 -105.419715881347656 24.7434787750244141
-15.9681262969970703 64.8392257690429688 24.9198532104492188
-24.1081676483154297 -24.2860546112060547 -18.1150321960449219
4.88991641998291016 -150.780563354492188 -12.51617431640625
-6.42526865005493164 -116.533065795898438 16.8744029998779297
22.9871978759765625 54.3733940124511719 -19.41021728515625
-20.3457393646240234 30.7908496856689453 21.8090972900390625
24.7149295806884766 2.36174321174621582 19.6104564666748047
10.4963455200195312 -19.3569869995117188 -27.4727268218994141
-25.6401386260986328 110.802047729492188 -16.0075874328613281
-11.5533924102783203 99.4113388061523438 -24.8314971923828125
26.2265415191650391 -1.80487549304962158 -13.3885440826416016
-15.3779935836791992 -18.8640880584716797 -23.9067668914794922
29.0280418395996094 -31.3892478942871094 -4.54254007339477539
-19.3598613739013672 103.051467895507812 21.7650146484375
-10.154881477355957 -126.203437805175781 15.8187103271484375
15.7363014221191406 84.6566085815429688 24.7476959228515625
-20.8093204498291016 62.2015266418457031 -19.9294452667236328
20.3641281127929688 -77.3383255004882812 -20.5725498199462891
-25.9175090789794922 122.659454345703125 8.66088771820068359
24.8353595733642578 -28.5897006988525391 -15.5136528015136719
8.44666957855224609 24.5845470428466797 26.6720008850097656
13.7876091003417969 -126.885398864746094 -0.368874222040176392
24.4411373138427734 77.7150955200195312 20.3856697082519531
-9.25484180450439453 -77.7389755249023438 26.5647430419921875
28.3011417388916016 130.4859619140625 9.63913059234619141
-20.7722282409667969 -91.7824554443359375 21.7272129058837891
17.4230060577392578 -80.4715347290039062 20.1992359161376953
-29.6133899688720703 61.7745513916015625 -8.29992103576660156
10.0446891784667969 -107.8741455078125 18.9738903045654297
-27.7677803039550781 -100.216888427734375 7.17586755752563477
-17.3543415069580078 -140.964569091796875 -9.64468574523925781
22.5127315521240234 -106.850143432617188 7.76669979095458984
-5.39333963394165039 -107.342910766601562 -20.5086898803710938
-4.41609430313110352 -36.4694938659667969 27.5537967681884766
22.2048797607421875 134.350601196289062 -10.8333425521850586
29.9432926177978516 11.6164617538452148 4.35829830169677734
25.0416259765625 -38.779083251953125 18.0458831787109375
26.9275455474853516 84.8502044677734375 -12.4378290176391602
-6.60827827453613281 80.1618576049804688 -26.7322311401367188
4.55562829971313477 -111.37628173828125 16.2651691436767578
-4.56333351135253906 15.1906890869140625 -28.1114902496337891
9.52716159820556641 -117.126144409179688 11.2474222183227539
1.83239209651947021 -124.024726867675781 16.3111858367919922
7.41084384918212891 0.756596624851226807 26.0919952392578125
23.7713165283203125 38.8928718566894531 20.7648200988769531
9.48352336883544922 -69.2409286499023438 23.1246528625488281
31.0065898895263672 95.5271759033203125 -0.300296425819396973
24.3181114196777344 -18.6204681396484375 -16.4409255981445312
-16.9035320281982422 -23.7340240478515625 25.3026561737060547
-8.98446559906005859 115.136383056640625 27.6548805236816406
-28.6604595184326172 -1.22896218299865723 -12.3035249710083008
30.5462245941162109 107.031608581542969 2.95430684089660645
9.34215354919433594 -39.1706466674804688 -27.3180789947509766
19.2022590637207031 -30.5858898162841797 21.4871101379394531
-1.86890029907226562 -107.175186157226562 -20.8085098266601562
-17.4442672729492188 -72.8090591430664062 -19.9979476928710938
12.4631681442260742 -121.892486572265625 -9.18388843536376953
-16.7290630340576172 -40.8535690307617188 25.1609783172607422
-30.6280441284179688 101.33251953125 -5.69727706909179688
-16.8474521636962891 -20.7060470581054688 -22.8478412628173828
-29.8466529846191406 -34.3908042907714844 -7.2970881462097168
2.51610755920410156 130.126617431640625 -24.4702930450439453
-27.7829799652099609 -91.2580108642578125 8.19626140594482422
-0.402258932590484619 19.0977745056152344 27.598358154296875
12.5274524688720703 19.3457984924316406 -25.91619873046875
17.0030097961425781 124.574752807617188 22.2142124176025391
30.0981197357177734 88.9601669311523438 7.6922764778137207
-28.8748626708984375 -79.4651031494140625 5.25631952285766602
9.02489852905273438 136.762237548828125 8.71463966369628906
-10.2057094573974609 134.331298828125 -18.6244468688964844
-18.3610515594482422 -35.0709800720214844 23.4793167114257812
-19.8258266448974609 -45.6669578552246094 21.0744400024414062
-17.0366001129150391 -7.8016972541809082 -22.9756298065185547
16.6610012054443359 61.8265190124511719 -24.7900791168212891
-18.2428073883056641 -123.97735595703125 -6.78806495666503906
4.49677133560180664 105.523529052734375 27.0322780609130859
11.7395668029785156 -133.150711059570312 7.91249704360961914
27.3981914520263672 88.373046875 -11.8482522964477539
-30.2939014434814453 42.3492431640625 1.033225417137146
9.58567047119140625 -116.042724609375 -12.4645185470581055
27.0271892547607422 3.79329848289489746 16.8463802337646484
2.81085777282714844 -125.379425048828125 -17.1778125762939453
-18.2958831787109375 136.0294189453125 -1.85193467140197754
-29.4042377471923828 64.6374664306640625 4.10489082336425781
-2.37552618980407715 -51.9803848266601562 -28.3444309234619141
5.67845010757446289 -90.6482009887695312 23.764495849609375
29.4522438049316406 29.7145709991455078 -6.92368888854980469
-2.3072516918182373 -75.3452072143554688 25.0145206451416016
28.8160991668701172 -55.3277931213378906 5.88843917846679688
7.47962427139282227 -41.8321571350097656 -27.7966861724853516
6.83599233627319336 -150.325271606445312 12.3227024078369141
-3.35677623748779297 -49.9980010986328125 -28.0482425689697266
-29.0220680236816406 -32.2560272216796875 -11.4633388519287109
-28.3107528686523438 34.9107627868652344 8.62225341796875
8.07793712615966797 -117.429756164550781 12.6111307144165039
26.806549072265625 62.7331275939941406 -13.3962860107421875
29.8506717681884766 40.7782096862792969 -3.78981304168701172
-26.8933067321777344 8.71898841857910156 13.1846237182617188
-3.77157878875732422 -36.0435867309570312 -27.8623638153076172
20.6255283355712891 131.61322021484375 -17.6305332183837891
-13.4055051803588867 -43.8306999206542969 26.6145954132080078
21.4469680786132812 84.4011001586914062 22.8070774078369141
-21.7588825225830078 92.3622894287109375 -19.3214454650878906
-26.4116916656494141 24.4241867065429688 14.335688591003418
-1.04016757011413574 1.89503610134124756 27.5244979858398438
14.57183837890625 -106.786865234375 13.7863473892211914
28.5365962982177734 -64.1422348022460938 12.1432590484619141
18.4108791351318359 -49.9862632751464844 21.1570320129394531
26.5584316253662109 -99.8976593017578125 -2.4663538932800293
-1.57896125316619873 136.747406005859375 -11.5597772598266602
26.8869361877441406 -8.38710594177246094 -12.1872062683105469
-15.4632081985473633 -84.5719833374023438 25.2364902496337891
12.7162790298461914 129.202194213867188 -24.2860279083251953
-25.8303089141845703 122.159568786621094 9.22243022918701172
-12.0581836700439453 130.518569946289062 24.5749282836914062
-29.1195297241210938 110.112586975097656 -1.82210016250610352
-14.7042303085327148 -133.119796752929688 -12.4835548400878906
24.2905311584472656 28.8388805389404297 20.3337154388427734
-2.96814680099487305 -124.717605590820312 -16.9720592498779297
9.29511928558349609 -30.0312995910644531 -27.499847412109375
-27.7436008453369141 119.912544250488281 -2.09786295890808105
9.77003002166748047 0.650426089763641357 -27.66748046875
-24.5895366668701172 132.046417236328125 3.0229949951171875
-27.7322158813476562 126.194587707519531 -6.81684780120849609
-5.20988559722900391 -152.1611328125 4.10982370376586914
-16.8539981842041016 133.686279296875 16.5511817932128906
25.7708778381347656 -66.6327896118164062 -12.1630830764770508
4.80638980865478516 -94.9714126586914062 -26.9529380798339844
-27.3775558471679688 23.1599216461181641 12.1886110305786133
30.3437519073486328 92.6123275756835938 3.47670507431030273
-25.0242938995361328 81.779815673828125 -16.1609859466552734
-15.1592884063720703 55.0804061889648438 26.0688858032226562
18.1359214782714844 39.424957275390625 24.26922607421875
29.0596160888671875 21.2122230529785156 10.6037940979003906
8.19874191284179688 5.11492824554443359 26.0973834991455078
-19.3483600616455078 117.061561584472656 21.2174911499023438
29.8216838836669922 -20.7614879608154297 3.42642354965209961
-25.6622028350830078 -32.9054145812988281 14.3896827697753906
21.8607425689697266 112.421485900878906 22.2636146545410156
11.5540790557861328 131.502304077148438 18.5906333923339844
7.52886867523193359 11.0308570861816406 26.3887424468994141
17.9547595977783203 2.1812748908996582 23.7059497833251953
-30.8518924713134766 -50.1077804565429688 -4.39919805526733398
-26.0262851715087891 10.4283323287963867 -15.1793746948242188
26.0702648162841797 -84.1716384887695312 16.4707298278808594
-16.794403076171875 21.832855224609375 -22.8823204040527344
28.1611900329589844 6.15895938873291016 13.6632757186889648
27.3153972625732422 -57.9929618835449219 -8.170318603515625
8.34750938415527344 -125.101982116699219 12.3619279861450195
-27.7172222137451172 -74.616363525390625 12.8754568099975586
-17.36199951171875 0.78506702184677124 24.3361110687255859
-30.9699211120605469 -46.8690414428710938 -1.49679684638977051
-5.61873769760131836 -152.891036987304688 9.27886295318603516
0.158522069454193115 -147.23858642578125 17.1482906341552734
-5.64138126373291016 -120.034172058105469 -16.7172222137451172
29.6444129943847656 -40.5651702880859375 -0.629205644130706787
1.54542672634124756 69.47802734375 28.3658523559570312
-16.494110107421875 80.1726226806640625 24.2978134155273438
-22.1282978057861328 -82.6630706787109375 18.5764446258544922
-13.1148185729980469 -26.0462112426757812 27.3311748504638672
3.37813019752502441 -81.66839599609375 24.7251853942871094
29.7266120910644531 123.01568603515625 8.49004936218261719
-25.8180789947509766 -91.6299896240234375 16.4707736968994141
13.463017463684082 -57.9414596557617188 -25.8826789855957031
28.1372928619384766 16.9744606018066406 -10.5836009979248047
25.2736568450927734 -103.95361328125 -3.44416141510009766
-23.1593647003173828 106.637474060058594 15.7441701889038086
-30.1970367431640625 58.8974456787109375 -6.7584376335144043
19.0895500183105469 24.3206043243408203 23.4848461151123047
14.3491058349609375 -114.206756591796875 -5.97567367553710938
-28.7852802276611328 82.88726806640625 -10.6320476531982422
-15.9191274642944336 136.818069458007812 -0.0557074137032032013
-20.0942726135253906 -61.4198684692382812 -19.1262588500976562
-7.56578493118286133 132.0682373046875 23.6017074584960938
16.4791831970214844 38.310394287109375 25.0018653869628906
1.34733760356903076 -30.0948123931884766 26.879241943359375
-23.6341094970703125 69.604217529296875 17.4020881652832031
-16.4961948394775391 -31.4126701354980469 25.2756195068359375
-23.4165725708007812 110.442802429199219 -18.2037239074707031
-14.3374357223510742 43.0549392700195312 26.4125766754150391
20.0000877380371094 122.769912719726562 22.0477466583251953
-29.8806819915771484 -69.3225326538085938 9.11054134368896484
-27.2428493499755859 4.58643102645874023 11.6030292510986328
-24.908966064453125 115.79931640625 -17.0215587615966797
-6.04877042770385742 127.771598815917969 25.3145732879638672
-4.19273948669433594 60.2516746520996094 29.1655101776123047
-19.1796913146972656 -40.7906112670898438 22.5081691741943359
-5.43541288375854492 -41.6634407043457031 -27.4705066680908203
-5.55471611022949219 120.866157531738281 -25.8810787200927734
8.13624954223632812 34.5762939453125 26.9403896331787109
-28.8944110870361328 20.8969345092773438 8.06764125823974609
-9.51008319854736328 38.8139495849609375 28.6444740295410156
10.1117877960205078 138.3887939453125 2.03826189041137695
13.2500581741333008 -108.641571044921875 -16.9830989837646484
8.25830173492431641 138.396713256835938 -6.70767354965209961
-13.6741580963134766 -152.441741943359375 -0.361885130405426025
16.2763099670410156 -73.2841415405273438 20.3579025268554688
16.7205181121826172 -14.7866411209106445 23.2316036224365234
-31.3318805694580078 36.4169921875 -0.0954462736845016479
-17.985626220703125 -54.0149879455566406 22.6451873779296875
10.4816017150878906 -32.8376579284667969 -26.9991950988769531
22.9873390197753906 -2.46843814849853516 -18.6073875427246094
-13.2218551635742188 -84.444091796875 26.0754871368408203
5.34131669998168945 -48.5777435302734375 24.8258552551269531
-3.19494175910949707 -38.0395736694335938 -27.8887214660644531
-23.9896259307861328 37.140350341796875 -16.7854537963867188
1.0357062816619873 -153.403594970703125 10.6200523376464844
24.978790283203125 24.6738834381103516 19.6863861083984375
15.8736162185668945 -20.3460330963134766 -24.5729827880859375
29.6659164428710938 -19.1901359558105469 -2.75931572914123535
5.11097478866577148 125.943359375 23.9131698608398438
-31.5921669006347656 37.1411323547363281 -1.17795777320861816
-30.5321273803710938 -15.936335563659668 0.703977644443511963
-26.5873165130615234 129.910079956054688 -7.85043048858642578
-15.6711139678955078 -150.88824462890625 6.23304843902587891
-9.28868007659912109 -117.235397338867188 -15.7268896102905273
-19.8668251037597656 126.682754516601562 19.0844650268554688
-2.66169118881225586 60.7545585632324219 -28.0260238647460938
29.6283607482910156 39.6488265991210938 -5.00027084350585938
6.46938896179199219 -2.0976254940032959 26.1640224456787109
18.6810760498046875 85.2504730224609375 23.85345458984375
-0.479523330926895142 134.5079345703125 -17.9621696472167969
-28.5653285980224609 125.026473999023438 -3.10192966461181641
5.7032170295715332 92.1038894653320312 27.3791999816894531
14.2431468963623047 130.613571166992188 18.3026008605957031
-16.5611362457275391 33.1597709655761719 24.7393722534179688
-23.0791301727294922 86.6854476928710938 -18.3654117584228516
-14.1311016082763672 -68.789215087890625 -22.5747776031494141
12.8540678024291992 -54.7821426391601562 22.8470497131347656
5.0202946662902832 138.293716430664062 -6.57636022567749023
28.0700702667236328 -63.6660003662109375 -0.496930330991744995
-5.81852054595947266 -151.424118041992188 -13.6399364471435547
-0.411621630191802979 -29.9371509552001953 27.1900291442871094
-22.2735328674316406 -63.0541763305664062 -17.3077182769775391
13.1012744903564453 75.718719482421875 -26.7367916107177734
-24.3871688842773438 66.55682373046875 16.6551475524902344
1.93000483512878418 -23.3168811798095703 27.0585441589355469
-1.50142836570739746 10.0081338882446289 -28.5683631896972656
26.21612548828125 104.415557861328125 -13.4977588653564453
-8.96603584289550781 118.6075439453125 -24.9869346618652344
12.6792573928833008 121.139381408691406 -27.1091346740722656
9.59896183013916016 137.336639404296875 -11.7068300247192383
-4.9379429817199707 137.118606567382812 12.0810413360595703
26.3604831695556641 128.869094848632812 16.4699440002441406
0.969245433807373047 137.441162109375 10.4075746536254883
-11.0685911178588867 -2.76927399635314941 28.0767364501953125
-31.4208736419677734 7.52316951751708984 -3.67693686485290527
-11.1975688934326172 72.1502838134765625 -25.3399944305419922
-11.4861660003662109 -18.3660259246826172 -25.7845897674560547
-11.0631771087646484 -117.340957641601562 15.2089376449584961
-13.2706890106201172 39.0981292724609375 -25.2253684997558594
-29.5251102447509766 121.948066711425781 -10.3939361572265625
-27.5361309051513672 -53.9675216674804688 -11.4340133666992188
-3.53502225875854492 54.1195831298828125 29.0790138244628906
26.3931255340576172 -105.649406433105469 14.8754949569702148
13.3617534637451172 -94.1173019409179688 -24.6192550659179688
21.2116584777832031 5.17141294479370117 -20.3569431304931641
-26.1667346954345703 9.07150745391845703 14.5996723175048828
-25.6949920654296875 131.729751586914062 -9.11767768859863281
27.4023933410644531 -34.65484619140625 15.1414928436279297
-20.9429740905761719 76.4105758666992188 -20.1857776641845703
-29.7887763977050781 -66.0803375244140625 7.51308107376098633
-18.4144229888916016 41.7599411010742188 -21.1034126281738281
-15.1358461380004883 -89.0485763549804688 25.2925338745117188
-29.7385330200195312 46.3808670043945312 2.17874717712402344
20.7343349456787109 115.964935302734375 22.507720947265625
-20.7716045379638672 131.424896240234375 14.1167917251586914
22.9593448638916016 40.5926704406738281 -18.8035640716552734
9.86805820465087891 -63.4862632751464844 23.4866466522216797
16.2228298187255859 -34.9957313537597656 22.6592388153076172
5.5327606201171875 -81.2538604736328125 24.3172035217285156
27.2402019500732422 -100.858222961425781 5.16002225875854492
