ply
format ascii 1.0
element vertex 787
comment vertices
property float x
property float y
property float z
end_header
-27.0409660339355469 70.687591552734375 14.1137170791625977
-29.7801570892333984 79.208526611328125 7.4519963264465332
-37.9798126220703125 -43.9143218994140625 33.2691917419433594
-8.297515869140625 72.7104949951171875 43.7548446655273438
-2.32428860664367676 -9.36620998382568359 -58.8546257019042969
3.8762824535369873 -139.284530639648438 -26.3375816345214844
-3.66921377182006836 147.156814575195312 30.9840450286865234
-36.2184486389160156 98.6313552856445312 -5.73847484588623047
-13.4156293869018555 121.606620788574219 33.0575485229492188
-0.0842145010828971863 -90.0933837890625 79.436126708984375
-28.8650245666503906 37.4739189147949219 -56.6490631103515625
15.8596506118774414 -153.125091552734375 50.2344284057617188
30.0552864074707031 -118.680412292480469 -51.6885910034179688
5.8002772331237793 190.920150756835938 -35.7575111389160156
-18.7935771942138672 -28.6070404052734375 49.7438316345214844
-0.507139980792999268 14.8386001586914062 -63.3331184387207031
-15.0994892120361328 139.665130615234375 -37.3316497802734375
2.26322317123413086 -157.521286010742188 -54.1747970581054688
-15.1164798736572266 -5.53719806671142578 -57.5860671997070312
-4.22944974899291992 -118.124671936035156 -72.2826385498046875
-6.67871332168579102 46.1343269348144531 51.8117218017578125
29.6480522155761719 -0.506599724292755127 32.1666755676269531
-30.2181186676025391 145.238327026367188 -25.2880706787109375
44.56597900390625 -15.1658773422241211 -10.5374269485473633
8.11911201477050781 -69.4714279174804688 61.6216468811035156
-11.7829856872558594 125.283363342285156 16.5509243011474609
30.9363842010498047 -115.563262939453125 4.18314361572265625
37.1552238464355469 8.75460052490234375 -23.7134647369384766
-27.8006248474121094 180.1876220703125 -41.0836753845214844
1.01723849773406982 -26.1123409271240234 -58.8562774658203125
28.1697025299072266 261.886505126953125 18.9849128723144531
-0.0940982997417449951 -93.6619110107421875 73.3526763916015625
-32.0486602783203125 -117.008697509765625 66.6361618041992188
46.8007392883300781 -127.004768371582031 27.1889705657958984
-24.1608314514160156 149.4276123046875 -41.6977272033691406
5.96014738082885742 -82.8299102783203125 -60.2943038940429688
-1.6209794282913208 267.226043701171875 47.193359375
34.8092575073242188 252.954452514648438 20.5044841766357422
-36.121551513671875 -160.378158569335938 -6.09315919876098633
-30.5885181427001953 140.7755126953125 -26.8160152435302734
34.4661445617675781 19.7149581909179688 29.96990966796875
-11.7002382278442383 246.509841918945312 5.96770477294921875
-17.2468509674072266 239.217880249023438 -55.86767578125
-19.4092044830322266 270.569732666015625 -6.76108741760253906
-5.20731210708618164 -56.536407470703125 54.6263313293457031
19.4474697113037109 62.6556129455566406 -31.365509033203125
-21.7350006103515625 -49.3162574768066406 -66.2446823120117188
4.80159425735473633 -125.430000305175781 -51.1667594909667969
-0.669467329978942871 106.996490478515625 22.3471012115478516
23.2467937469482422 -22.0263214111328125 -42.9543609619140625
6.39251899719238281 -150.192367553710938 59.2262001037597656
-2.41837763786315918 -39.8752403259277344 56.9288864135742188
-41.809234619140625 -112.663398742675781 -19.4998626708984375
-20.4035530090332031 -9.53391075134277344 -56.1949462890625
-8.10355186462402344 56.93194580078125 52.2925224304199219
28.0349388122558594 -164.872634887695312 10.9944486618041992
-27.6065025329589844 109.106391906738281 7.36247825622558594
1.6073603630065918 -88.362335205078125 70.5945205688476562
-3.68283224105834961 100.94805908203125 -38.3650588989257812
3.21287369728088379 -54.7645378112792969 -56.2409210205078125
-9.25696372985839844 9.38745784759521484 62.6802940368652344
58.7479972839355469 -119.240814208984375 34.2502326965332031
-2.29340028762817383 98.5431900024414062 34.9143562316894531
16.4052619934082031 134.910797119140625 -11.1222124099731445
63.516632080078125 -98.687347412109375 32.1361045837402344
41.971466064453125 -101.605522155761719 36.6145744323730469
39.3615798950195312 -120.60577392578125 -29.8365287780761719
-20.0205535888671875 53.519134521484375 53.9023513793945312
-23.5998077392578125 187.226699829101562 -17.0063438415527344
17.6401386260986328 18.7764186859130859 -48.2557868957519531
36.3343963623046875 -14.134516716003418 -9.03122901916503906
-5.20479965209960938 -6.46166133880615234 -53.4778785705566406
-22.3028812408447266 200.150222778320312 -33.2799148559570312
-6.91669034957885742 109.852058410644531 24.4056205749511719
13.0952615737915039 78.921600341796875 -42.8214263916015625
27.0344715118408203 76.6672210693359375 25.9824771881103516
-14.3863849639892578 235.97088623046875 3.31857967376708984
-28.4374713897705078 -119.278495788574219 -45.0898246765136719
0.813813269138336182 -149.3424072265625 54.775146484375
-27.5315361022949219 -155.910400390625 39.7676544189453125
-19.4416580200195312 223.018814086914062 -29.7628593444824219
-0.899147450923919678 14.9467525482177734 -56.2560997009277344
-19.3945465087890625 -52.2632408142089844 -61.6601829528808594
44.9842109680175781 -81.8048553466796875 13.4050788879394531
22.4143905639648438 3.06024456024169922 35.2999458312988281
32.0293121337890625 -83.879730224609375 54.1027450561523438
18.8180179595947266 91.0639877319335938 -16.669281005859375
12.2009620666503906 -138.829833984375 36.8081703186035156
-22.9122714996337891 198.597366333007812 -7.84904050827026367
-26.7293930053710938 106.755516052246094 -25.7087001800537109
-36.3880348205566406 -142.296066284179688 53.0247039794921875
-42.4964218139648438 -69.6040878295898438 -10.7976226806640625
-21.6146030426025391 189.3232421875 -25.4602813720703125
8.27245712280273438 218.006698608398438 22.7113037109375
54.1734161376953125 -133.49774169921875 15.678889274597168
5.51511526107788086 -27.8839778900146484 -55.1676292419433594
26.9010772705078125 -9.48486709594726562 35.0705604553222656
-41.2938652038574219 26.9390983581542969 -2.56653118133544922
18.8316001892089844 162.755661010742188 10.7913475036621094
-38.2544784545898438 -132.7578125 28.4753837585449219
-21.7701282501220703 17.3405742645263672 -47.8481941223144531
-17.7908725738525391 -140.4251708984375 5.46807527542114258
-0.398323595523834229 13.5809459686279297 43.7142105102539062
-29.9881744384765625 -103.960357666015625 -80.4081954956054688
22.10211181640625 -1.66900110244750977 46.3221244812011719
-7.36813163757324219 -139.894241333007812 46.6908531188964844
-25.4948825836181641 -6.26914453506469727 -29.9315395355224609
14.1345109939575195 202.172286987304688 17.6610221862792969
40.1893081665039062 -140.611236572265625 20.0684833526611328
17.5272960662841797 -44.1793212890625 48.7773590087890625
-25.9531822204589844 60.0372772216796875 -35.0211715698242188
9.33231258392333984 -17.8231792449951172 -57.3361434936523438
6.64202594757080078 -135.003860473632812 79.2759475708007812
0.0973901748657226562 -46.3578605651855469 66.4270477294921875
7.88704490661621094 -159.490280151367188 -55.7022438049316406
3.20013594627380371 90.41845703125 -39.042938232421875
-22.6196346282958984 249.29742431640625 -44.1784629821777344
48.2592620849609375 -55.6984291076660156 15.2053585052490234
-19.4440422058105469 -145.2618408203125 -24.6308612823486328
-8.20206546783447266 -20.107391357421875 -58.008026123046875
-15.7392978668212891 93.15557861328125 37.8771095275878906
-32.7873725891113281 13.2641324996948242 27.3797035217285156
26.6858768463134766 245.673233032226562 -1.38239288330078125
13.0235738754272461 128.405258178710938 -20.4472751617431641
-5.02760696411132812 247.48443603515625 9.53935527801513672
16.5952663421630859 -156.60162353515625 -20.8802280426025391
-17.4529514312744141 4.08161354064941406 -54.5268821716308594
36.1898422241210938 -29.1877555847167969 18.8931732177734375
-9.44119644165039062 -34.9239158630371094 -58.0603561401367188
-5.98965597152709961 -45.3272972106933594 -65.7621383666992188
27.5586643218994141 -147.252777099609375 -16.338836669921875
0.818431437015533447 173.25848388671875 16.3604545593261719
7.07902956008911133 -43.2117881774902344 -60.640106201171875
-26.4892673492431641 179.765975952148438 -1.07326710224151611
44.2327499389648438 -68.0952224731445312 -5.96266889572143555
-1.97295141220092773 61.8558502197265625 38.7686805725097656
-29.3418998718261719 -160.857559204101562 27.7866840362548828
4.46274614334106445 222.290908813476562 22.2483139038085938
2.97159767150878906 -227.937759399414062 4.94417095184326172
9.12268829345703125 185.6463623046875 -17.3627948760986328
-13.059138298034668 -116.659858703613281 -63.3590660095214844
-0.381273150444030762 -159.706527709960938 14.7253007888793945
-0.885654151439666748 29.9872226715087891 -58.7041053771972656
7.35665750503540039 -78.173004150390625 61.6047248840332031
-16.1419200897216797 -29.7439193725585938 -57.7157478332519531
-6.79912805557250977 -68.6078948974609375 -68.5538864135742188
33.8578987121582031 30.5719261169433594 26.8047561645507812
-32.0267219543457031 -86.8039779663085938 -94.8839492797851562
-20.8062152862548828 32.3287887573242188 -58.1604728698730469
14.9092817306518555 131.44580078125 32.9753532409667969
-22.7820816040039062 -140.501693725585938 67.207275390625
54.8818626403808594 -68.5354766845703125 -20.2864913940429688
33.238922119140625 -74.0407180786132812 16.3381538391113281
-25.4656028747558594 187.6490478515625 -1.08522117137908936
21.1228981018066406 -144.740615844726562 29.8863983154296875
16.0368747711181641 96.6775283813476562 -32.7748374938964844
21.6933307647705078 -3.09798526763916016 -27.1163215637207031
52.8584938049316406 -99.2426223754882812 -19.9929046630859375
26.4196834564208984 -135.0594482421875 66.1789093017578125
51.5368576049804688 -20.5168304443359375 -21.5589179992675781
-6.80487155914306641 147.968399047851562 38.0643577575683594
-12.0195636749267578 120.162612915039062 -38.1500053405761719
-32.6962203979492188 -152.489303588867188 -27.4252052307128906
-2.69292402267456055 -152.97296142578125 33.0104827880859375
-44.3026504516601562 -132.565780639648438 -4.40930795669555664
12.9066410064697266 -145.898529052734375 -38.2094192504882812
-3.17067408561706543 -106.502738952636719 56.5690269470214844
-32.5235061645507812 60.112335205078125 13.7112808227539062
-6.97873115539550781 41.8777618408203125 40.9657020568847656
-6.29577255249023438 -160.035385131835938 -65.1259002685546875
2.77877593040466309 -150.177032470703125 -57.4328422546386719
0.566641449928283691 -85.0316619873046875 55.6233673095703125
-38.3550453186035156 14.5559968948364258 25.7630100250244141
23.9813919067382812 -46.9244956970214844 39.4518089294433594
-26.8636608123779297 -5.31687498092651367 47.2776298522949219
-18.2837009429931641 253.240463256835938 19.9104595184326172
-25.4367771148681641 -36.1937217712402344 -80.022796630859375
-17.3329200744628906 -147.4752197265625 -6.09964084625244141
-25.8049278259277344 114.628074645996094 -47.6216545104980469
3.37150835990905762 -39.6435394287109375 -66.6257705688476562
-31.5142116546630859 -127.172592163085938 -53.6938247680664062
22.9196681976318359 -125.033493041992188 -67.5224685668945312
-45.0392990112304688 -133.802658081054688 -9.26126384735107422
-1.21284723281860352 -161.69500732421875 -55.5227241516113281
-31.3452625274658203 -18.4982986450195312 46.4575347900390625
-14.8240346908569336 -23.5899028778076172 36.6152000427246094
25.3129768371582031 -128.932327270507812 62.9378433227539062
-31.1611442565917969 -112.955459594726562 64.9476699829101562
41.7110137939453125 1.5199509859085083 39.5799827575683594
-34.1977882385253906 70.0784454345703125 10.9526157379150391
-11.2693138122558594 -13.0486955642700195 -60.8548698425292969
-5.94462394714355469 -126.902008056640625 -77.581939697265625
-38.0553855895996094 -56.1880645751953125 29.3198966979980469
-28.1883506774902344 165.303756713867188 -2.03056931495666504
63.40283203125 -131.576156616210938 6.11462163925170898
-9.85709571838378906 45.6732940673828125 35.1419181823730469
-7.25947999954223633 46.2986488342285156 49.408538818359375
-6.41788387298583984 152.8514404296875 36.5824928283691406
17.4083290100097656 186.865386962890625 10.0217018127441406
39.2100372314453125 25.1069831848144531 31.0869617462158203
-8.73902225494384766 -53.1116714477539062 -66.2499923706054688
2.51261687278747559 -112.378105163574219 -84.741790771484375
74.7917709350585938 -115.783905029296875 41.2436103820800781
-27.2529220581054688 -154.589996337890625 22.4515972137451172
-32.2631416320800781 55.0913238525390625 14.6299304962158203
-9.29798984527587891 48.4332199096679688 -53.1543350219726562
23.3221397399902344 -0.673706531524658203 -39.0901908874511719
31.1204738616943359 -152.255813598632812 27.7765369415283203
3.47700214385986328 -235.851669311523438 14.949005126953125
14.3369760513305664 220.58514404296875 12.0497770309448242
23.3515110015869141 -70.8767242431640625 -53.130859375
-8.52014446258544922 70.4906845092773438 22.7959804534912109
-13.7019023895263672 134.99359130859375 -40.7900733947753906
-36.39404296875 38.3608016967773438 10.0046892166137695
-33.8790855407714844 123.250625610351562 -42.0237770080566406
-26.1516742706298828 -144.846466064453125 -87.24822998046875
-5.58459663391113281 -152.18267822265625 -40.2391014099121094
18.9682331085205078 -159.639480590820312 39.1265869140625
-31.5891895294189453 -141.684600830078125 -18.245452880859375
-25.1007633209228516 140.617416381835938 -20.0257244110107422
73.9954605102539062 -129.469985961914062 35.5978584289550781
-6.67054510116577148 -26.0970268249511719 67.7956619262695312
-9.95042324066162109 166.40167236328125 23.4902076721191406
-5.24778175354003906 -162.308303833007812 32.6132125854492188
0.799723565578460693 -61.501129150390625 -66.701202392578125
16.5730686187744141 131.919509887695312 30.2229251861572266
31.6261863708496094 0.628035247325897217 -1.39968419075012207
26.610992431640625 -49.5198135375976562 17.3354454040527344
31.9927520751953125 -40.5812911987304688 -28.8246173858642578
-26.3299827575683594 -118.606269836425781 -90.0699081420898438
9.04449748992919922 -148.254318237304688 -74.0133438110351562
-12.4083852767944336 5.66984224319458008 49.69183349609375
-15.7382011413574219 -160.019302368164062 -4.79482316970825195
65.101043701171875 -70.6339569091796875 38.1793670654296875
13.7109575271606445 189.922866821289062 21.8141098022460938
-27.2541847229003906 60.7475852966308594 16.1240463256835938
13.9251651763916016 -145.9656982421875 53.3464279174804688
20.1450290679931641 251.553512573242188 -7.01221752166748047
-25.1909275054931641 141.579757690429688 -42.0839614868164062
-32.4234733581542969 81.352935791015625 -13.4464426040649414
15.7954616546630859 251.942062377929688 -18.5422325134277344
63.4291915893554688 -121.024215698242188 -4.57683610916137695
-12.6068849563598633 61.4402008056640625 56.1338539123535156
21.0992908477783203 -14.541926383972168 -29.2581214904785156
14.4794301986694336 -28.631927490234375 53.2142601013183594
-4.55722522735595703 -92.1575698852539062 81.6033859252929688
-3.31685543060302734 120.06134033203125 30.0205364227294922
5.4663543701171875 -116.22894287109375 -64.2305526733398438
-34.7651100158691406 -158.411529541015625 -43.5060997009277344
0.0744058713316917419 -139.871734619140625 -18.4178981781005859
18.1262397766113281 -1.55140161514282227 -49.3586883544921875
-7.3754429817199707 -132.823974609375 42.0121040344238281
-4.32491397857666016 27.2447566986083984 36.1135520935058594
3.81603646278381348 -214.895889282226562 5.00580453872680664
33.1936988830566406 34.3799095153808594 -3.14798355102539062
-0.555794835090637207 -149.16485595703125 -18.9495811462402344
73.4188766479492188 -117.253387451171875 45.6622886657714844
-7.11890792846679688 111.373275756835938 45.2921180725097656
-26.6134967803955078 -157.098358154296875 -41.5040054321289062
43.8414382934570312 23.5119266510009766 30.52410888671875
1.1621551513671875 -21.8093242645263672 -54.2814712524414062
37.3104896545410156 16.0956802368164062 -11.9656229019165039
-42.0498771667480469 -9.51201725006103516 -6.47659206390380859
-20.5483913421630859 29.3216819763183594 41.5311164855957031
-13.6539840698242188 -134.718612670898438 54.4715309143066406
28.7737140655517578 42.5870513916015625 -0.0447075702250003815
-36.0038223266601562 33.1117591857910156 -9.48380661010742188
56.7384796142578125 -142.046630859375 39.1520462036132812
59.6906661987304688 -123.084251403808594 36.3474464416503906
20.2328567504882812 11.0846023559570312 35.2214279174804688
-37.5858268737792969 69.0660400390625 -30.6652507781982422
-7.71334743499755859 -145.217666625976562 33.0608596801757812
40.6238288879394531 -46.7995452880859375 -11.8222064971923828
11.21160888671875 143.913009643554688 -34.9186286926269531
-9.22001838684082031 -156.568466186523438 -6.4356989860534668
27.3252925872802734 -145.2796630859375 30.5043926239013672
28.1360263824462891 -34.9369544982910156 35.8319053649902344
-4.7937617301940918 -89.7845535278320312 83.0208358764648438
-0.653128325939178467 -43.2861518859863281 59.6369705200195312
-6.24886274337768555 232.40533447265625 -27.1509895324707031
24.8380718231201172 -133.723236083984375 -61.729339599609375
-16.7704448699951172 -25.5874843597412109 43.1277923583984375
24.2291889190673828 -84.9232940673828125 -35.8025016784667969
-8.60387897491455078 178.539886474609375 24.0359477996826172
19.9644680023193359 -4.53472423553466797 36.5995101928710938
-8.15774631500244141 47.6420211791992188 -42.7024040222167969
61.4868965148925781 -54.9993362426757812 18.3744068145751953
46.2948989868164062 -5.13655185699462891 18.0511856079101562
-20.1342716217041016 131.843292236328125 11.4959907531738281
19.8819427490234375 118.801589965820312 25.6431217193603516
35.2105941772460938 -146.809906005859375 47.1003341674804688
6.28435993194580078 145.220382690429688 -32.3322601318359375
-19.9899139404296875 91.0203857421875 -44.982086181640625
-36.5441780090332031 -132.249191284179688 65.0033416748046875
-9.244873046875 -15.7838039398193359 -58.3288536071777344
62.6375656127929688 -54.457977294921875 38.8792991638183594
-37.4955024719238281 -100.585029602050781 28.7113590240478516
1.10352122783660889 -62.7070541381835938 -71.251129150390625
-19.2614498138427734 87.166015625 -43.1485977172851562
-7.44246673583984375 17.2553176879882812 -54.829132080078125
1.38459360599517822 -221.350799560546875 15.0360879898071289
-35.6239433288574219 7.69968700408935547 31.5661220550537109
-31.5257396697998047 101.562965393066406 7.54825639724731445
-4.66846847534179688 187.413894653320312 -36.0130577087402344
3.31477642059326172 -72.7602996826171875 -66.8935623168945312
-22.0561656951904297 -122.667533874511719 -67.5169601440429688
-4.28986597061157227 -188.47869873046875 6.40044212341308594
-11.8255128860473633 21.8840827941894531 25.3879241943359375
-3.56062531471252441 -100.514122009277344 77.428955078125
18.458282470703125 -19.4366970062255859 -51.6308174133300781
-18.1458892822265625 -138.616775512695312 -51.8628082275390625
52.8583412170410156 -78.2006301879882812 -21.7319984436035156
24.8538932800292969 -155.929473876953125 7.97162771224975586
-19.9440517425537109 81.7108917236328125 21.1718902587890625
-18.1500148773193359 -75.6418838500976562 51.6413688659667969
-10.7735195159912109 25.5492820739746094 25.9885826110839844
-14.3879785537719727 37.8245849609375 42.9472503662109375
-27.5865516662597656 -108.964569091796875 -92.52813720703125
-12.7149791717529297 -140.3065185546875 55.138946533203125
62.2470016479492188 -65.077850341796875 25.4672069549560547
-10.5937309265136719 111.408027648925781 23.4611701965332031
-24.1739482879638672 113.934562683105469 12.0649967193603516
21.5228843688964844 135.466400146484375 9.57409381866455078
35.9741134643554688 -16.0334548950195312 -24.9501514434814453
-27.8316802978515625 -8.15440559387207031 -42.236846923828125
26.7450046539306641 -137.411773681640625 66.9136734008789062
17.7415294647216797 136.02301025390625 20.7058887481689453
-34.6281967163085938 -117.392059326171875 62.7935867309570312
33.4837455749511719 -8.91246414184570312 19.8208904266357422
-34.36749267578125 112.236541748046875 -6.96504735946655273
-24.9239234924316406 96.7209243774414062 16.0657444000244141
-20.2454090118408203 51.6896553039550781 -31.8926372528076172
-24.1242427825927734 90.27178955078125 10.6934013366699219
-1.42886042594909668 -109.3807373046875 49.6268081665039062
-8.55258464813232422 -109.15594482421875 38.1923065185546875
40.5402488708496094 60.410064697265625 24.15704345703125
-40.3681640625 -126.159919738769531 41.203155517578125
-19.1250076293945312 -147.718017578125 -1.59373962879180908
-32.1826705932617188 -125.610710144042969 -101.224235534667969
4.50258588790893555 -151.827011108398438 9.50496578216552734
56.6108360290527344 -53.8019027709960938 27.5617046356201172
22.9827518463134766 -128.314483642578125 -67.4379730224609375
-32.3596725463867188 63.2555656433105469 -17.4763164520263672
16.1479969024658203 -7.03447484970092773 47.8732490539550781
-24.7930755615234375 117.944877624511719 13.8421049118041992
62.6668663024902344 -95.8866653442382812 24.5710544586181641
33.3364982604980469 -123.925117492675781 48.2710914611816406
-8.85492610931396484 -139.277633666992188 -11.6452627182006836
46.6074028015136719 -31.01470947265625 -8.77437496185302734
11.0452671051025391 49.8889350891113281 37.846405029296875
-23.3664436340332031 135.983261108398438 11.0258798599243164
51.5390434265136719 -125.213584899902344 -6.2284245491027832
6.10262680053710938 -86.4272232055664062 -82.3093338012695312
4.68809318542480469 -67.0755844116210938 -77.5465087890625
1.14050161838531494 -140.155776977539062 -76.0205001831054688
-14.8314409255981445 -24.6115093231201172 -59.2166748046875
39.2247810363769531 -65.0000381469726562 -6.80692195892333984
-23.7099456787109375 7.96211957931518555 -68.7707977294921875
-4.57969379425048828 181.633270263671875 -31.7221794128417969
0.655745446681976318 -110.3758544921875 61.6062240600585938
-5.77857351303100586 -69.9536666870117188 68.3417816162109375
18.7059268951416016 -140.555252075195312 62.3208847045898438
-3.27714705467224121 -114.247077941894531 -75.7211227416992188
-6.73907470703125 208.668807983398438 9.88232612609863281
-2.60251617431640625 -174.699020385742188 0.842385709285736084
-24.2347431182861328 -99.55096435546875 65.9996337890625
-0.598235070705413818 35.3443450927734375 29.9384918212890625
21.5726375579833984 -115.580596923828125 -69.9592132568359375
24.2870368957519531 251.1461181640625 5.30015945434570312
-3.92952322959899902 223.977447509765625 23.2930259704589844
2.20501589775085449 270.087066650390625 45.4538116455078125
-7.02892303466796875 65.3068313598632812 28.8001499176025391
25.4207611083984375 -42.8934249877929688 -30.9270496368408203
4.32083272933959961 80.5240554809570312 39.4548149108886719
28.4036598205566406 88.5876693725585938 14.2129955291748047
40.2048530578613281 -131.30303955078125 -31.7942104339599609
-2.92416834831237793 -119.242439270019531 42.8751792907714844
23.420684814453125 -152.493209838867188 36.7651290893554688
-37.3857574462890625 -19.0089340209960938 6.44945192337036133
13.6118688583374023 -123.519371032714844 -72.601226806640625
20.3699569702148438 79.7906570434570312 30.8729152679443359
-13.8052301406860352 -101.091270446777344 -65.3705825805664062
9.15015602111816406 250.096542358398438 -13.8056249618530273
-12.911320686340332 23.5399589538574219 49.4890975952148438
33.9129524230957031 -21.8033485412597656 -4.49760961532592773
-9.40005970001220703 246.80853271484375 -34.3773536682128906
44.7136268615722656 -79.5399017333984375 13.6561908721923828
-14.5357093811035156 -17.5592517852783203 -58.8806915283203125
54.2208671569824219 -78.0937957763671875 32.7160682678222656
-0.839225888252258301 -161.669219970703125 -56.2171173095703125
32.5910835266113281 -112.955673217773438 62.48486328125
-10.8818960189819336 73.1778564453125 -39.9676628112792969
-5.9993133544921875 -131.680801391601562 -7.12178802490234375
33.9361152648925781 -135.206695556640625 64.7851181030273438
-28.7075576782226562 -74.9058914184570312 -44.3080368041992188
-34.4942779541015625 144.480010986328125 -44.7681007385253906
-21.6321277618408203 98.2860107421875 11.6362533569335938
57.1258354187011719 -28.1268882751464844 37.870208740234375
31.6110591888427734 -13.5914220809936523 -1.22037363052368164
-28.5898990631103516 -144.68963623046875 -89.897796630859375
-7.18449974060058594 0.0646516531705856323 60.2549018859863281
-40.414642333984375 12.620448112487793 30.9397449493408203
15.3109521865844727 191.565948486328125 -4.05402469635009766
-41.46551513671875 -20.6129226684570312 -7.16778945922851562
-8.05837345123291016 113.727294921875 41.2664146423339844
55.2334632873535156 -125.32391357421875 -21.2640705108642578
28.7121868133544922 12.8618440628051758 2.10769009590148926
4.50219488143920898 -130.080368041992188 83.3741607666015625
15.9669675827026367 -159.701400756835938 40.2978324890136719
-19.8838405609130859 88.1810989379882812 13.6110944747924805
21.8047466278076172 -26.1170806884765625 47.2820320129394531
8.35758876800537109 -128.775558471679688 79.7573318481445312
36.2389984130859375 4.54389142990112305 -11.3367204666137695
-34.742584228515625 45.0011482238769531 -10.3389873504638672
20.8906173706054688 -160.08984375 52.117279052734375
-34.5129432678222656 -28.5130882263183594 45.9725685119628906
-10.0936765670776367 246.838134765625 -20.3264560699462891
38.8131294250488281 19.5950031280517578 -12.0481376647949219
-35.5165901184082031 138.907257080078125 -40.8127365112304688
30.8835334777832031 -14.6428098678588867 34.6438636779785156
30.47503662109375 -89.0567474365234375 12.7815799713134766
-7.51688861846923828 -44.0074806213378906 47.2724266052246094
62.1727027893066406 -129.687393188476562 30.1422061920166016
-35.6427459716796875 101.42242431640625 -8.04110622406005859
-28.3980426788330078 8.16641521453857422 45.1775627136230469
-37.896026611328125 -154.671859741210938 38.1500053405761719
17.6548442840576172 171.704513549804688 14.0252799987792969
3.99437952041625977 -141.677108764648438 -17.5913829803466797
49.8202056884765625 -147.804931640625 38.17724609375
-26.1364650726318359 186.750259399414062 -2.0507349967956543
42.2430458068847656 33.4441108703613281 -24.1897449493408203
-4.82428216934204102 4.04331350326538086 43.6229667663574219
-33.29595947265625 -142.068145751953125 -51.8162345886230469
0.839910209178924561 85.422515869140625 30.9658451080322266
-7.89985561370849609 24.3213233947753906 47.3077011108398438
24.1609687805175781 -15.4942951202392578 47.1227836608886719
-25.8245410919189453 -4.20728492736816406 -73.2672348022460938
30.3230228424072266 92.8334197998046875 -3.37156367301940918
-29.6994838714599609 -139.531967163085938 -84.5284347534179688
-5.62199544906616211 126.506645202636719 27.0590629577636719
36.507293701171875 -65.7108001708984375 16.4036941528320312
-40.1850547790527344 -103.775321960449219 15.5349893569946289
14.5982999801635742 185.908157348632812 -7.75798368453979492
-25.9637031555175781 160.798629760742188 2.11931014060974121
35.1465644836425781 -93.2911224365234375 40.6715660095214844
34.8304862976074219 -155.259048461914062 7.1587224006652832
-10.270838737487793 90.1781082153320312 50.7232322692871094
17.1684722900390625 75.2165069580078125 -27.9799995422363281
46.3140220642089844 -85.1027069091796875 12.9102678298950195
5.30477046966552734 2.37382984161376953 41.5815238952636719
-11.8781557083129883 -67.4106979370117188 35.36749267578125
-1.0589604377746582 -89.03564453125 44.9801216125488281
46.1805992126464844 22.2771053314208984 20.9328632354736328
31.1973133087158203 -69.6811599731445312 17.0540256500244141
15.1151952743530273 -30.5924358367919922 53.2031288146972656
-8.15484428405761719 -148.13775634765625 -34.6279335021972656
-16.2299995422363281 -105.031669616699219 52.1699714660644531
-5.61365175247192383 -137.621139526367188 -10.7565622329711914
-23.8228950500488281 -97.1748733520507812 65.3778457641601562
58.0994415283203125 -95.46832275390625 9.79738426208496094
20.1257839202880859 79.2694625854492188 -16.3656024932861328
-28.5357799530029297 -4.00360870361328125 -27.0017929077148438
22.8706836700439453 -100.876716613769531 -63.5455398559570312
-7.49980545043945312 -149.303924560546875 -70.15264892578125
-33.4299964904785156 -61.52142333984375 52.0771026611328125
-13.7468624114990234 200.970794677734375 -33.3307113647460938
28.2409343719482422 -39.7771110534667969 39.1510009765625
-19.8970279693603516 167.27923583984375 7.9122929573059082
31.3632774353027344 6.96364164352416992 -0.132362499833106995
25.4115409851074219 -66.6226959228515625 49.7160987854003906
-27.2202835083007812 169.903701782226562 -0.328974157571792603
-14.812957763671875 43.7696456909179688 41.2538223266601562
-7.26377630233764648 195.300399780273438 -33.99713134765625
-16.6059532165527344 152.338958740234375 -37.7390556335449219
12.2877578735351562 -112.899070739746094 73.7248382568359375
35.9923324584960938 -116.636161804199219 -31.3961067199707031
13.4929323196411133 1.08653938770294189 43.98004150390625
0.648658931255340576 -140.941940307617188 -48.4476280212402344
-21.3494777679443359 -22.6984310150146484 -62.8249664306640625
-8.569091796875 180.134765625 13.855224609375
-38.2631187438964844 -50.6724052429199219 3.79948306083679199
-3.4613652229309082 213.138778686523438 -39.0360755920410156
-19.1459808349609375 243.571258544921875 -2.90949749946594238
19.3433914184570312 -163.3681640625 47.7468986511230469
9.47565937042236328 192.046798706054688 26.2198257446289062
32.4886741638183594 -88.0489730834960938 -32.2639122009277344
-11.5961313247680664 228.569625854492188 -30.8480358123779297
14.0981731414794922 133.127578735351562 -27.6389751434326172
-5.50759315490722656 98.3123321533203125 19.5243663787841797
-5.2066650390625 28.7339763641357422 -59.9274711608886719
60.7672958374023438 -139.28533935546875 -4.16553831100463867
51.5908012390136719 -124.734931945800781 -2.93594789505004883
58.1163101196289062 -132.49554443359375 34.7395095825195312
34.8422775268554688 -149.119918823242188 4.20977210998535156
-6.138885498046875 -32.8955535888671875 -63.6244735717773438
-38.7631416320800781 -78.1426239013671875 15.658055305480957
-4.14522981643676758 -158.46734619140625 41.2867240905761719
26.9753742218017578 80.208251953125 -11.4277229309082031
-26.9487762451171875 -10.5327243804931641 41.351654052734375
66.7152481079101562 -108.613609313964844 9.23931694030761719
-2.68825221061706543 -72.1436614990234375 57.35894775390625
32.2358055114746094 -102.799797058105469 56.2179679870605469
27.9515514373779297 79.0177459716796875 -22.7242488861083984
14.1563873291015625 211.479751586914062 14.7013864517211914
25.7284755706787109 -40.2190132141113281 48.8441238403320312
-11.8258066177368164 -58.9665107727050781 33.8506660461425781
-9.17561626434326172 -33.8846168518066406 75.6135177612304688
-2.81813764572143555 -135.151885986328125 46.7065010070800781
18.6568260192871094 28.3050937652587891 36.6793136596679688
2.59929013252258301 -22.9791698455810547 50.0289497375488281
38.4787559509277344 18.4921531677246094 28.8031158447265625
-30.9486579895019531 16.7741069793701172 -61.1271820068359375
20.0888023376464844 245.632644653320312 0.894210219383239746
15.8918142318725586 187.694793701171875 -5.3299407958984375
27.2809047698974609 73.5068359375 -13.5253829956054688
-2.64383196830749512 -120.64923095703125 55.2398223876953125
57.7744102478027344 -131.18292236328125 11.1909751892089844
18.5443248748779297 113.420478820800781 -15.3617830276489258
-44.4541511535644531 -154.829132080078125 60.205810546875
3.28430557250976562 128.158355712890625 -34.9430809020996094
32.886322021484375 -125.892036437988281 60.57379150390625
-25.5263347625732422 119.047592163085938 -47.0880126953125
5.97295808792114258 -68.8753662109375 68.519012451171875
-17.3387050628662109 231.724075317382812 -32.3088874816894531
-22.4117774963378906 -120.020317077636719 67.835693359375
2.89351463317871094 -125.490486145019531 86.3740234375
-6.53375864028930664 -34.2659759521484375 -55.8312911987304688
-14.5583305358886719 26.0976638793945312 23.9514617919921875
-13.9482021331787109 125.808090209960938 -39.1101951599121094
-31.9977817535400391 11.4538326263427734 -38.7486000061035156
-30.7208099365234375 120.759597778320312 -49.9651031494140625
-36.6765632629394531 3.86711573600769043 7.84695339202880859
4.28494977951049805 -147.44281005859375 26.4590301513671875
-7.33776712417602539 31.4487209320068359 49.0373420715332031
-37.3400993347167969 62.1185111999511719 -34.7837486267089844
-42.0150184631347656 49.7157173156738281 12.6017513275146484
1.34944355487823486 203.167266845703125 13.6776790618896484
-16.5324325561523438 -162.059738159179688 38.4804534912109375
-8.62157440185546875 52.4895668029785156 26.0295467376708984
53.6236724853515625 -139.844818115234375 18.6147098541259766
-49.6412544250488281 261.276702880859375 -10.0789623260498047
49.5331764221191406 -100.976585388183594 11.0059185028076172
47.5981216430664062 -81.747344970703125 13.0299892425537109
5.20053243637084961 127.128776550292969 -36.0480690002441406
0.310560107231140137 98.5923843383789062 -38.023956298828125
-30.8424148559570312 -135.751205444335938 -10.4728460311889648
-0.600823760032653809 -83.7067642211914062 46.3859100341796875
2.34884285926818848 101.732696533203125 23.3316612243652344
1.5634157657623291 -139.161178588867188 56.3170967102050781
6.42672061920166016 -100.466621398925781 -72.1974945068359375
60.9834518432617188 -135.97235107421875 38.8780326843261719
-15.7797727584838867 225.67303466796875 -28.3215961456298828
40.8915634155273438 49.1589317321777344 -15.9552993774414062
21.4114265441894531 -44.9868392944335938 48.1552238464355469
-24.4434680938720703 49.497344970703125 -29.0139751434326172
19.4290828704833984 100.962799072265625 -14.7246274948120117
18.8266220092773438 -156.034255981445312 58.2629013061523438
31.7675151824951172 -130.426193237304688 44.5272979736328125
31.8132724761962891 -143.32269287109375 19.8520164489746094
39.6453857421875 -131.358489990234375 18.5291156768798828
-8.89857292175292969 81.8990631103515625 45.9596176147460938
-26.6221446990966797 40.1136817932128906 -55.7391510009765625
34.6286697387695312 14.4066753387451172 35.2206649780273438
-0.434093087911605835 114.966468811035156 34.31787109375
-33.4756202697753906 -140.097137451171875 -53.1365928649902344
2.13312625885009766 -204.643280029296875 3.03880405426025391
28.5149822235107422 65.6369857788085938 22.0276069641113281
-30.381500244140625 95.2772293090820312 15.728093147277832
-14.1829900741577148 259.87310791015625 24.8011875152587891
37.5339164733886719 -135.968246459960938 22.8733272552490234
43.7319908142089844 -122.811126708984375 -25.8286972045898438
4.28604507446289062 -162.807662963867188 -51.4890785217285156
-4.33505630493164062 218.585968017578125 18.1403560638427734
7.30712318420410156 -47.4011344909667969 58.9300422668457031
-38.9958610534667969 1.87503421306610107 -15.2702951431274414
-19.7761306762695312 239.2542724609375 26.9631748199462891
33.752105712890625 -84.6221694946289062 48.9091567993164062
33.8264884948730469 -148.171768188476562 6.74341869354248047
14.8252964019775391 95.362274169921875 -26.186676025390625
3.09973502159118652 -30.3921012878417969 -70.826995849609375
5.50130605697631836 -86.0197372436523438 -60.0876617431640625
17.9082908630371094 106.162857055664062 29.6426010131835938
31.4540481567382812 84.8436737060546875 -16.1544742584228516
-0.475745230913162231 162.034759521484375 15.2720117568969727
25.4470233917236328 -25.0544757843017578 41.267791748046875
-39.2131156921386719 -146.350189208984375 34.0174751281738281
-1.43324577808380127 252.384674072265625 -23.6620044708251953
-29.8292865753173828 -6.23338842391967773 41.5325393676757812
-20.7066059112548828 38.0304183959960938 -50.8496475219726562
29.6428623199462891 -50.565216064453125 20.6288414001464844
16.7275047302246094 112.361808776855469 -28.1868629455566406
-36.2917442321777344 -154.237030029296875 -62.5653839111328125
72.1621780395507812 -149.008132934570312 43.5273704528808594
41.0279006958007812 -91.998748779296875 14.323206901550293
-4.6322321891784668 244.517044067382812 22.3108730316162109
8.83214187622070312 174.705307006835938 28.5606746673583984
-7.63896608352661133 230.662857055664062 20.2348670959472656
-21.3072109222412109 -156.983108520507812 21.6682357788085938
-31.7636528015136719 78.9825439453125 -25.8002738952636719
-29.8570461273193359 109.802200317382812 -28.4924182891845703
5.42353391647338867 48.32305908203125 36.2755813598632812
48.6672019958496094 -48.2914199829101562 45.5768508911132812
-2.88380002975463867 94.8019180297851562 -39.3730430603027344
34.1506118774414062 -44.8326263427734375 41.7015762329101562
3.9269869327545166 -159.246963500976562 13.5515661239624023
15.0129175186157227 116.324256896972656 -29.9757289886474609
-5.37829399108886719 -70.4074783325195312 54.0259208679199219
-38.3906097412109375 -84.6868667602539062 17.3367137908935547
17.4955615997314453 145.22393798828125 24.0058364868164062
-32.3809394836425781 9.86341762542724609 -40.4239273071289062
22.9392662048339844 -145.575592041015625 57.9487762451171875
22.6825141906738281 44.3174858093261719 41.2708320617675781
4.21586179733276367 79.071197509765625 37.8707656860351562
-6.28501653671264648 182.02734375 -38.5043869018554688
2.53710579872131348 -25.8372516632080078 -69.9525527954101562
-27.8742103576660156 -113.622138977050781 -94.0664520263671875
-25.2540664672851562 -139.075363159179688 -13.5356206893920898
32.8949165344238281 243.024200439453125 15.6206684112548828
3.99492144584655762 -141.9442138671875 34.2529449462890625
-28.1534080505371094 31.5492496490478516 -23.4314823150634766
31.3954811096191406 79.2076263427734375 -0.71786874532699585
-22.9818191528320312 94.9008026123046875 10.9926176071166992
27.6297779083251953 -109.402275085449219 60.8777313232421875
24.2773399353027344 -148.930252075195312 -37.1309242248535156
18.3151168823242188 1.51161158084869385 -47.5509376525878906
35.4269256591796875 -145.017776489257812 -9.64592170715332031
-27.2707386016845703 -92.7909317016601562 -43.787506103515625
62.3523178100585938 -120.095321655273438 22.7215442657470703
-26.003814697265625 -148.730239868164062 -3.59470844268798828
-0.298351466655731201 185.882461547851562 -35.9008941650390625
12.4980716705322266 105.505279541015625 36.9153594970703125
2.02471256256103516 160.306732177734375 -30.0570831298828125
25.6410884857177734 79.3239898681640625 17.2457084655761719
-7.53630733489990234 19.2504005432128906 58.833740234375
11.4511661529541016 6.61880826950073242 43.5919685363769531
10.9113178253173828 168.031219482421875 -26.1555747985839844
7.88815546035766602 271.946929931640625 38.3948173522949219
12.9944028854370117 143.53741455078125 -18.0589981079101562
34.2341156005859375 -94.64208984375 46.6353569030761719
20.9131031036376953 -44.7667350769042969 48.03082275390625
27.5634002685546875 104.699745178222656 20.6875438690185547
3.79933977127075195 242.739761352539062 -27.9311275482177734
-32.5204391479492188 -94.08306884765625 -21.6663932800292969
24.8701972961425781 46.8310089111328125 11.3917236328125
30.7164783477783203 -75.2578582763671875 3.79943346977233887
15.8078947067260742 -17.7227077484130859 -56.9161911010742188
-26.6313686370849609 126.506980895996094 -44.7409515380859375
-3.50296926498413086 -96.5596466064453125 71.3749465942382812
52.9662246704101562 -47.0664176940917969 28.9303455352783203
50.164459228515625 -81.735595703125 -4.05217790603637695
-41.3231201171875 -161.196212768554688 -19.5485248565673828
-25.9812450408935547 64.0492095947265625 35.5920372009277344
3.06972861289978027 270.726837158203125 44.8041572570800781
-23.7292022705078125 155.197998046875 6.38357686996459961
25.9928112030029297 11.5460042953491211 14.0561275482177734
31.8227157592773438 -119.722724914550781 14.6743068695068359
-10.1974639892578125 29.6880073547363281 61.626861572265625
50.7583389282226562 -130.804733276367188 -23.4437770843505859
0.183402642607688904 -96.995697021484375 56.5944252014160156
27.3997707366943359 -15.5750255584716797 40.2354011535644531
-34.3883857727050781 76.3924102783203125 6.72769641876220703
10.1020822525024414 -137.0684814453125 -43.7663917541503906
46.2254257202148438 12.4988870620727539 31.6396827697753906
-4.24354887008666992 -57.7144393920898438 60.3901176452636719
28.6689548492431641 -29.6128940582275391 8.1133575439453125
55.968414306640625 -19.0084609985351562 25.2469139099121094
-28.8298225402832031 -127.006576538085938 -6.34303617477416992
-22.5266876220703125 243.1226806640625 -50.8443946838378906
-5.28995466232299805 -21.1043071746826172 58.2203445434570312
2.01844310760498047 -121.518852233886719 66.2613525390625
-27.3359470367431641 272.056549072265625 -6.85193681716918945
5.33608436584472656 149.945663452148438 -34.5681838989257812
-44.1845550537109375 -98.874786376953125 -6.86469888687133789
-24.405609130859375 -137.207763671875 -10.9209690093994141
-4.46329212188720703 -51.9356575012207031 63.1535758972167969
-20.177886962890625 243.60797119140625 -17.2576751708984375
-4.13423824310302734 -47.6396026611328125 -58.5707321166992188
27.1768856048583984 -85.0405502319335938 -40.0862350463867188
-21.387420654296875 239.783157348632812 -47.7389259338378906
30.1880455017089844 83.2548065185546875 14.4267940521240234
-29.7579154968261719 -12.9963216781616211 44.4699325561523438
42.013671875 -71.2589492797851562 15.0712270736694336
-30.1068382263183594 14.1632013320922852 -65.09674072265625
-19.7381114959716797 249.84600830078125 -22.0361499786376953
-33.8427848815917969 21.5178279876708984 28.8200359344482422
15.5191526412963867 -150.563674926757812 9.27952289581298828
-35.5025863647460938 46.0580406188964844 8.88830375671386719
-8.84004402160644531 69.9971160888671875 27.8275260925292969
-11.0683174133300781 -139.37158203125 -13.8525600433349609
-5.05129623413085938 -28.5006961822509766 70.8660430908203125
-30.0610942840576172 -152.719741821289062 2.78150415420532227
1.35223996639251709 231.987258911132812 -27.8721199035644531
32.2523384094238281 -144.542678833007812 13.1004838943481445
41.2264213562011719 47.1191825866699219 26.8776817321777344
-1.11370503902435303 223.559432983398438 -21.9710693359375
-8.38561820983886719 10.8275136947631836 -58.203887939453125
20.0480098724365234 53.1624679565429688 -32.2264060974121094
-29.4751148223876953 -67.43731689453125 -63.9542198181152344
-1.87064766883850098 158.20184326171875 -31.0797863006591797
3.16661906242370605 14.3864221572875977 40.4010047912597656
-9.88506507873535156 106.738975524902344 -49.5537147521972656
35.9224929809570312 -137.2325439453125 48.058837890625
29.7284927368164062 -29.1667022705078125 38.3364219665527344
12.8157644271850586 -114.399307250976562 73.6136398315429688
32.3275222778320312 -121.012092590332031 48.6267929077148438
20.6700553894042969 242.5657958984375 -16.7568359375
-43.3405189514160156 -104.552085876464844 -10.2943382263183594
51.7157707214355469 -9.03043174743652344 -20.5139064788818359
-6.97284126281738281 -15.3799591064453125 51.6666030883789062
-10.3181915283203125 -91.955841064453125 37.9157485961914062
24.1746559143066406 32.3494110107421875 15.6601238250732422
1.68321573734283447 -94.3450698852539062 -77.4172744750976562
-32.9561538696289062 17.4768638610839844 24.347503662109375
74.9003219604492188 -136.063262939453125 34.9379234313964844
29.6666584014892578 -107.407089233398438 -49.3663177490234375
-21.8958530426025391 56.1497039794921875 19.2444229125976562
14.0721712112426758 92.7292556762695312 27.1277790069580078
-3.54267168045043945 -151.14654541015625 -70.8758392333984375
13.8169765472412109 39.569061279296875 42.76849365234375
-31.0226707458496094 4.58807706832885742 -65.2051467895507812
-11.4640417098999023 122.135299682617188 33.1105804443359375
-32.7484016418457031 43.8836860656738281 -42.8194732666015625
-30.1427764892578125 270.484649658203125 0.677974998950958252
9.97907066345214844 -134.372756958007812 -63.1657562255859375
-20.8894996643066406 -147.772293090820312 -67.40850830078125
-38.0326271057128906 -106.120697021484375 41.5568008422851562
-9.25053596496582031 186.5880126953125 -37.8516845703125
-34.014404296875 150.096511840820312 -33.6809425354003906
23.9619083404541016 104.690284729003906 -6.8883519172668457
-36.0156517028808594 50.158294677734375 -31.3144874572753906
-16.0293006896972656 145.409927368164062 -34.1544876098632812
40.1766853332519531 -64.5403518676757812 -6.99135398864746094
17.7161064147949219 -33.0491065979003906 46.7525405883789062
-9.77672767639160156 213.45050048828125 -29.9526519775390625
-41.3576011657714844 -17.6152515411376953 2.70122098922729492
28.4146976470947266 -111.050376892089844 -42.6603775024414062
-3.06851053237915039 -92.8161849975585938 -64.4756622314453125
13.9382314682006836 -149.303024291992188 8.87937450408935547
66.2311325073242188 -144.97998046875 44.0702171325683594
63.9785842895507812 -97.24224853515625 -9.82851028442382812
-24.2049694061279297 -53.8449745178222656 -66.32904052734375
-5.2664642333984375 -107.784698486328125 -74.8926239013671875
-17.0336875915527344 -35.7151603698730469 45.33245849609375
38.0775833129882812 -93.8459930419921875 2.0436863899230957
1.84082269668579102 -62.5155296325683594 69.095062255859375
-18.3764820098876953 58.647216796875 53.249053955078125
-23.7878341674804688 -152.523666381835938 28.5976657867431641
10.3061408996582031 91.7876739501953125 -43.1781082153320312
17.6539134979248047 -154.655960083007812 36.4922943115234375
-38.6273612976074219 -1.86752068996429443 39.7568397521972656
14.7211723327636719 -31.6348876953125 46.4318351745605469
5.28630781173706055 274.72454833984375 -5.54712581634521484
25.9540557861328125 16.0946292877197266 34.7048683166503906
4.4043116569519043 -129.969833374023438 -88.5625228881835938
-18.0957603454589844 -152.592453002929688 48.449188232421875
-31.0668449401855469 119.288566589355469 -30.6471767425537109
-36.8267898559570312 79.2963790893554688 7.81686830520629883
1.65383899211883545 -157.626571655273438 -54.8599052429199219
-23.7167510986328125 103.862014770507812 -46.3700408935546875
9.72556686401367188 34.3381118774414062 36.6442298889160156
-25.8650398254394531 -161.691314697265625 32.4283218383789062
27.0316085815429688 83.5622329711914062 -13.2615766525268555
-28.1717262268066406 75.3861236572265625 -24.8431301116943359
-10.0918140411376953 20.6397743225097656 28.0239906311035156
0.721419692039489746 -29.3415355682373047 -59.3826217651367188
-15.2332038879394531 -91.41180419921875 48.5676422119140625
-7.56329250335693359 -18.1294879913330078 58.9183349609375
-35.4588851928710938 -37.8119964599609375 45.5206069946289062
-7.36762189865112305 229.029266357421875 6.60946893692016602
10.9590663909912109 -135.324020385742188 -60.4212417602539062
-2.81505131721496582 -41.9130783081054688 47.7979202270507812
39.9752235412597656 -155.007186889648438 -17.7326374053955078
-0.930088222026824951 45.820068359375 28.925506591796875
-15.1600074768066406 -156.595062255859375 -10.0304021835327148
11.9284648895263672 -147.77587890625 63.1689186096191406
29.0539913177490234 -49.9638938903808594 40.5315895080566406
-4.85079097747802734 -63.2088165283203125 51.4329071044921875
26.5976600646972656 88.7656631469726562 -9.73538780212402344
65.9610595703125 -115.915084838867188 -14.0187816619873047
4.87755537033081055 3.7716059684753418 36.4370193481445312
-24.9853801727294922 -158.576019287109375 -42.1366386413574219
-38.0861549377441406 -166.203598022460938 24.1600685119628906
-32.6438217163085938 50.3689994812011719 -28.1332302093505859
23.3137912750244141 253.302947998046875 12.8438920974731445
-5.91443777084350586 270.04095458984375 32.2367095947265625
-1.8686981201171875 109.572998046875 21.9929389953613281
41.9215660095214844 39.8349723815917969 -23.268096923828125
