ply
format ascii 1.0
element vertex 789
comment vertices
property float x
property float y
property float z
end_header
-109.70660400390625 79.9632186889648438 -28.2919216156005859
70.0332183837890625 202.7685546875 -43.2030258178710938
-56.1990280151367188 -189.201385498046875 66.3394622802734375
-80.6447372436523438 -89.1912155151367188 4.09761762619018555
50.2008285522460938 -39.5973892211914062 149.727554321289062
12.3961620330810547 177.904037475585938 117.974967956542969
-33.2659645080566406 -155.195770263671875 141.630935668945312
-1.1894078254699707 -205.529098510742188 13.7573814392089844
115.273078918457031 57.2097434997558594 -47.506195068359375
42.2117767333984375 174.2064208984375 104.257217407226562
-106.02471923828125 43.0056953430175781 25.8632545471191406
2.03387022018432617 227.519271850585938 -45.218780517578125
-16.2107353210449219 -77.518768310546875 179.729705810546875
-87.835845947265625 98.9520034790039062 -6.42964315414428711
131.033645629882812 -78.6371536254882812 -64.0922927856445312
42.5320205688476562 -79.2073898315429688 166.250106811523438
-92.9259185791015625 72.1296539306640625 38.2890777587890625
-34.9544792175292969 -79.913604736328125 173.711746215820312
-108.013778686523438 -15.3102197647094727 55.21112060546875
-23.3991222381591797 -111.801750183105469 152.692794799804688
-60.4029045104980469 -174.396896362304688 -58.2246475219726562
-106.801353454589844 -5.90030479431152344 72.0151748657226562
-74.3971023559570312 -120.354942321777344 157.62060546875
-59.7921981811523438 -173.662765502929688 -42.0336265563964844
-75.8845138549804688 64.2807998657226562 -47.3303260803222656
122.340568542480469 -119.427757263183594 -103.236030578613281
-21.8625335693359375 202.516311645507812 -109.268684387207031
96.027069091796875 -90.5245208740234375 -145.734573364257812
-47.2297592163085938 -77.1347427368164062 166.073654174804688
-57.1807098388671875 -114.682594299316406 -153.405731201171875
88.1829071044921875 133.134124755859375 50.4047698974609375
122.33123779296875 -36.2108993530273438 -79.0410842895507812
24.0157833099365234 72.7033233642578125 145.538619995117188
-33.9648704528808594 58.1495246887207031 131.816635131835938
-9.19667530059814453 -62.6819610595703125 159.734161376953125
-44.6998214721679688 -101.487228393554688 141.210342407226562
38.0228118896484375 -119.190841674804688 161.746810913085938
107.975921630859375 -56.9069938659667969 60.9231834411621094
-11.1724729537963867 192.850540161132812 101.486579895019531
0.241599366068840027 -123.548057556152344 -179.550888061523438
-47.790069580078125 -122.769485473632812 -161.462387084960938
-69.762237548828125 5.13148164749145508 92.25189208984375
125.832115173339844 -125.439582824707031 14.1784029006958008
43.4517478942871094 -85.47662353515625 165.290756225585938
96.6407241821289062 -197.63458251953125 31.9753227233886719
-46.97503662109375 -106.276382446289062 -159.794952392578125
-58.6501846313476562 204.330673217773438 88.009979248046875
104.875267028808594 -34.7635841369628906 75.9315185546875
-111.3746337890625 101.286300659179688 -28.3763961791992188
-112.727836608886719 1.63563001155853271 39.1560325622558594
64.8697433471679688 98.8782730102539062 -120.384346008300781
-28.3849582672119141 223.30322265625 49.6335868835449219
110.645950317382812 -184.163314819335938 44.8261680603027344
33.60443115234375 -10.6848602294921875 145.29876708984375
6.99718046188354492 -204.609390258789062 -42.9508399963378906
76.8792495727539062 -202.601791381835938 -83.5017242431640625
-26.7028007507324219 -45.7896766662597656 160.068115234375
35.9840126037597656 -46.3208045959472656 166.549652099609375
-12.7587671279907227 -204.972564697265625 -4.45354890823364258
-1.44427001476287842 -121.716026306152344 -176.346450805664062
-45.1669692993164062 152.9786376953125 -105.857955932617188
113.610977172851562 25.1010627746582031 -84.522979736328125
128.43011474609375 -91.2072982788085938 -20.6187210083007812
-4.86463594436645508 -27.6943950653076172 -186.973663330078125
37.7882881164550781 -168.094329833984375 -155.948654174804688
-14.258051872253418 -64.1343231201171875 169.628997802734375
-27.2077789306640625 214.942214965820312 103.039070129394531
67.33990478515625 145.719024658203125 107.238204956054688
99.307037353515625 -194.16748046875 55.6057395935058594
-111.947120666503906 141.415618896484375 -39.5879249572753906
-68.3165054321289062 150.481369018554688 94.1044998168945312
-43.3572883605957031 -78.3902130126953125 140.553985595703125
53.7145881652832031 -31.2359256744384766 -150.199203491210938
-68.159576416015625 -148.995269775390625 -58.7965164184570312
-111.988212585449219 77.143646240234375 55.8569107055664062
118.814933776855469 -17.0391197204589844 -74.2519149780273438
39.5608100891113281 -168.286697387695312 -155.947036743164062
32.1543045043945312 -32.2980766296386719 -161.778533935546875
111.478645324707031 -93.8028640747070312 103.018455505371094
75.3132553100585938 -85.0257339477539062 -154.733444213867188
1.90610814094543457 88.2402725219726562 146.105072021484375
-28.8759326934814453 -201.813400268554688 28.7823562622070312
-96.4051895141601562 -57.3023033142089844 53.3842964172363281
-71.9996185302734375 127.749618530273438 -22.9065494537353516
-59.2558021545410156 -178.979949951171875 5.59747934341430664
69.50726318359375 -97.1598587036132812 143.877685546875
72.0590057373046875 -73.3148651123046875 135.0594482421875
-40.0572586059570312 -84.8887557983398438 -158.739425659179688
-40.8899421691894531 -18.2585830688476562 -145.764984130859375
110.41680908203125 -142.959243774414062 111.525741577148438
-97.5199966430664062 26.7633571624755859 -65.80108642578125
-78.6861953735351562 -95.7458038330078125 -4.64437389373779297
116.551284790039062 43.9777603149414062 4.79252386093139648
-18.5723381042480469 139.02349853515625 -133.351715087890625
-57.5656547546386719 207.246734619140625 92.7833633422851562
-62.3681716918945312 75.7941360473632812 101.489776611328125
-87.9950027465820312 30.9328765869140625 4.1532597541809082
-16.7546749114990234 52.6839027404785156 142.298980712890625
5.80168914794921875 2.5246274471282959 147.531143188476562
121.1456298828125 -36.7480201721191406 13.6661262512207031
-5.70998477935791016 232.02545166015625 -9.29907035827636719
-60.8481788635253906 41.6474533081054688 -102.111488342285156
51.4240760803222656 60.5418815612792969 -135.289459228515625
82.0118255615234375 74.2900161743164062 86.5740585327148438
58.6443672180175781 106.617034912109375 -124.657562255859375
19.1237144470214844 -175.723861694335938 -147.974868774414062
-14.4591922760009766 68.4654617309570312 142.488433837890625
124.751106262207031 -94.0382461547851562 -7.37612152099609375
-81.959564208984375 58.068145751953125 58.1918907165527344
-98.4992904663085938 86.8206024169921875 60.634613037109375
-41.6003074645996094 -46.1947097778320312 -160.732498168945312
-60.4437904357910156 171.766143798828125 33.4003067016601562
-88.1700439453125 -25.9380226135253906 -41.2456779479980469
-32.7751960754394531 226.741790771484375 -15.1468906402587891
-52.8651466369628906 154.588546752929688 113.298690795898438
107.506416320800781 -178.047714233398438 -116.135330200195312
-85.596343994140625 -43.2192192077636719 -108.425315856933594
-103.64593505859375 23.2532310485839844 21.8254356384277344
115.625617980957031 81.234771728515625 1.53240537643432617
-7.68797588348388672 71.6656875610351562 -146.705123901367188
-46.9183425903320312 228.2998046875 -44.3240242004394531
-70.4493789672851562 -127.928764343261719 -9.52613067626953125
108.452980041503906 -61.0257415771484375 52.8232078552246094
35.4750289916992188 -194.79644775390625 99.8285446166992188
93.4144287109375 44.0607757568359375 94.0265731811523438
44.547882080078125 -209.2279052734375 30.8712368011474609
41.278717041015625 198.595123291015625 -90.2241592407226562
1.88387155532836914 94.0391006469726562 -147.791473388671875
-9.27800655364990234 230.002670288085938 -71.0944747924804688
60.7858505249023438 -161.437545776367188 -158.983642578125
-11.8895578384399414 -170.499267578125 132.585601806640625
125.188972473144531 -143.713760375976562 -40.7178611755371094
-34.68560791015625 197.98028564453125 -102.491500854492188
-19.2791004180908203 -196.673873901367188 -79.859222412109375
117.185867309570312 35.3697166442871094 -60.7871284484863281
-71.7695693969726562 -23.6076908111572266 -98.6370010375976562
-92.7007980346679688 88.9774398803710938 28.9236221313476562
-32.6807289123535156 -200.305770874023438 10.1787023544311523
-67.0502243041992188 123.638847351074219 -53.7082633972167969
-28.9029464721679688 48.605743408203125 -137.147537231445312
-83.227813720703125 -87.8645706176757812 24.4174537658691406
-100.742591857910156 123.022804260253906 -14.2562284469604492
76.4809188842773438 98.3846893310546875 -111.604995727539062
84.9627761840820312 -198.910858154296875 52.2189979553222656
51.7401351928710938 113.058341979980469 -129.9525146484375
-68.6819610595703125 -117.536956787109375 -125.951042175292969
-16.7877635955810547 -172.807952880859375 131.12261962890625
-30.2052211761474609 91.49761962890625 134.95037841796875
-59.8744125366210938 169.29656982421875 26.6624221801757812
-76.3559341430664062 -120.4471435546875 84.10589599609375
-77.2208328247070312 -114.291206359863281 9.26049709320068359
104.917549133300781 -138.389923095703125 -143.6448974609375
-63.0201911926269531 -129.421707153320312 -143.354782104492188
-62.7619743347167969 -10.0559682846069336 105.729362487792969
-88.549102783203125 -19.6558303833007812 49.3411064147949219
47.757781982421875 -114.387054443359375 163.059036254882812
-72.2685699462890625 -140.761459350585938 29.6327419281005859
7.22386407852172852 -24.8762874603271484 148.267974853515625
-19.2794666290283203 237.7059326171875 -50.7583808898925781
-62.7699127197265625 187.122512817382812 83.7668380737304688
-31.2686061859130859 120.3885498046875 -121.232749938964844
48.0343971252441406 20.6003379821777344 -142.998916625976562
91.3535614013671875 171.905288696289062 -19.4938259124755859
93.8083038330078125 -180.337173461914062 -126.996208190917969
114.817642211914062 -16.3504180908203125 -33.2385177612304688
69.8424530029296875 178.953781127929688 -103.375633239746094
95.55242919921875 141.493087768554688 11.7459020614624023
-57.8376007080078125 101.800384521484375 114.080032348632812
-68.1843338012695312 -143.97332763671875 1.81373286247253418
-39.6486930847167969 1.01608586311340332 135.082015991210938
102.7060546875 -128.787704467773438 -131.347137451171875
77.5274200439453125 186.018661499023438 28.8200435638427734
-52.4118728637695312 223.5589599609375 77.2030563354492188
118.331489562988281 72.8709487915039062 -17.6590232849121094
41.2190780639648438 -119.741012573242188 -173.74505615234375
-25.3564071655273438 -98.9666519165039062 153.166259765625
-24.5958957672119141 224.898727416992188 88.1063919067382812
-69.8800506591796875 -72.515838623046875 122.000205993652344
119.350997924804688 -167.745223999023438 -7.49247169494628906
-20.7267837524414062 226.08892822265625 -15.1777486801147461
-12.4869804382324219 -203.339920043945312 69.7365875244140625
48.7085037231445312 -209.832275390625 -46.4687843322753906
-2.34095978736877441 -33.7019119262695312 -186.981948852539062
-56.9266548156738281 -49.2024040222167969 -128.603759765625
87.6001815795898438 19.6888542175292969 -136.17889404296875
-70.5516433715820312 -149.438232421875 -102.906623840332031
-28.0564022064208984 -1.43493640422821045 -175.929733276367188
-34.6696586608886719 -193.967010498046875 -50.4247245788574219
108.476737976074219 -47.2114906311035156 65.282562255859375
-65.1971969604492188 -47.9304237365722656 -122.225502014160156
70.3651580810546875 35.1949195861816406 116.501823425292969
-73.3820343017578125 -122.832496643066406 -58.5994949340820312
105.447990417480469 82.2932586669921875 -0.165128111839294434
70.7418060302734375 121.591606140136719 -114.841682434082031
-83.4412841796875 -76.4799346923828125 40.6405067443847656
-61.4703865051269531 178.160659790039062 -32.7161636352539062
50.9713554382324219 180.398681640625 79.7205352783203125
9.55233383178710938 2.19837450981140137 147.730438232421875
-83.459442138671875 37.8802833557128906 55.4556350708007812
126.954177856445312 -123.581993103027344 7.47675991058349609
22.4484939575195312 130.6378173828125 -140.781936645507812
-76.1786117553710938 -0.145290940999984741 -81.0217514038085938
26.6139469146728516 -165.437484741210938 127.177581787109375
41.5613822937011719 146.82232666015625 130.279571533203125
-3.76281237602233887 -69.3234481811523438 -189.9774169921875
103.886932373046875 131.7552490234375 -21.2634181976318359
-101.174095153808594 111.010543823242188 -6.15921878814697266
-47.7242088317871094 -72.5655517578125 -157.145477294921875
35.3013229370117188 29.5200996398925781 -153.339767456054688
-50.0964546203613281 -168.634017944335938 -138.356353759765625
103.878349304199219 101.130729675292969 7.65858316421508789
32.5247955322265625 43.1212730407714844 -152.571990966796875
-91.6554336547851562 -87.7884597778320312 -106.96649169921875
107.05029296875 116.140510559082031 -31.52838134765625
95.5379409790039062 -195.741424560546875 55.5233840942382812
118.66754150390625 26.3585186004638672 -11.4299554824829102
-70.3431549072265625 -150.309616088867188 77.35125732421875
-107.952011108398438 49.2616615295410156 -48.9401054382324219
26.4619941711425781 112.416580200195312 -144.110824584960938
-74.9613418579101562 -25.1725368499755859 -110.91156005859375
-50.1104011535644531 -41.8494949340820312 127.772598266601562
-1.20638573169708252 85.3146743774414062 -148.551071166992188
39.1595840454101562 175.122604370117188 102.367843627929688
21.3976039886474609 -55.063232421875 -175.643264770507812
67.6485214233398438 -96.211212158203125 146.865814208984375
10.0976161956787109 -92.3786849975585938 164.633010864257812
-68.3516159057617188 -33.085601806640625 -102.647933959960938
26.1986217498779297 191.958419799804688 68.4651565551757812
116.290260314941406 -24.2079238891601562 -70.377471923828125
-86.0909194946289062 -6.72284936904907227 44.7123527526855469
78.8683929443359375 -203.669296264648438 2.59458303451538086
56.1665229797363281 -19.5346508026123047 -148.392990112304688
13.5365781784057617 -2.65268301963806152 -159.726516723632812
-54.7028923034667969 -38.3895645141601562 -134.59033203125
-10.3683357238769531 23.7814655303955078 -152.315185546875
55.7376556396484375 204.240463256835938 -47.3824119567871094
-30.2542762756347656 142.507461547851562 136.441497802734375
-63.1871528625488281 181.327606201171875 -39.0235404968261719
-65.2406082153320312 -164.598159790039062 -110.021041870117188
114.157989501953125 -43.0485267639160156 51.588287353515625
-108.8905029296875 83.476043701171875 69.2696914672851562
-85.7822647094726562 77.1234283447265625 -1.79077541828155518
85.9341278076171875 -51.5278053283691406 115.831405639648438
-68.8543930053710938 -137.375259399414062 -112.678482055664062
116.894790649414062 -78.0861282348632812 10.0415573120117188
-44.5560340881347656 192.505874633789062 -4.23033237457275391
-51.5896873474121094 -20.5034446716308594 125.595535278320312
94.2182769775390625 150.233505249023438 4.06176424026489258
-78.5431365966796875 -62.6212043762207031 -69.4529190063476562
-67.8623809814453125 145.969390869140625 -13.4535722732543945
-65.2869186401367188 -39.7579307556152344 -110.685325622558594
57.7826652526855469 188.989837646484375 52.0738945007324219
30.4986820220947266 -204.1695556640625 -81.7805633544921875
81.5827865600585938 -131.858306884765625 -155.04425048828125
-66.7771377563476562 -155.478927612304688 -130.801620483398438
-71.6396408081054688 96.5127105712890625 -53.5662002563476562
82.7629623413085938 119.827354431152344 85.553741455078125
86.688720703125 53.1118659973144531 92.7893905639648438
123.237236022949219 -152.043914794921875 -55.3508491516113281
-39.7311668395996094 -7.13422536849975586 131.73675537109375
-4.41182947158813477 -185.109085083007812 120.998008728027344
63.6138496398925781 113.831733703613281 117.493759155273438
12.066197395324707 96.5943222045898438 -149.975143432617188
119.29266357421875 -13.3186407089233398 -81.0264129638671875
-58.5837593078613281 142.37939453125 105.288421630859375
-73.128875732421875 68.5491714477539062 83.4686508178710938
-42.1552658081054688 -96.429779052734375 -163.20037841796875
-98.9754180908203125 68.4894638061523438 1.64747977256774902
108.07550048828125 -91.1399765014648438 86.1290435791015625
50.1855354309082031 -85.0661163330078125 159.54327392578125
-17.6536159515380859 -203.050735473632812 75.945281982421875
-74.17431640625 65.8193588256835938 80.7253341674804688
5.25168085098266602 -42.1350326538085938 150.91741943359375
43.3488616943359375 42.3496475219726562 139.26190185546875
99.6837081909179688 -195.604263305664062 46.9322700500488281
-12.9181623458862305 -202.49114990234375 -34.9313087463378906
-81.86083984375 98.1320877075195312 60.2096939086914062
-33.7818336486816406 -68.9274215698242188 155.87615966796875
-109.241363525390625 68.8987960815429688 -15.6018638610839844
-84.6453933715820312 -26.6830978393554688 5.94103145599365234
-72.1930313110351562 -68.8806610107421875 120.472152709960938
-88.2711257934570312 -24.1412620544433594 -91.7873001098632812
-70.4122772216796875 54.0928153991699219 -78.82818603515625
-84.2314529418945312 -46.4608879089355469 6.08922147750854492
-52.2825393676757812 -144.548385620117188 142.34466552734375
-33.5052833557128906 109.421661376953125 133.794540405273438
-32.2307052612304688 174.953765869140625 128.768081665039062
-29.9689216613769531 189.598114013671875 126.977203369140625
-66.4049148559570312 170.051956176757812 -29.5501899719238281
38.4456977844238281 142.671173095703125 -128.871109008789062
-58.5204963684082031 140.00885009765625 106.904975891113281
7.98283195495605469 -120.7442626953125 -180.156021118164062
55.0348701477050781 -209.75823974609375 -31.9175758361816406
118.410537719726562 19.2000942230224609 1.44850468635559082
119.079635620117188 -148.758102416992188 71.955718994140625
-73.6827545166015625 96.2332077026367188 80.4199142456054688
-82.4886627197265625 -118.140937805175781 -132.570327758789062
-39.6826820373535156 -144.387786865234375 143.867141723632812
-70.0042572021484375 -89.8275985717773438 -109.174240112304688
-35.7626075744628906 208.848373413085938 -91.25445556640625
102.436233520507812 -184.221878051757812 -105.936561584472656
90.4263687133789062 17.5831661224365234 104.19952392578125
-56.1433181762695312 -15.5413322448730469 118.956527709960938
-4.28406286239624023 -204.031021118164062 -28.3221759796142578
105.437431335449219 58.283233642578125 86.9821701049804688
103.027236938476562 94.9035186767578125 18.2367534637451172
104.817848205566406 -187.681915283203125 -14.4787254333496094
-13.5119180679321289 192.387741088867188 -117.2891845703125
-20.70880126953125 -96.2185287475585938 154.5654296875
-8.00377941131591797 -78.1436386108398438 154.45941162109375
-40.6783828735351562 111.201919555664062 130.784713745117188
8.29351043701171875 183.087326049804688 75.1397705078125
30.0611476898193359 -39.5513801574707031 -164.13720703125
-76.8822784423828125 -32.9119415283203125 80.5014572143554688
-38.2205314636230469 195.638580322265625 107.763267517089844
14.495844841003418 63.0640144348144531 -153.75213623046875
39.40594482421875 175.388275146484375 -119.499832153320312
36.257568359375 -100.210845947265625 -183.995773315429688
-68.5494384765625 -150.8489990234375 -67.3782424926757812
108.535118103027344 -181.779830932617188 -21.3611526489257812
109.114006042480469 84.1950149536132812 -14.7862482070922852
-18.1554107666015625 -204.4910888671875 30.3026008605957031
112.342445373535156 -156.011962890625 103.090194702148438
-86.2724533081054688 85.6334762573242188 -0.038618285208940506
-91.7366104125976562 6.27343130111694336 -15.6403913497924805
14.5922737121582031 108.275131225585938 145.163970947265625
94.7738876342773438 104.420913696289062 48.0809440612792969
105.786018371582031 -6.39186525344848633 102.005729675292969
98.0455474853515625 -13.1637535095214844 -127.3375244140625
27.8608589172363281 -192.1741943359375 -129.296844482421875
31.6048622131347656 192.829177856445312 53.591217041015625
-71.807464599609375 -135.935699462890625 -83.4423980712890625
-71.783447265625 -131.360275268554688 -60.4523811340332031
-91.933258056640625 -19.3858566284179688 19.5479240417480469
-101.926155090332031 -0.148504927754402161 27.0242805480957031
77.9598617553710938 -93.8091201782226562 -153.69989013671875
-117.707923889160156 44.8480796813964844 42.0698661804199219
-36.4893836975097656 -104.033180236816406 -159.289215087890625
108.31256103515625 -80.691802978515625 51.3782768249511719
-69.0177230834960938 140.034515380859375 -19.1694049835205078
130.474578857421875 -59.174224853515625 -64.4511032104492188
-50.5744819641113281 -183.551498413085938 -73.4080276489257812
-77.3339767456054688 -124.184005737304688 64.7504348754882812
-15.1235790252685547 -162.304000854492188 -146.666732788085938
-12.6738653182983398 -29.3727989196777344 172.334014892578125
57.6230278015136719 184.488067626953125 70.0408401489257812
-14.6353664398193359 -131.399520874023438 144.022171020507812
-23.7469158172607422 228.74261474609375 -77.0043563842773438
8.56634140014648438 -205.25421142578125 40.0337409973144531
-80.8050155639648438 -121.01971435546875 106.401496887207031
54.4070930480957031 -12.5673208236694336 -148.728912353515625
-22.8852214813232422 102.053153991699219 -132.8095703125
-98.5374298095703125 19.0092182159423828 -48.1670989990234375
-84.331817626953125 -23.1934680938720703 3.040313720703125
-20.6812171936035156 -66.3857421875 174.070571899414062
-74.7214889526367188 -137.976242065429688 48.5317802429199219
-22.3645687103271484 -82.2431869506835938 -178.55242919921875
-66.5297012329101562 -140.920028686523438 -137.861892700195312
34.8109016418457031 -137.516189575195312 -170.454391479492188
-94.4171905517578125 176.17218017578125 -66.1484527587890625
68.5008316040039062 -206.491409301757812 -3.64037537574768066
-85.1115646362304688 -34.1091957092285156 12.7498893737792969
-0.157132342457771301 -199.980575561523438 93.0042572021484375
33.8790016174316406 -127.777610778808594 156.941497802734375
-89.9708709716796875 17.4448738098144531 -71.1127166748046875
5.18342781066894531 64.4821929931640625 149.822677612304688
107.490074157714844 -139.67303466796875 -133.13275146484375
31.3212909698486328 149.601974487304688 -131.481277465820312
-67.748565673828125 204.293594360351562 -43.4747200012207031
-1.55830967426300049 -200.22998046875 91.9330902099609375
-64.7791061401367188 156.057281494140625 10.003758430480957
61.6436042785644531 -154.694625854492188 127.703323364257812
-47.8383979797363281 229.85504150390625 69.8925094604492188
-14.1446342468261719 -53.099853515625 148.138290405273438
-73.36004638671875 123.788948059082031 -17.3656044006347656
103.314598083496094 -123.149742126464844 -133.166015625
-108.665298461914062 64.2036895751953125 -18.7580299377441406
17.3142566680908203 204.110458374023438 -19.9630546569824219
-57.0246772766113281 164.253646850585938 -70.65069580078125
52.9305458068847656 -82.2291107177734375 -174.940200805664062
104.876670837402344 -39.6919364929199219 -129.44073486328125
29.4785919189453125 -13.4621706008911133 153.20062255859375
-52.5479774475097656 50.0818748474121094 -116.549156188964844
-36.8033256530761719 -66.8463592529296875 -154.445816040039062
51.3805961608886719 198.167648315429688 -89.8422393798828125
-70.0725555419921875 129.711257934570312 86.8768310546875
-83.2145614624023438 -7.89866447448730469 -10.899932861328125
68.9862899780273438 -67.3717041015625 141.382064819335938
16.3430137634277344 -192.725265502929688 110.132278442382812
104.480865478515625 -185.146453857421875 73.9448623657226562
-86.1063690185546875 188.2667236328125 -68.8325424194335938
-121.53228759765625 89.8770065307617188 -24.8629837036132812
114.064468383789062 77.8044586181640625 -69.10137939453125
-27.6642684936523438 -62.5712242126464844 174.137863159179688
-97.78216552734375 47.8821792602539062 -0.763488829135894775
98.4351730346679688 99.8573455810546875 -91.8879318237304688
-29.3513736724853516 -29.9353885650634766 144.483322143554688
121.857711791992188 -18.4111461639404297 -0.374126404523849487
123.668548583984375 -143.272872924804688 -84.2634353637695312
110.842208862304688 -139.387664794921875 102.259857177734375
129.598968505859375 -52.3195953369140625 -64.7307891845703125
92.4235763549804688 -114.556167602539062 -153.474594116210938
38.9670066833496094 173.36395263671875 108.047798156738281
-4.07291507720947266 -9.60690212249755859 -181.025863647460938
5.85949516296386719 46.0528564453125 -155.802902221679688
-14.9935884475708008 213.717880249023438 79.0700607299804688
-90.6140899658203125 -21.0651016235351562 57.3198928833007812
91.4961166381835938 55.2118186950683594 -105.133415222167969
-21.7905063629150391 -102.912078857421875 171.83245849609375
118.79010009765625 13.6630229949951172 -4.39460468292236328
58.4950904846191406 26.7457942962646484 -136.813613891601562
-116.914833068847656 19.1084213256835938 38.8772392272949219
120.835380554199219 -98.2883071899414062 45.5417060852050781
-48.6609039306640625 -127.074111938476562 -151.902023315429688
14.5415210723876953 -203.984573364257812 -62.0226402282714844
-75.1338043212890625 -95.2532196044921875 -149.504425048828125
-74.837005615234375 -107.134567260742188 125.437141418457031
114.704620361328125 -58.0858955383300781 -115.407646179199219
71.4468154907226562 186.104782104492188 -97.06805419921875
-73.4029464721679688 -93.5237884521484375 -87.8676071166992188
-28.9665870666503906 113.265090942382812 -125.609970092773438
-16.9322795867919922 -204.445770263671875 0.373831033706665039
94.1402664184570312 136.786224365234375 -88.58551025390625
51.8545570373535156 -196.146163940429688 -121.736282348632812
84.9176864624023438 -156.135360717773438 122.15533447265625
11.8981723785400391 -109.198196411132812 164.53704833984375
71.7628631591796875 -201.002883911132812 -105.318489074707031
92.4166793823242188 65.3052597045898438 69.7857894897460938
-2.0990912914276123 18.6823024749755859 150.137969970703125
75.1421737670898438 -60.9574546813964844 129.8240966796875
2.52659440040588379 196.511077880859375 36.6219520568847656
118.209243774414062 -64.5959854125976562 -105.865127563476562
64.0560150146484375 1.91492724418640137 -137.93414306640625
114.164276123046875 -174.302749633789062 -75.0819778442382812
-14.1605052947998047 224.462417602539062 -86.5499725341796875
105.850616455078125 -10.831817626953125 -119.637619018554688
77.5329818725585938 149.843536376953125 76.0751953125
-88.8280181884765625 -68.5822296142578125 44.9872360229492188
0.669371366500854492 162.03277587890625 136.134078979492188
-93.6395111083984375 100.344245910644531 -11.7946205139160156
130.381210327148438 -104.464958190917969 -31.4063796997070312
106.232574462890625 -1.69161701202392578 101.807876586914062
122.792755126953125 -24.785552978515625 -23.5580825805664062
112.904335021972656 -146.318313598632812 106.668327331542969
32.5068702697753906 195.383941650390625 43.1314888000488281
-9.09439849853515625 -144.82373046875 -163.735031127929688
78.2296905517578125 197.787063598632812 -50.2736930847167969
-68.010009765625 195.0567626953125 -68.0172576904296875
44.3898544311523438 168.357452392578125 -119.998329162597656
-75.5859146118164062 45.6387519836425781 -57.9730682373046875
-9.17531585693359375 -39.0670890808105469 172.280059814453125
74.6035614013671875 199.214324951171875 -9.72945022583007812
91.4084625244140625 54.7458305358886719 80.923431396484375
-72.5908966064453125 -36.4663963317871094 92.1659774780273438
-73.30615234375 114.30010986328125 75.9069671630859375
-12.4494810104370117 -204.167739868164062 48.1789512634277344
-74.8464431762695312 -78.42462158203125 -108.129440307617188
54.310546875 18.1015396118164062 -140.791473388671875
73.6483306884765625 197.556716918945312 -69.6451187133789062
-92.5752792358398438 7.18390512466430664 -17.1568222045898438
86.5725784301757812 -184.801254272460938 101.950477600097656
90.136688232421875 69.9963607788085938 71.5799484252929688
-5.4079127311706543 -205.581939697265625 2.85876131057739258
116.882865905761719 -73.3057861328125 0.938489615917205811
64.2455062866210938 150.983718872070312 -118.032371520996094
-53.9189033508300781 157.241912841796875 -83.6353912353515625
41.531494140625 152.844696044921875 128.441192626953125
101.213333129882812 75.895294189453125 50.1664390563964844
89.5189056396484375 -195.1229248046875 -77.3081130981445312
-56.2678909301757812 -187.004241943359375 86.1177978515625
123.823501586914062 -50.298248291015625 -18.6892604827880859
-10.6319561004638672 -197.169769287109375 -97.8212432861328125
43.9738273620605469 48.4053268432617188 -143.611038208007812
-17.5523948669433594 42.1433448791503906 -146.986480712890625
-76.9290084838867188 -122.5455322265625 152.161041259765625
47.4702529907226562 -34.2595176696777344 -152.711761474609375
25.3839492797851562 205.59307861328125 -18.4598350524902344
68.4079437255859375 123.277503967285156 111.679832458496094
-45.4222869873046875 -17.1882095336914062 130.925369262695312
-56.8879547119140625 -185.845611572265625 90.9547119140625
50.195037841796875 -128.406646728515625 -172.123245239257812
90.1904449462890625 -87.6784210205078125 117.826812744140625
91.8984909057617188 -108.764266967773438 123.968177795410156
-4.30074930191040039 -203.308746337890625 62.4487419128417969
-33.7891120910644531 -133.372955322265625 143.9827880859375
-56.4882125854492188 196.431747436523438 109.638999938964844
-1.25011348724365234 226.23809814453125 -57.6017799377441406
-77.6269607543945312 -113.724838256835938 33.3467063903808594
-88.2336502075195312 -29.4951744079589844 -35.18389892578125
-77.149627685546875 198.333724975585938 -57.1713790893554688
-128.968002319335938 91.7043991088867188 -34.2884178161621094
-17.0216236114501953 -22.9355220794677734 142.962249755859375
36.8015174865722656 24.9322586059570312 -150.884078979492188
-60.648651123046875 -45.1781349182128906 110.302452087402344
32.9470024108886719 -40.1636543273925781 165.44171142578125
61.0251731872558594 76.90252685546875 -126.001823425292969
-11.7703437805175781 -95.0992279052734375 -181.258193969726562
12.3514909744262695 -135.039230346679688 151.68719482421875
-79.5586776733398438 83.813140869140625 49.8812332153320312
109.851165771484375 47.9743080139160156 42.1170272827148438
-87.128265380859375 117.609626770019531 43.2663993835449219
-34.1271095275878906 127.85919189453125 134.042007446289062
-77.5824661254882812 159.12835693359375 -31.9962062835693359
6.74523639678955078 -59.1422195434570312 175.446273803710938
69.0720596313476562 157.068893432617188 69.7228469848632812
-102.080459594726562 152.111587524414062 -52.8289260864257812
17.2168674468994141 -145.9781494140625 -170.903213500976562
110.726066589355469 6.79153871536254883 51.3350868225097656
-46.5560989379882812 190.692138671875 -78.3712692260742188
-67.9849319458007812 173.53131103515625 -34.718231201171875
53.0033760070800781 -209.19219970703125 14.507115364074707
-100.6478271484375 45.1229400634765625 -5.00259208679199219
-71.072052001953125 121.4888916015625 -39.2238044738769531
-29.2366771697998047 215.232315063476562 38.4394721984863281
-23.9888553619384766 166.427276611328125 137.946929931640625
-1.09502136707305908 65.2028579711914062 -151.335174560546875
-6.91530704498291016 234.93194580078125 43.5105361938476562
-8.13513374328613281 49.3627166748046875 146.724929809570312
77.3174057006835938 -204.215225219726562 1.73489534854888916
62.8647079467773438 -2.88465452194213867 145.5159912109375
-35.491912841796875 -199.3460693359375 1.02778124809265137
-106.869407653808594 63.1556510925292969 47.0016899108886719
72.2550506591796875 73.7805862426757812 -117.621475219726562
103.056991577148438 -186.215118408203125 -33.485809326171875
111.033836364746094 -170.733291625976562 86.120147705078125
-64.9181365966796875 105.986457824707031 100.90740966796875
114.521072387695312 -13.7227554321289062 -108.289924621582031
119.770957946777344 -13.9460659027099609 -69.941680908203125
-70.9750213623046875 -148.934478759765625 -80.1956329345703125
88.5735702514648438 100.642173767089844 -103.594627380371094
-23.6417961120605469 -144.101913452148438 -161.315048217773438
-101.884773254394531 148.96435546875 -50.3991241455078125
-9.40314483642578125 -162.517547607421875 -146.842010498046875
-57.7566566467285156 108.429817199707031 -88.07421875
-5.98611545562744141 193.324188232421875 91.8024368286132812
-26.2957191467285156 -59.8538742065429688 -171.77191162109375
-42.5337104797363281 -39.6789665222167969 133.73468017578125
-30.5394649505615234 -60.3282012939453125 174.1759033203125
37.7203102111816406 108.107963562011719 137.11285400390625
108.580543518066406 52.5972137451171875 66.1181716918945312
-75.2992935180664062 188.740966796875 -39.8666725158691406
1.5747605562210083 120.58087158203125 -145.436920166015625
95.1038055419921875 -194.448806762695312 -52.2916946411132812
-54.3555221557617188 49.6536407470703125 -114.404548645019531
4.99900722503662109 89.7934112548828125 145.62664794921875
-58.3721847534179688 -177.529769897460938 -57.3300590515136719
92.2759323120117188 104.182952880859375 60.0098457336425781
70.3933258056640625 182.583236694335938 60.56243896484375
-74.1888809204101562 78.301300048828125 81.6835403442382812
91.3476104736328125 12.2047595977783203 -126.706253051757812
36.6310882568359375 -209.507919311523438 34.7672882080078125
-23.0524425506591797 -1.44687306880950928 141.278610229492188
92.1152572631835938 -198.393768310546875 -0.218980804085731506
-21.5602207183837891 -71.3972702026367188 165.078414916992188
-45.8155937194824219 -130.6884765625 -161.3846435546875
5.12991571426391602 196.479751586914062 32.6095008850097656
-27.6353740692138672 221.58270263671875 92.6928634643554688
-99.180328369140625 92.7722702026367188 0.433399617671966553
-56.294708251953125 219.686767578125 80.2743911743164062
105.409950256347656 68.9577865600585938 -98.38641357421875
-81.4174270629882812 -81.2497711181640625 -4.75691604614257812
-74.9937210083007812 173.661209106445312 -46.8145561218261719
100.418037414550781 -195.300445556640625 42.7654304504394531
-110.859893798828125 72.0720062255859375 45.3097572326660156
-11.1447353363037109 233.343826293945312 -11.9909677505493164
-43.2126808166503906 -194.453887939453125 4.98664283752441406
-37.2707366943359375 -84.0824127197265625 169.062286376953125
-91.6470565795898438 -70.1774215698242188 -86.2836456298828125
62.1160316467285156 157.351272583007812 99.7272491455078125
82.1980514526367188 -201.735382080078125 5.83944082260131836
68.3097991943359375 195.023269653320312 -86.8522720336914062
3.38235712051391602 216.917770385742188 -1.36398756504058838
105.883529663085938 -144.184814453125 -143.97576904296875
2.40542173385620117 189.59197998046875 82.9617233276367188
-103.238471984863281 130.208999633789062 -20.8710994720458984
-103.009750366210938 -38.9103240966796875 72.7228012084960938
-86.5251922607421875 113.576881408691406 83.1041717529296875
31.1216869354248047 -36.2735748291015625 163.519515991210938
-57.0532798767089844 -24.5469837188720703 -121.592094421386719
-10.7506799697875977 -201.589401245117188 -56.3517684936523438
118.021743774414062 -29.8891220092773438 38.9372634887695312
-51.5433616638183594 172.834152221679688 -81.7018966674804688
-59.2552223205566406 187.537750244140625 -17.3862075805664062
-85.3190765380859375 94.173919677734375 11.303187370300293
124.227653503417969 -150.45989990234375 -43.7156791687011719
102.327713012695312 -65.8930816650390625 96.1202316284179688
-65.5501556396484375 32.2406501770019531 -90.7894210815429688
117.439437866210938 -154.708633422851562 79.361083984375
98.0499191284179688 60.5530891418457031 -95.0227584838867188
-4.4728856086730957 27.9119319915771484 148.844009399414062
104.417610168457031 -61.7173194885253906 97.21075439453125
-1.27687621116638184 -59.826812744140625 -190.333145141601562
27.8323516845703125 -26.0452613830566406 163.931411743164062
25.7220649719238281 200.609054565429688 31.1791801452636719
-50.8657989501953125 138.707931518554688 121.770065307617188
-74.6752166748046875 198.130264282226562 -48.6758689880371094
-57.5222129821777344 200.345413208007812 49.4859428405761719
-88.9637451171875 -48.3173942565917969 -53.6053886413574219
-64.5096206665039062 151.769119262695312 -36.6261863708496094
60.2632865905761719 165.763320922851562 -115.4442138671875
-28.7192115783691406 -189.481353759765625 115.997207641601562
-93.4471817016601562 -68.0076828002929688 -94.23016357421875
118.442436218261719 -153.363967895507812 57.9730300903320312
-87.9296646118164062 -18.9077091217041016 16.8576526641845703
103.485847473144531 130.000076293945312 -67.8365859985351562
53.9065628051757812 140.672622680664062 -121.221176147460938
-12.6392555236816406 226.580291748046875 13.9304218292236328
68.2488327026367188 119.537765502929688 -115.488792419433594
95.6827774047851562 161.520614624023438 -20.8375835418701172
26.4957714080810547 -195.376052856445312 -119.114799499511719
-72.56536865234375 129.259445190429688 8.47707843780517578
118.52044677734375 -168.941574096679688 -35.4349441528320312
72.0243682861328125 27.8933544158935547 -128.261749267578125
-29.0496807098388672 -93.0613174438476562 -161.487991333007812
-57.7972183227539062 -182.106216430664062 99.93170166015625
32.5859642028808594 207.980255126953125 -75.8524703979492188
9.21133804321289062 -36.287200927734375 146.522247314453125
26.2331352233886719 80.878631591796875 144.157760620117188
-65.1997451782226562 162.813888549804688 -19.0075016021728516
81.2958755493164062 182.327957153320312 -83.3720245361328125
-75.4273300170898438 120.587745666503906 91.9075775146484375
105.423194885253906 -185.966644287109375 -51.8221855163574219
-77.2507095336914062 -84.095703125 123.881629943847656
1.95218884944915771 -36.6132621765136719 156.895660400390625
70.5139389038085938 -156.74786376953125 123.804473876953125
-91.3383560180664062 -40.0120048522949219 -88.1295547485351562
-57.0464553833007812 23.4757099151611328 110.392852783203125
79.8631973266601562 152.28509521484375 -103.754440307617188
-77.0082550048828125 107.085647583007812 -8.24022197723388672
-76.0322341918945312 -131.7366943359375 108.061538696289062
-2.75842976570129395 201.058242797851562 32.2829704284667969
106.264572143554688 52.8691329956054688 -95.6990890502929688
-67.449005126953125 -8.15713691711425781 99.303009033203125
-69.2301101684570312 -13.6696367263793945 -88.7550735473632812
-43.2173995971679688 210.388809204101562 -13.0218133926391602
-86.424591064453125 -8.56145286560058594 -82.8923263549804688
-87.3260955810546875 -65.8418655395507812 44.9288177490234375
73.0093002319335938 90.3572006225585938 103.862686157226562
17.8036079406738281 19.6247215270996094 -159.570526123046875
-21.7735614776611328 -71.7981719970703125 -180.776947021484375
-14.7923192977905273 166.575225830078125 -128.930038452148438
-80.5456161499023438 -103.786544799804688 63.3370132446289062
-84.804229736328125 125.521774291992188 42.7966880798339844
-120.591575622558594 10.3511857986450195 54.9158859252929688
22.8542404174804688 -45.2545814514160156 165.527450561523438
55.8728981018066406 53.4562187194824219 -132.950027465820312
-21.2378425598144531 -47.5844497680664062 -166.49835205078125
-86.9510345458984375 -49.3917732238769531 -50.0968170166015625
-10.0916109085083008 236.452850341796875 46.445709228515625
-52.7136878967285156 -115.945610046386719 -155.16900634765625
106.73260498046875 -176.772598266601562 83.1449737548828125
48.2988471984863281 -177.470138549804688 -148.964157104492188
24.4118900299072266 70.385406494140625 -149.850784301757812
-84.66400146484375 -70.7994155883789062 27.4360523223876953
-79.8620986938476562 76.5776519775390625 62.9362449645996094
-39.4422378540039062 -178.199966430664062 -110.702285766601562
-89.040313720703125 117.285652160644531 74.1753997802734375
-38.8502998352050781 -62.2358779907226562 151.803466796875
-79.5331497192382812 -107.787147521972656 67.8553848266601562
-24.3342266082763672 -4.97754049301147461 -177.010086059570312
43.4205589294433594 44.0337142944335938 -145.3359375
-80.130584716796875 29.711669921875 70.4709548950195312
-128.498611450195312 83.6840896606445312 -35.6933937072753906
-62.0262680053710938 154.9676513671875 -42.7978553771972656
79.3841171264648438 96.7998809814453125 -110.046348571777344
-52.0053672790527344 188.475067138671875 -4.28349971771240234
12.0862131118774414 -83.827484130859375 166.106063842773438
-72.7682876586914062 7.19641780853271484 85.778564453125
-36.8967628479003906 212.1671142578125 19.3190174102783203
89.9102325439453125 180.282379150390625 -55.0777320861816406
-64.4965057373046875 161.2540283203125 94.23291015625
-41.0291290283203125 3.81915879249572754 132.233871459960938
-32.9091072082519531 -187.0042724609375 118.211013793945312
-53.0824394226074219 83.266815185546875 -97.1456375122070312
68.7463836669921875 -29.7549400329589844 134.391082763671875
-48.6762161254882812 218.791397094726562 -28.3368873596191406
54.234649658203125 155.751434326171875 113.775703430175781
59.2571830749511719 187.578826904296875 -103.159187316894531
88.8509597778320312 178.856414794921875 -26.4191837310791016
-36.3064384460449219 201.405899047851562 109.192192077636719
69.0803146362304688 -6.84928607940673828 -139.6429443359375
34.2120552062988281 -94.002777099609375 164.392929077148438
-70.979156494140625 -89.818206787109375 -105.815895080566406
55.2458534240722656 197.461212158203125 15.8425865173339844
-41.6666374206542969 -4.25689029693603516 -159.334442138671875
-38.0807228088378906 -183.497665405273438 -81.510284423828125
-103.347602844238281 39.4784965515136719 -22.0849456787109375
-80.4004898071289062 181.449539184570312 -41.0882415771484375
61.2420692443847656 -208.280517578125 -14.6608676910400391
-88.0160140991210938 -101.642135620117188 90.3010711669921875
3.25386571884155273 -205.48590087890625 16.6899127960205078
76.4902191162109375 -153.010498046875 -154.378860473632812
70.205078125 -23.7100601196289062 -140.30926513671875
-11.2466259002685547 193.104721069335938 -117.00830078125
13.2076396942138672 178.715911865234375 99.2679519653320312
-34.2678337097167969 183.19171142578125 123.762443542480469
-72.1256866455078125 -107.297805786132812 -109.068206787109375
23.8820514678955078 188.054931640625 -118.306465148925781
-118.399330139160156 86.0851593017578125 -34.2103691101074219
-101.366943359375 104.3486328125 -2.39568352699279785
106.657890319824219 -3.41533160209655762 -114.256309509277344
26.5952033996582031 96.7526092529296875 141.73486328125
14.3764400482177734 -67.4825820922851562 173.486404418945312
-14.8810672760009766 -34.0886764526367188 162.9229736328125
10.9831762313842773 202.911590576171875 -22.9145011901855469
80.1754989624023438 -22.1071987152099609 120.464729309082031
-96.1246337890625 153.658401489257812 -50.9255943298339844
-42.5023880004882812 43.8693656921386719 127.724540710449219
125.63446044921875 -129.655410766601562 -78.4892959594726562
18.3088665008544922 31.7877750396728516 149.093032836914062
-75.2303619384765625 -109.467185974121094 -18.7587528228759766
-26.3793277740478516 -115.387199401855469 -166.164199829101562
69.2489471435546875 201.278839111328125 -6.34737157821655273
-12.9623041152954102 142.887405395507812 140.08319091796875
-57.1190414428710938 -58.3348197937011719 122.752586364746094
-2.96588420867919922 -193.17425537109375 -117.944694519042969
115.972206115722656 -99.39019775390625 63.6181373596191406
20.7940635681152344 -159.924392700195312 -158.563385009765625
55.4116554260253906 171.641647338867188 -114.110275268554688
39.7555618286132812 -50.9314689636230469 -162.842361450195312
115.673896789550781 -103.744308471679688 -120.503150939941406
-48.4730606079101562 -195.68316650390625 87.7617950439453125
-75.5873336791992188 -8.74000453948974609 83.894287109375
-8.14237785339355469 200.1085205078125 78.97589111328125
-72.1649246215820312 -133.850967407226562 112.227645874023438
99.622222900390625 -35.8821678161621094 -134.242156982421875
8.29889297485351562 -79.2236709594726562 167.957122802734375
-75.9337387084960938 -47.5278739929199219 99.4822616577148438
-84.5346145629882812 -15.4047155380249023 55.3142242431640625
106.531486511230469 17.0924339294433594 90.9258499145507812
-55.0779991149902344 -190.206878662109375 69.4657516479492188
-46.5511016845703125 -93.9041595458984375 171.3673095703125
109.652580261230469 -80.6051788330078125 44.8329277038574219
14.4890708923339844 176.378768920898438 106.787345886230469
-66.3711395263671875 151.060333251953125 -14.0626869201660156
-37.1044807434082031 -104.493072509765625 -154.755233764648438
-88.5241241455078125 76.84716796875 17.3195381164550781
-4.66126298904418945 215.040420532226562 48.650299072265625
-83.9777679443359375 42.9232864379882812 40.3481025695800781
116.82684326171875 70.7845611572265625 13.3504228591918945
-33.4966278076171875 209.488311767578125 53.6010017395019531
-20.1490459442138672 237.772216796875 48.1637344360351562
53.580322265625 81.9128952026367188 -130.959426879882812
-110.231422424316406 146.87371826171875 -47.712158203125
-67.2677154541015625 -147.059280395507812 111.521942138671875
-59.3221244812011719 166.518768310546875 -31.8529796600341797
-53.6199913024902344 -171.400497436523438 -140.80029296875
118.859184265136719 -149.506546020507812 75.6347732543945312
96.7715988159179688 3.92148804664611816 -122.304527282714844
-67.9083938598632812 -44.5322341918945312 -129.772750854492188
-49.3853797912597656 188.775070190429688 118.516471862792969
-53.8087577819824219 97.70733642578125 -94.21099853515625
-101.948867797851562 57.3160934448242188 26.3051033020019531
98.44427490234375 -66.5732650756835938 -135.505752563476562
-32.9632720947265625 -27.0566272735595703 138.610580444335938
-91.2335662841796875 -91.1014862060546875 -111.556266784667969
-5.20457887649536133 232.272781372070312 -1.9210362434387207
127.115119934082031 -111.229316711425781 -6.07098150253295898
-21.9120254516601562 223.953887939453125 -8.73646450042724609
115.024559020996094 -7.49589633941650391 55.3923377990722656
26.1555252075195312 -200.351593017578125 -97.9035568237304688
114.523719787597656 -55.9039764404296875 -115.433815002441406
19.6263313293457031 -182.116653442382812 -142.848388671875
108.6915283203125 89.2445297241210938 -19.7261219024658203
-87.6947860717773438 -5.1582036018371582 -55.9111061096191406
-41.5030784606933594 231.5330810546875 -67.8155670166015625
-42.4433250427246094 8.45961666107177734 -134.797088623046875
76.5479278564453125 196.29571533203125 7.32803440093994141
48.3117942810058594 -2.01391172409057617 136.836929321289062
89.0977020263671875 144.391082763671875 -91.289886474609375
1.5007469654083252 -205.357101440429688 17.8065242767333984
-19.5861244201660156 -118.362785339355469 151.657440185546875
36.1033744812011719 -91.5091934204101562 -185.425796508789062
80.0630035400390625 154.3817138671875 -101.796707153320312
-1.66996169090270996 -56.2275009155273438 174.813278198242188
-54.5937728881835938 -73.7120513916015625 -151.121322631835938
66.6507568359375 193.510955810546875 41.0045166015625
-55.6947288513183594 12.296900749206543 112.907730102539062
-51.2202224731445312 227.24456787109375 62.4855003356933594
-53.9731788635253906 -98.9693069458007812 -157.370880126953125
-89.9115676879882812 -27.0385761260986328 20.256744384765625
59.8674850463867188 -207.425201416015625 29.4629974365234375
93.6120834350585938 97.056121826171875 59.0275306701660156
-96.90802001953125 46.0254173278808594 -46.6608238220214844
-55.9275703430175781 170.84417724609375 -47.4836959838867188
0.496953040361404419 145.06805419921875 139.87933349609375
71.3426742553710938 -203.37091064453125 -87.3264236450195312
-104.816658020019531 121.256034851074219 -32.6015205383300781
-93.2736053466796875 97.933563232421875 77.4253616333007812
