ply
format ascii 1.0
element vertex 787
comment vertices
property float x
property float y
property float z
end_header
-35.9700355529785156 -58.9202423095703125 -26.3218917846679688
35.5663490295410156 -61.8707313537597656 -43.758758544921875
41.2486419677734375 -34.5333976745605469 -18.4428749084472656
-2.02394628524780273 64.2817764282226562 -87.8917236328125
-33.3340682983398438 -13.6635055541992188 -22.9007034301757812
-31.7455368041992188 80.4083099365234375 9.64909076690673828
-43.0152778625488281 -6.9656825065612793 22.3876247406005859
-2.594696044921875 -58.6990089416503906 95.415008544921875
42.1919631958007812 -43.2827377319335938 -0.209280714392662048
-18.9707145690917969 15.4095993041992188 -79.3767318725585938
26.4866275787353516 51.5404586791992188 -60.2850379943847656
-6.05804443359375 10.6524410247802734 -97.806854248046875
52.2603073120117188 29.3785591125488281 -4.41328907012939453
41.4238967895507812 1.24956083297729492 58.8579521179199219
-4.62406110763549805 133.848876953125 -38.8889846801757812
-21.9613895416259766 -70.7504959106445312 64.2690277099609375
49.964874267578125 3.6693730354309082 43.0745010375976562
-21.6726627349853516 62.5668067932128906 -36.2148208618164062
-42.0248184204101562 -21.8113574981689453 19.9808864593505859
40.4036178588867188 -59.1519622802734375 19.1193485260009766
34.0893173217773438 -68.8170928955078125 -45.2553138732910156
40.2374801635742188 -61.6728096008300781 26.8525810241699219
-26.1202507019042969 -108.950279235839844 66.926513671875
-20.9151611328125 -107.821922302246094 20.2007369995117188
34.0930557250976562 -45.3649864196777344 -95.4927825927734375
-18.96246337890625 56.5576629638671875 -6.83073711395263672
-4.00963544845581055 88.305023193359375 -77.0809783935546875
37.5153160095214844 -10.9499874114990234 -92.1791610717773438
-32.9819107055664062 -55.351348876953125 -58.88543701171875
-13.964604377746582 77.945556640625 1.41437101364135742
-42.6718940734863281 -50.791015625 76.6580581665039062
-11.8287887573242188 85.1171798706054688 -12.8364849090576172
-25.7335987091064453 41.1024818420410156 -52.0570602416992188
-36.3453140258789062 -22.6373577117919922 58.2247047424316406
27.4134750366210938 46.3852386474609375 50.6399879455566406
-10.7057218551635742 127.718452453613281 27.4641437530517578
31.4686908721923828 72.1868515014648438 -33.231292724609375
24.3565044403076172 0.328951835632324219 53.0659751892089844
21.8346805572509766 72.6969223022460938 -73.8448410034179688
45.9371299743652344 -2.7438199520111084 -20.0109672546386719
-14.7356386184692383 -11.5153884887695312 85.8602142333984375
-19.1927356719970703 53.9324836730957031 -68.4118576049804688
12.4546194076538086 -56.0499114990234375 94.6450424194335938
8.75665760040283203 -94.32666015625 -94.677398681640625
-35.0750541687011719 71.3446273803710938 16.7071552276611328
-36.2266998291015625 45.4488372802734375 -1.060951828956604
-46.15509033203125 -38.9549598693847656 77.7862472534179688
-37.8151702880859375 107.840957641601562 10.7356500625610352
-24.0621891021728516 2.67748069763183594 74.511810302734375
-34.9987030029296875 -5.71873140335083008 7.43961954116821289
-40.886810302734375 26.6136188507080078 -1.19663798809051514
2.8338160514831543 107.132469177246094 50.9648971557617188
21.7546749114990234 6.26065254211425781 -84.282806396484375
26.8803596496582031 83.8819198608398438 71.609649658203125
21.6719264984130859 -105.606681823730469 -1.4494926929473877
30.8878803253173828 119.6373291015625 31.9675712585449219
-15.312713623046875 73.75982666015625 -18.4244403839111328
-44.288604736328125 36.0105400085449219 -2.23648977279663086
-33.9994430541992188 96.6848297119140625 15.5776329040527344
10.1450424194335938 23.7541923522949219 89.0990066528320312
18.2128047943115234 -118.796928405761719 -10.8464956283569336
-39.5311164855957031 -35.9282341003417969 30.1243953704833984
-10.938227653503418 79.647735595703125 50.9999504089355469
18.5121784210205078 -72.5391311645507812 -89.2292633056640625
23.3787670135498047 -106.642799377441406 -33.1911582946777344
-19.6358737945556641 115.177566528320312 -61.8533973693847656
52.2801475524902344 16.8508892059326172 28.4053592681884766
-43.1978645324707031 3.82008552551269531 20.2539119720458984
-15.7305736541748047 -120.04132080078125 6.39600944519042969
-24.5785293579101562 7.40329933166503906 68.65667724609375
21.0579090118408203 49.48760986328125 -82.493408203125
-21.7312507629394531 -29.2236576080322266 86.101837158203125
46.7915573120117188 24.2188148498535156 -63.0639076232910156
12.3718338012695312 2.23564291000366211 85.4093475341796875
-14.9026250839233398 114.231086730957031 -16.0755176544189453
30.8070640563964844 70.1739120483398438 49.7463760375976562
-49.3212203979492188 68.7533187866210938 25.1710281372070312
33.0941658020019531 96.5042343139648438 27.3205204010009766
-23.1619300842285156 -111.231636047363281 -78.5913467407226562
-34.5925636291503906 -22.1893692016601562 51.5971946716308594
-29.1178207397460938 -26.9499950408935547 -62.6475105285644531
14.5217580795288086 107.484794616699219 50.9624443054199219
-34.0015983581542969 -41.2797889709472656 12.7888956069946289
10.7404146194458008 -100.860725402832031 77.0363006591796875
-30.5667476654052734 14.7843780517578125 -13.7272186279296875
29.3957729339599609 -96.8388442993164062 -73.1767578125
46.24749755859375 1.21222758293151855 -33.7850761413574219
22.4812450408935547 -28.6901397705078125 63.8662338256835938
23.3152809143066406 -54.4169807434082031 70.104095458984375
-29.891357421875 118.805892944335938 2.86155128479003906
31.1904449462890625 -27.0159454345703125 52.1015472412109375
-4.76684808731079102 -127.172233581542969 -32.148101806640625
-11.7515039443969727 115.5572509765625 -2.18854618072509766
-18.7687568664550781 66.2296066284179688 15.7188119888305664
-7.79215335845947266 73.2658767700195312 -88.8572158813476562
27.6087741851806641 -70.482818603515625 -95.4651412963867188
-19.4329833984375 65.1211090087890625 13.4873428344726562
22.0069065093994141 129.827163696289062 -20.9151058197021484
39.4463996887207031 32.5152816772460938 -60.2388343811035156
48.0045166015625 -0.579415321350097656 17.1265678405761719
-11.5508193969726562 120.919937133789062 0.0460126474499702454
37.2236328125 -60.6674842834472656 -30.0675010681152344
20.8009128570556641 -112.838882446289062 39.2438278198242188
-22.1757755279541016 -39.7066497802734375 59.6947021484375
20.5994834899902344 -115.251029968261719 23.3993034362792969
52.3082771301269531 29.7073535919189453 -3.71156978607177734
-21.5673084259033203 -103.956443786621094 65.100799560546875
-8.10960292816162109 0.96198195219039917 88.276641845703125
10.0405759811401367 -0.593874931335449219 -102.065376281738281
-26.1124935150146484 34.1164321899414062 -0.674357056617736816
-51.1075401306152344 57.4838027954101562 5.69267368316650391
19.3152027130126953 89.7607269287109375 -82.6111373901367188
51.7449302673339844 36.1658401489257812 -22.3130817413330078
-12.6177587509155273 -122.185798645019531 -50.6547279357910156
30.4602775573730469 -66.8431777954101562 66.8806915283203125
21.7907924652099609 -99.8486709594726562 -42.2291946411132812
38.3296165466308594 -22.3197593688964844 -92.7348709106445312
-33.7750778198242188 -3.3902280330657959 7.62592554092407227
-51.2799224853515625 82.2747344970703125 23.6331005096435547
9.78129291534423828 -85.253814697265625 -95.3995437622070312
34.5319175720214844 37.8607063293457031 28.0805606842041016
7.66920948028564453 132.461517333984375 -0.166315361857414246
-41.2824630737304688 -15.5812520980834961 50.7528533935546875
-42.3598289489746094 -16.2234859466552734 20.9992218017578125
37.2005348205566406 -34.3473930358886719 -86.6916351318359375
-35.2300605773925781 -25.8654346466064453 -42.2675132751464844
-35.7431526184082031 -40.1170845031738281 -22.8956127166748047
29.9657936096191406 -90.381805419921875 -76.1679840087890625
-25.6909446716308594 -1.94367122650146484 74.2105712890625
31.3984012603759766 43.3985061645507812 -37.1668510437011719
-27.4716987609863281 21.1707077026367188 56.9902992248535156
12.2239856719970703 -2.49945068359375 -100.745689392089844
-11.6235895156860352 96.9720458984375 -22.1851177215576172
-32.8977622985839844 -3.50066661834716797 88.094329833984375
-17.5656108856201172 -39.7084770202636719 70.92755126953125
-30.1650104522705078 -92.084716796875 -40.3531417846679688
-11.9956636428833008 94.235992431640625 -81.6317214965820312
-31.8087959289550781 -107.585174560546875 63.3103446960449219
44.2936515808105469 8.44735336303710938 -71.1531295776367188
36.596588134765625 58.5653953552246094 -0.50704646110534668
-8.3254547119140625 -63.7357254028320312 -102.224472045898438
-10.7801637649536133 120.033828735351562 5.88225936889648438
29.1595897674560547 51.2079544067382812 -46.3457069396972656
41.2601737976074219 -49.7491645812988281 1.33656477928161621
41.095550537109375 44.7385368347167969 2.24817657470703125
-29.0653457641601562 -70.1558074951171875 21.0123424530029297
-0.910033106803894043 -41.3424758911132812 95.3211135864257812
40.5665550231933594 -52.6491737365722656 -0.271931439638137817
28.4184284210205078 80.4110794067382812 63.4572296142578125
-20.5291881561279297 -14.879450798034668 -83.9433517456054688
-32.9980545043945312 0.249123424291610718 -42.7843055725097656
38.8829154968261719 -29.7878589630126953 -67.121124267578125
-44.2337837219238281 38.634552001953125 6.84417009353637695
-30.73724365234375 94.3782272338867188 -15.3621721267700195
-7.91749715805053711 105.437599182128906 59.1304702758789062
5.12074804306030273 -2.2440946102142334 91.6543426513671875
41.5908966064453125 -47.7789649963378906 1.82285499572753906
-6.92177152633666992 -85.384735107421875 -94.468597412109375
-30.3158607482910156 -65.5552444458007812 -71.3189849853515625
25.3421287536621094 34.0849876403808594 60.220672607421875
47.5450057983398438 28.7478675842285156 -59.1910552978515625
-24.8475532531738281 60.7156410217285156 -48.177978515625
23.1054191589355469 7.47359800338745117 -83.1021270751953125
-35.2828407287597656 -64.4646759033203125 -41.8159446716308594
7.96107959747314453 50.5337638854980469 85.8490982055664062
29.3194370269775391 100.955863952636719 -31.8548221588134766
-29.3224468231201172 29.9401664733886719 -44.62274169921875
20.8731708526611328 -104.906883239746094 -19.4546051025390625
-12.4071016311645508 -123.470008850097656 15.2935762405395508
30.1375694274902344 16.5210285186767578 -79.6453323364257812
-41.2916221618652344 -30.0818920135498047 22.6878681182861328
-0.630728423595428467 132.166000366210938 13.9899873733520508
34.7225570678710938 34.3861579895019531 -13.7978610992431641
-42.5842056274414062 -13.9087438583374023 29.6376495361328125
-16.2938404083251953 67.176300048828125 3.54961991310119629
-33.9258308410644531 -78.3121185302734375 27.0065250396728516
-30.2147006988525391 120.418052673339844 16.0439910888671875
-29.2969646453857422 17.7194099426269531 -51.6162300109863281
34.2743721008300781 84.3442840576171875 13.210658073425293
-16.6500301361083984 87.135711669921875 -35.5908088684082031
-33.0689163208007812 -8.36981868743896484 -50.5909309387207031
-29.712982177734375 -56.8298988342285156 81.2483596801757812
29.9250984191894531 -38.9796791076660156 -93.7406082153320312
34.9570732116699219 -78.1216888427734375 7.44223594665527344
44.6102066040039062 -11.9622049331665039 -28.7839145660400391
-53.5976676940917969 67.8242111206054688 7.9533076286315918
31.1743068695068359 106.078620910644531 1.98291420936584473
-35.7513961791992188 -35.6782913208007812 -29.3380279541015625
-43.3324203491210938 12.5314950942993164 10.0158863067626953
-45.4037857055664062 14.943995475769043 65.400970458984375
13.9386806488037109 69.7400588989257812 -91.6290435791015625
-19.0310764312744141 97.1662521362304688 -50.5261306762695312
-39.2743263244628906 95.0185546875 -3.24074172973632812
-20.9136009216308594 60.7959747314453125 41.6095504760742188
8.08517265319824219 -10.6563825607299805 91.6953353881835938
21.0394973754882812 32.19830322265625 73.7027511596679688
-37.8170242309570312 -25.4268360137939453 50.3134994506835938
-23.8814296722412109 29.8820209503173828 -62.4665603637695312
28.9307613372802734 59.9390983581542969 -43.7509231567382812
28.2896461486816406 -5.65659523010253906 -80.056121826171875
31.8204212188720703 82.1828155517578125 -27.5883388519287109
40.9842185974121094 -54.7482643127441406 17.3507442474365234
-8.79933834075927734 134.16827392578125 -7.96493244171142578
-22.6680908203125 -103.157997131347656 31.8188304901123047
33.3560371398925781 98.0198516845703125 22.5595588684082031
29.1092948913574219 -92.927764892578125 -59.3387985229492188
-36.0140304565429688 55.5563583374023438 22.0390548706054688
17.2991371154785156 -118.094871520996094 57.4655494689941406
33.5056648254394531 77.671112060546875 -21.8713111877441406
36.1818923950195312 -103.748176574707031 35.4259490966796875
28.7661304473876953 -98.9882659912109375 -46.2993011474609375
-29.6895904541015625 -55.4963264465332031 54.388397216796875
29.1923999786376953 -95.7687225341796875 -83.4825057983398438
-27.8393039703369141 -114.732337951660156 -72.7886581420898438
-25.7018852233886719 49.7889976501464844 -32.7748222351074219
-31.2320537567138672 115.080276489257812 -4.27700328826904297
36.0383529663085938 -101.006500244140625 50.1920394897460938
-15.889185905456543 41.8364677429199219 -81.7745285034179688
25.3802719116210938 -30.2277259826660156 58.6261253356933594
31.5250167846679688 77.7551727294921875 35.3694801330566406
36.1340370178222656 38.4651222229003906 -0.9594382643699646
-31.3725967407226562 14.071080207824707 -23.4240379333496094
10.6730079650878906 -123.830924987792969 35.3271675109863281
37.59039306640625 -77.4717254638671875 62.9090118408203125
-34.0937614440917969 -72.6260910034179688 -57.5780754089355469
-34.41119384765625 -43.8775520324707031 9.49474906921386719
-19.5734596252441406 -100.830390930175781 74.6120758056640625
33.9949531555175781 39.9589691162109375 -16.0074596405029297
-36.0152435302734375 33.60247802734375 52.7096900939941406
-26.4763145446777344 38.63824462890625 -18.5123424530029297
35.1581268310546875 -57.4020423889160156 -55.6631431579589844
47.5664520263671875 1.80909299850463867 -13.5247936248779297
-21.7650012969970703 59.1259346008300781 44.9512825012207031
-8.34562492370605469 108.226753234863281 38.3735389709472656
40.2699966430664062 30.1799716949462891 -23.9240455627441406
-27.1457633972167969 -115.860702514648438 -45.0391197204589844
5.17083024978637695 58.6260108947753906 -90.4869918823242188
-15.9501676559448242 -1.92611968517303467 86.2397003173828125
-28.9026298522949219 4.91422843933105469 65.975372314453125
39.3751068115234375 -24.9301071166992188 -73.23223876953125
49.0301017761230469 25.1894912719726562 -39.1712455749511719
-44.212188720703125 35.5681304931640625 13.1736812591552734
30.1652812957763672 41.4939041137695312 41.2493057250976562
-11.5463972091674805 96.4630813598632812 -21.1626415252685547
-12.8575820922851562 98.3268814086914062 -10.4105377197265625
-39.6522941589355469 68.6062698364257812 -5.00067806243896484
-12.7832393646240234 -84.560699462890625 -97.7746963500976562
-41.5610847473144531 -33.8016128540039062 73.0269775390625
-34.2614860534667969 -20.3173713684082031 80.6555328369140625
-14.8581008911132812 53.0730056762695312 60.3634681701660156
41.3754844665527344 -45.170654296875 55.0759925842285156
50.4532966613769531 11.1005725860595703 23.6042728424072266
32.3126068115234375 99.132537841796875 34.995819091796875
31.3209190368652344 111.549613952636719 13.5103931427001953
-4.93050527572631836 -105.494026184082031 -85.95281982421875
-4.07088232040405273 -126.063316345214844 0.776771068572998047
5.23086309432983398 -83.6244430541992188 84.799835205078125
-8.59418773651123047 13.5855913162231445 -95.630218505859375
-33.4396934509277344 -9.86008930206298828 -30.2024517059326172
-19.5984954833984375 0.454975306987762451 59.1973686218261719
-33.9685516357421875 -72.7034072875976562 -26.3592548370361328
-26.1110038757324219 -100.440460205078125 -28.7823371887207031
-38.4179840087890625 18.3030147552490234 77.4628677368164062
-4.50647783279418945 -120.8524169921875 37.3448638916015625
13.7884721755981445 69.7786712646484375 78.480560302734375
-53.9451408386230469 67.1328582763671875 18.7732200622558594
50.1707572937011719 18.3195114135742188 -7.4965510368347168
35.5209274291992188 53.3427619934082031 4.29198026657104492
-24.4883251190185547 54.06610107421875 19.7448501586914062
-32.5338630676269531 99.3556442260742188 -26.3044910430908203
7.67365503311157227 41.2883148193359375 -98.1097183227539062
40.114166259765625 -20.3798961639404297 -78.5589065551757812
-4.14875221252441406 50.5610427856445312 85.2610092163085938
-8.83225631713867188 100.165390014648438 36.2325820922851562
-32.7989845275878906 -69.4003524780273438 -8.97397136688232422
31.4240055084228516 -77.6989822387695312 -48.4518623352050781
8.32681655883789062 -121.662101745605469 -51.7750015258789062
-25.1905612945556641 -101.53765869140625 72.8323516845703125
-26.8175888061523438 116.552116394042969 -25.4176521301269531
30.6624069213867188 104.213569641113281 -17.7384624481201172
-24.4455299377441406 -108.476524353027344 -23.7051315307617188
-17.3589935302734375 7.67300319671630859 74.0727386474609375
-34.864654541015625 22.1197681427001953 1.01584696769714355
50.2517051696777344 30.4282703399658203 -34.5379257202148438
45.0073890686035156 -20.3075904846191406 24.0780735015869141
50.5114097595214844 12.5896291732788086 50.7996101379394531
33.7939910888671875 -82.333343505859375 -15.5036468505859375
25.7687320709228516 -90.8389434814453125 68.8352584838867188
22.3812484741210938 -36.1130256652832031 -81.6778640747070312
44.6974029541015625 -20.6323909759521484 -4.75706100463867188
-49.5168838500976562 6.19891166687011719 63.4508399963378906
-27.6797447204589844 0.704973936080932617 54.7985877990722656
-35.1815948486328125 -61.5321273803710938 22.5323600769042969
-7.83744239807128906 134.640090942382812 -27.7907199859619141
2.13752031326293945 117.899085998535156 42.4771995544433594
-25.5615978240966797 -46.9406547546386719 74.0571212768554688
-10.1013994216918945 95.6386184692382812 -80.3579483032226562
-31.7099514007568359 34.4360885620117188 10.0093994140625
-34.8561592102050781 -24.6698703765869141 -33.542144775390625
-14.5592117309570312 57.2803993225097656 60.4246864318847656
52.9839820861816406 24.2590389251708984 30.6458511352539062
-35.2635650634765625 43.1320648193359375 6.55587863922119141
28.3306674957275391 -12.765721321105957 -82.8619766235351562
30.7588138580322266 46.9985885620117188 43.4597969055175781
19.6335716247558594 50.8177490234375 -87.3269424438476562
-42.2463912963867188 13.9760141372680664 72.6934432983398438
-36.4139976501464844 56.9770469665527344 23.6099319458007812
-17.6519412994384766 90.8881454467773438 -42.06768798828125
-16.5258960723876953 64.7557525634765625 -84.1546630859375
-23.4209480285644531 43.2220802307128906 59.0716285705566406
-4.36014604568481445 119.078582763671875 -60.4978828430175781
23.2061691284179688 12.9699878692626953 60.7551116943359375
2.42764616012573242 -116.266502380371094 41.8066940307617188
35.7550697326660156 -69.6545867919921875 -14.3367853164672852
3.93065619468688965 77.4885482788085938 -80.5754013061523438
44.7770500183105469 -15.1452827453613281 -11.2099475860595703
-32.5016899108886719 43.1595039367675781 26.8520698547363281
8.41295242309570312 -122.14337158203125 36.9758415222167969
8.09586048126220703 33.3378791809082031 88.091461181640625
-44.8225173950195312 84.2561111450195312 7.20217990875244141
-12.9535560607910156 85.22674560546875 -5.57458305358886719
38.9990348815917969 25.4604549407958984 37.612030029296875
47.51458740234375 10.7191658020019531 -36.2984046936035156
-34.5702018737792969 -72.1115341186523438 26.1849899291992188
-39.1508636474609375 2.83173751831054688 5.6365513801574707
35.92315673828125 -86.6720962524414062 34.5147933959960938
34.5855903625488281 81.122467041015625 -2.07506418228149414
-34.121978759765625 79.805511474609375 -5.96928787231445312
30.4631805419921875 64.79461669921875 51.9573020935058594
-28.9929122924804688 -75.969573974609375 49.9542007446289062
-39.4718589782714844 -35.0338554382324219 31.1771221160888672
12.9036235809326172 -63.9404830932617188 -91.1453094482421875
-3.10818648338317871 -123.851905822753906 -46.9359245300292969
-23.9454727172851562 124.628257751464844 10.5061416625976562
-3.85555887222290039 -102.509567260742188 -90.6908416748046875
32.71527099609375 11.6580562591552734 41.5954971313476562
7.88583564758300781 -78.1165237426757812 87.802947998046875
-40.2479171752929688 -44.7824745178222656 80.1161270141601562
-4.2993016242980957 87.4415206909179688 -77.9554824829101562
40.6090583801269531 -42.9635543823242188 -20.7064304351806641
-6.56983184814453125 -6.38590240478515625 90.9662628173828125
26.8298206329345703 71.7491226196289062 -50.1550331115722656
21.4289531707763672 -101.15106201171875 -35.7671661376953125
15.3592081069946289 134.659347534179688 -32.5441932678222656
-46.2085456848144531 62.557342529296875 -11.6745977401733398
-35.6648025512695312 -54.9334030151367188 -0.531534433364868164
17.5609970092773438 5.06900405883789062 -99.1257171630859375
-14.5948543548583984 -30.5353660583496094 -99.6898956298828125
-21.893524169921875 -22.9835262298583984 -82.2084197998046875
-35.4007186889648438 -50.3909378051757812 3.54446721076965332
35.5003700256347656 43.6842842102050781 26.0674076080322266
-24.9922122955322266 -0.890149533748626709 76.8586959838867188
16.1619606018066406 -111.019454956054688 -16.0799179077148438
-14.2031240463256836 -118.508346557617188 36.1883544921875
30.7741031646728516 66.9714736938476562 50.4961013793945312
-9.67756080627441406 -106.79974365234375 -70.5204391479492188
27.2425441741943359 104.089004516601562 -35.95941162109375
-20.2669334411621094 -80.141326904296875 -101.274055480957031
40.9992218017578125 -51.6150016784667969 47.1511459350585938
-15.98309326171875 -119.857582092285156 2.87994503974914551
13.9914627075195312 107.580451965332031 -76.7002944946289062
40.7964668273925781 -54.3774681091308594 57.3013114929199219
-8.25801658630371094 -121.522216796875 40.9639320373535156
46.4474639892578125 -19.0489559173583984 48.0611419677734375
-2.88023471832275391 100.147323608398438 68.0569076538085938
-29.0139446258544922 -23.1211700439453125 64.747314453125
43.6254425048828125 36.4253463745117188 -45.1097640991210938
35.8846244812011719 -89.661712646484375 37.4992408752441406
-24.4541206359863281 -101.297508239746094 -8.23832988739013672
33.315460205078125 91.811126708984375 7.06308460235595703
-17.1504325866699219 -85.5247344970703125 89.9116439819335938
36.6076393127441406 -91.8274002075195312 44.5243110656738281
35.4944915771484375 -80.9284439086914062 19.7927570343017578
-32.358062744140625 118.806892395019531 20.1511440277099609
51.4500350952148438 37.8911781311035156 -26.8343734741210938
35.8387451171875 -83.7801513671875 26.8585281372070312
-10.2954950332641602 86.59014892578125 43.3869285583496094
-29.5836734771728516 -68.081787109375 48.4795455932617188
12.676239013671875 125.734878540039062 -56.2070465087890625
25.6319179534912109 94.7936019897460938 -48.7526054382324219
51.6175270080566406 30.1572666168212891 -19.0302352905273438
-15.484248161315918 127.812797546386719 -2.57592272758483887
-43.3138236999511719 -12.4371871948242188 77.1548080444335938
30.9281272888183594 94.466033935546875 43.8521232604980469
16.3813915252685547 14.5650691986083984 78.357421875
-28.2074260711669922 99.0539932250976562 14.7423162460327148
-21.5033912658691406 -75.4678115844726562 -101.064834594726562
0.83536982536315918 116.889762878417969 47.7081260681152344
-12.9302854537963867 134.152816772460938 -12.7520437240600586
3.54497504234313965 128.863037109375 22.0748405456542969
-46.2910728454589844 37.6601181030273438 26.8601226806640625
35.9051017761230469 29.2232933044433594 -54.9589271545410156
20.0023212432861328 -113.654449462890625 71.110260009765625
-53.6070137023925781 67.6753768920898438 10.0903339385986328
22.7146759033203125 -57.9764671325683594 74.54339599609375
22.2908782958984375 42.2462158203125 72.9511032104492188
5.93311357498168945 72.2238922119140625 76.3019332885742188
-28.4581031799316406 -115.440704345703125 -69.0299453735351562
-24.2401638031005859 58.5434112548828125 -40.1770210266113281
-32.2460212707519531 39.2881889343261719 23.0444965362548828
-10.8340778350830078 90.6880874633789062 36.5733833312988281
-33.0021781921386719 -14.033228874206543 -15.2576436996459961
24.4634342193603516 44.9626350402832031 60.091705322265625
-28.1882801055908203 -100.718704223632812 73.6197280883789062
-26.7399883270263672 27.4466571807861328 -53.9381446838378906
3.19770383834838867 94.5243072509765625 59.7055778503417969
-35.3428993225097656 -33.0701026916503906 51.9284706115722656
-9.03117752075195312 -60.5883674621582031 93.9392547607421875
-7.48218584060668945 -120.937667846679688 43.1796150207519531
-30.2602500915527344 18.2912139892578125 70.8265838623046875
-23.5835685729980469 -24.7056388854980469 53.0790634155273438
20.1483879089355469 14.2036342620849609 73.7474746704101562
7.52640151977539062 75.700408935546875 -87.2769851684570312
-45.8234367370605469 -15.6600456237792969 81.8967742919921875
-30.3226242065429688 9.09138202667236328 -52.0852737426757812
-2.27189826965332031 47.5906562805175781 86.5108566284179688
-34.18365478515625 -24.8573760986328125 76.810455322265625
-13.0491609573364258 -119.309059143066406 43.0460700988769531
29.8049278259277344 -86.7962570190429688 -55.6487274169921875
34.0926895141601562 -88.0077667236328125 14.7012996673583984
30.0334205627441406 82.7183380126953125 43.9373931884765625
-12.3868865966796875 85.0699996948242188 -16.2877006530761719
-24.8346977233886719 -59.7726211547851562 -93.1468276977539062
-15.3048887252807617 81.5827713012695312 -25.2781639099121094
-33.1420211791992188 -103.293434143066406 57.7270545959472656
36.1587295532226562 -83.8474655151367188 30.9541110992431641
41.780303955078125 -45.6046257019042969 12.5597209930419922
25.1140956878662109 -68.8961639404296875 68.736328125
15.8413782119750977 23.6836318969726562 78.826812744140625
40.060882568359375 -63.9811935424804688 31.8787593841552734
-17.0281639099121094 -36.4900856018066406 73.3100662231445312
20.9848785400390625 -50.5817947387695312 77.9686355590820312
-11.1499834060668945 111.2247314453125 -71.102203369140625
-43.4547996520996094 20.7885608673095703 60.8860321044921875
25.9083175659179688 36.0489540100097656 49.847747802734375
-20.8782176971435547 54.1577339172363281 -64.8857803344726562
27.9089851379394531 96.089569091796875 -39.8455429077148438
-18.4575538635253906 111.077163696289062 -12.46563720703125
-19.6451530456542969 120.700508117675781 -61.5581436157226562
19.7303028106689453 -19.8753318786621094 67.3332366943359375
-30.5539150238037109 118.454383850097656 5.44475984573364258
-32.9274635314941406 -80.950897216796875 -38.4656982421875
25.6230297088623047 20.6381473541259766 -78.4137802124023438
-26.604217529296875 -54.2010269165039062 82.1144180297851562
-11.8624658584594727 109.013618469238281 -3.64882063865661621
14.7568759918212891 -72.6445693969726562 -86.6163558959960938
21.0123252868652344 99.37994384765625 65.8997421264648438
0.00896755419671535492 -108.46124267578125 -86.4477157592773438
30.4405956268310547 -3.37628626823425293 46.8417434692382812
-34.9116477966308594 -66.3746871948242188 -49.2396583557128906
20.3495693206787109 -18.5602855682373047 64.4525070190429688
-3.8511192798614502 -123.507568359375 -47.5291748046875
-24.0863456726074219 22.2392349243164062 -69.2318191528320312
-29.7196235656738281 108.588531494140625 -28.2925891876220703
-4.95130681991577148 126.637863159179688 -55.7684288024902344
-35.6541900634765625 -60.9704704284667969 -17.5458602905273438
14.9690790176391602 -123.027572631835938 34.4614982604980469
-18.7824687957763672 -98.62646484375 79.9718093872070312
46.4058914184570312 -18.5388755798339844 43.1412696838378906
-30.8370399475097656 -62.044830322265625 21.0554447174072266
-13.336212158203125 83.0635833740234375 8.41036510467529297
-18.9849681854248047 1.55989253520965576 -82.3830795288085938
28.3375091552734375 110.708473205566406 -27.49530029296875
-15.3640174865722656 120.923118591308594 2.14723968505859375
31.0251140594482422 -73.6899566650390625 -62.8745613098144531
-19.01837158203125 66.3110885620117188 -73.9599456787109375
-42.4052658081054688 -12.3446416854858398 36.396270751953125
-14.1487798690795898 82.0829391479492188 33.9875221252441406
19.4022769927978516 45.7016563415527344 -87.8730392456054688
33.2867050170898438 88.8530960083007812 -13.776153564453125
17.3441638946533203 -97.4562301635742188 -37.2638168334960938
29.70843505859375 129.618759155273438 3.72315645217895508
-20.5436687469482422 -112.429244995117188 13.9386978149414062
-32.7044296264648438 -0.688019752502441406 -46.7162551879882812
42.0586166381835938 -7.80717992782592773 -71.5144882202148438
-45.8339004516601562 36.4210281372070312 24.7488822937011719
-20.3171768188476562 108.878555297851562 -8.38751220703125
53.0421981811523438 29.1557655334472656 18.4092864990234375
21.07562255859375 94.9503631591796875 -73.1857452392578125
2.85174012184143066 -82.8296279907226562 -102.641372680664062
30.5842151641845703 -45.0618171691894531 52.3291435241699219
-18.1976032257080078 70.635589599609375 49.3662834167480469
16.5656719207763672 -13.0181207656860352 -92.6112442016601562
49.9385337829589844 35.8367042541503906 -45.4126434326171875
42.3655433654785156 33.0910835266113281 -61.0307960510253906
44.0609245300292969 37.2107009887695312 -35.9945259094238281
-44.465606689453125 87.011749267578125 9.72015380859375
32.0985527038574219 83.2788467407226562 31.5712966918945312
22.3623485565185547 -103.974906921386719 58.2600364685058594
42.7039871215820312 -29.2630634307861328 -6.67755270004272461
-39.6270904541015625 98.6802291870117188 3.34111833572387695
-41.4845542907714844 -36.0695953369140625 72.951446533203125
-25.9060535430908203 -89.8291473388671875 2.95534515380859375
34.2508316040039062 61.8249855041503906 -21.7101955413818359
-15.2432384490966797 -8.96509552001953125 86.147674560546875
-5.95043325424194336 -67.168701171875 94.70147705078125
21.5479068756103516 -99.6807022094726562 17.6292629241943359
-16.9041919708251953 117.202583312988281 -31.5046882629394531
1.01265072822570801 0.61460566520690918 92.3384552001953125
-12.9982538223266602 91.9211807250976562 16.0656242370605469
30.6529693603515625 66.4257583618164062 -34.1502418518066406
33.5813522338867188 -33.9558181762695312 61.6751670837402344
44.8263053894042969 -0.0718612521886825562 -49.0094413757324219
28.0636711120605469 70.8057861328125 -44.7908401489257812
-10.4971151351928711 120.101654052734375 -63.3099365234375
-52.508148193359375 58.1981582641601562 26.0703639984130859
35.4381790161132812 29.8505210876464844 -25.3865184783935547
19.3437175750732422 -19.4981212615966797 68.2079010009765625
-7.74649286270141602 -109.87158203125 -69.2560958862304688
-18.88922119140625 -98.6654891967773438 81.7031936645507812
-18.8822250366210938 65.1930999755859375 -27.2065181732177734
11.7334842681884766 123.108772277832031 -59.5350074768066406
1.96923649311065674 -6.32077550888061523 92.7625045776367188
-38.5658149719238281 3.34433579444885254 5.64362668991088867
-8.24475860595703125 30.3587188720703125 -95.8734664916992188
-12.5669231414794922 -4.3554692268371582 86.5563125610351562
-25.8700885772705078 50.3977699279785156 45.4945411682128906
17.2747230529785156 -113.748306274414062 -11.8618345260620117
36.0716438293457031 32.3796806335449219 -1.64566361904144287
19.1152725219726562 -23.7809333801269531 -84.8939056396484375
34.6219406127929688 28.0120525360107422 -55.811126708984375
-43.5713272094726562 11.515172004699707 20.3915138244628906
30.4062290191650391 53.0817680358886719 -38.4161224365234375
-4.76904392242431641 -117.392852783203125 -60.6473846435546875
-53.5596237182617188 0.829790830612182617 55.28948974609375
13.5664739608764648 -112.2808837890625 -33.6791915893554688
-29.8011035919189453 -69.4734115600585938 47.1047477722167969
21.7321681976318359 97.7883071899414062 -66.80084228515625
-3.86272263526916504 -120.035064697265625 38.7732429504394531
29.2145748138427734 -98.5533370971679688 -70.5517730712890625
-4.28621673583984375 -47.7828712463378906 -109.322456359863281
42.3860282897949219 30.5075359344482422 -67.5005416870117188
-29.7490901947021484 89.0450286865234375 6.0823664665222168
42.6173019409179688 -38.9464836120605469 7.77412796020507812
43.8668022155761719 -31.7989120483398438 7.75315618515014648
-30.5276775360107422 -82.222869873046875 45.3776130676269531
29.1972408294677734 98.72015380859375 65.5069122314453125
9.29692935943603516 43.4602279663085938 -97.3680267333984375
28.5826225280761719 -37.1706008911132812 53.7013664245605469
6.91394329071044922 120.026023864746094 35.6605873107910156
0.681901216506958008 119.177078247070312 45.372650146484375
18.8166999816894531 -6.77833318710327148 78.1980743408203125
-32.147308349609375 -9.85393619537353516 -3.03472805023193359
-20.2926750183105469 97.4000625610351562 -63.0655174255371094
-36.4076728820800781 -6.99969816207885742 84.5340805053710938
-34.2627182006835938 68.609466552734375 11.9495220184326172
25.1393394470214844 -96.9114837646484375 53.6463584899902344
32.2750129699707031 -83.6024627685546875 -29.7798118591308594
38.1665840148925781 17.92095947265625 49.3173751831054688
-20.9639949798583984 -107.343086242675781 14.8774747848510742
-27.9342308044433594 -42.4888916015625 -72.975616455078125
22.3533420562744141 129.912673950195312 -18.6458911895751953
26.3618583679199219 86.2279281616210938 -50.13177490234375
-34.2364311218261719 -24.9290962219238281 -20.8894386291503906
-22.6364822387695312 -106.355331420898438 54.1430892944335938
45.5778312683105469 8.02081298828125 -51.1989212036132812
-18.9329910278320312 -59.3802261352539062 63.3407058715820312
32.1673126220703125 -72.6404953002929688 68.8087615966796875
13.6059589385986328 18.9142780303955078 -98.0904693603515625
-18.7024097442626953 88.6178817749023438 -77.273529052734375
23.9036979675292969 49.3310661315917969 -70.7986526489257812
-2.26560521125793457 9.10613918304443359 -101.120872497558594
43.0131111145019531 -18.7628059387207031 -26.2192878723144531
-11.9901847839355469 4.35677433013916016 -90.0494766235351562
-13.51470947265625 -68.3594741821289062 -104.479339599609375
22.4013042449951172 26.0349178314208984 -80.9096145629882812
-36.9404525756835938 -45.9233856201171875 36.0566329956054688
-11.220393180847168 43.9426155090332031 -91.4218215942382812
-16.911468505859375 -39.9733009338378906 -97.7853622436523438
20.7854385375976562 -60.2593116760253906 -85.3219757080078125
-22.1002616882324219 -102.290992736816406 68.4175949096679688
28.7296428680419922 -99.7773818969726562 -50.6326446533203125
15.1773519515991211 -58.2962570190429688 -87.4639358520507812
-15.7954998016357422 52.8189353942871094 -82.339508056640625
-44.2514457702636719 36.1008262634277344 -2.8755946159362793
3.39867305755615234 135.865753173828125 -39.0733375549316406
39.1485824584960938 -59.3800239562988281 -4.77762937545776367
23.7488155364990234 -107.640708923339844 -4.41687154769897461
-19.8185253143310547 63.9228286743164062 42.848236083984375
30.0578899383544922 -85.0940093994140625 -52.7165985107421875
-33.0096588134765625 -30.4981288909912109 65.7626419067382812
24.4599552154541016 127.307212829589844 -43.9280509948730469
-20.1138515472412109 67.8745956420898438 -71.9350433349609375
-18.8806324005126953 56.8084564208984375 55.4678916931152344
32.279449462890625 19.8733425140380859 40.5902557373046875
-25.8308925628662109 123.851280212402344 15.3646507263183594
15.905400276184082 25.4575614929199219 79.9864883422851562
-30.3183040618896484 115.605293273925781 27.2703285217285156
45.3984222412109375 -6.84795331954956055 -19.7556228637695312
36.5036964416503906 -31.8001842498779297 66.4182357788085938
-27.4226818084716797 30.2088222503662109 14.4244804382324219
-29.4885406494140625 -76.8682403564453125 47.34820556640625
35.83880615234375 40.054718017578125 22.7822380065917969
29.3077602386474609 95.6871337890625 57.7018508911132812
-48.5873947143554688 79.6026077270507812 0.944272100925445557
50.0851211547851562 34.3162307739257812 -37.1786346435546875
-52.0654525756835938 75.7765960693359375 18.2022228240966797
-7.72965097427368164 -51.4384727478027344 -108.224197387695312
41.9404449462890625 -1.22509622573852539 -85.5547943115234375
-41.9493293762207031 95.9739151000976562 8.84339427947998047
34.6839675903320312 55.3155899047851562 25.5873222351074219
-32.9849853515625 -75.803741455078125 -24.0694923400878906
17.3295078277587891 71.2818603515625 78.7330093383789062
-0.437365561723709106 -78.9850006103515625 90.3959197998046875
-33.8161773681640625 -25.6314182281494141 -9.70546627044677734
-26.9029006958007812 -86.420013427734375 27.7065105438232422
1.72134125232696533 -108.102760314941406 -91.6365432739257812
25.2975387573242188 30.4512863159179688 62.8585433959960938
22.467987060546875 6.15371227264404297 56.2656898498535156
-11.2472143173217773 125.702079772949219 -57.9044647216796875
-6.30149030685424805 123.487228393554688 -58.1920738220214844
48.9022407531738281 7.0171809196472168 -0.176681861281394958
36.1372756958007812 44.1503028869628906 4.49268436431884766
32.4487724304199219 104.974899291992188 32.8515892028808594
30.7283458709716797 55.298980712890625 47.6861038208007812
-8.19780635833740234 -16.5242862701416016 -102.071266174316406
-13.9587039947509766 -83.6457901000976562 92.390472412109375
46.1042404174804688 -19.7865867614746094 48.1620292663574219
-19.4852638244628906 36.0827865600585938 -73.0348129272460938
25.7580776214599609 -97.2580795288085938 -87.352142333984375
42.3915481567382812 31.855987548828125 0.290518909692764282
44.5439872741699219 11.7504692077636719 -65.4340057373046875
-27.4172096252441406 -50.0359268188476562 83.943695068359375
6.70195102691650391 25.7662811279296875 89.8339920043945312
-14.3669252395629883 -6.30263805389404297 75.5748138427734375
-35.9861640930175781 -14.8430871963500977 88.2039718627929688
-17.8613147735595703 38.8993148803710938 -75.3600387573242188
-32.5619888305664062 -84.0464553833007812 -65.9015045166015625
-29.4589252471923828 -0.240895137190818787 -60.6920204162597656
42.245361328125 -44.7686614990234375 16.3648815155029297
-41.4109039306640625 60.0884056091308594 28.8574466705322266
49.5855903625488281 10.1470146179199219 18.3904800415039062
-32.6480674743652344 -65.383453369140625 6.27394628524780273
-28.2273426055908203 -60.0592842102050781 -82.9261245727539062
-13.861358642578125 115.505813598632812 -69.613525390625
-35.5305862426757812 -39.2183189392089844 74.887359619140625
15.4396181106567383 -7.05010175704956055 80.6137924194335938
-14.1897602081298828 111.752700805664062 -41.1407546997070312
18.8497600555419922 40.2345352172851562 75.694091796875
-17.7947349548339844 120.282203674316406 -51.1021804809570312
31.9553012847900391 -101.927352905273438 51.6896858215332031
17.8929309844970703 35.0537796020507812 -96.4067306518554688
23.2841854095458984 56.0963592529296875 73.8734359741210938
29.0815620422363281 -65.6535415649414062 58.1948966979980469
-32.1014671325683594 32.4928321838378906 74.857635498046875
36.0513725280761719 -64.7370071411132812 -34.0264739990234375
44.7340469360351562 35.7050704956054688 3.684173583984375
-30.7324657440185547 -81.4376144409179688 -83.4334640502929688
36.1708908081054688 67.7702865600585938 10.5380382537841797
-31.1590461730957031 -48.8667335510253906 -67.860382080078125
-6.49921941757202148 53.0886726379394531 80.7968368530273438
25.7852230072021484 -91.751251220703125 69.64556884765625
-27.2182407379150391 -4.73943233489990234 58.3243675231933594
32.4945297241210938 86.5777359008789062 29.9617843627929688
23.8707141876220703 58.6696205139160156 73.6030120849609375
49.2567520141601562 6.32184600830078125 6.57159233093261719
44.2951545715332031 -27.5126934051513672 5.79705381393432617
-31.0525436401367188 -82.5263290405273438 -25.3774280548095703
-25.9393291473388672 49.7407188415527344 65.2708206176757812
-50.2962188720703125 74.724578857421875 8.56114006042480469
44.7623558044433594 -20.9423675537109375 -4.03570795059204102
-16.0179729461669922 -122.284431457519531 -11.5927248001098633
25.4798908233642578 56.1023330688476562 61.9636459350585938
-26.1159229278564453 23.9522151947021484 -60.1860885620117188
23.3345241546630859 -19.8824386596679688 -81.6114578247070312
-46.4882545471191406 77.6950225830078125 -6.54174089431762695
-7.20224189758300781 70.1583633422851562 78.4869384765625
-36.5830421447753906 77.8924179077148438 18.7456340789794922
-30.2237281799316406 -18.6085472106933594 -59.5828094482421875
13.6218786239624023 17.7722244262695312 -98.1275863647460938
9.92937755584716797 29.0578594207763672 87.9779281616210938
9.51001167297363281 -122.871391296386719 -27.7001457214355469
38.5455970764160156 -71.350006103515625 25.4282073974609375
-27.3786945343017578 -8.38336753845214844 51.0614280700683594
-19.3726558685302734 88.7741851806640625 -65.7517929077148438
-32.0385704040527344 -72.9522857666015625 34.9676628112792969
-33.0399513244628906 -70.4344863891601562 -13.1558456420898438
-6.90780067443847656 134.82110595703125 -17.9256477355957031
-19.3097457885742188 126.748847961425781 15.3111066818237305
-34.6417961120605469 -40.2527275085449219 -49.6880226135253906
-23.9340572357177734 -113.607109069824219 -10.6854333877563477
-39.3505592346191406 -23.3258247375488281 57.8010215759277344
34.2677574157714844 13.7562036514282227 50.2519111633300781
52.1879463195800781 23.6634464263916016 35.8566818237304688
-32.1284523010253906 -8.22601127624511719 8.28233051300048828
-33.2270622253417969 -48.536895751953125 82.1678085327148438
-30.9154129028320312 48.2095680236816406 65.9125900268554688
1.92078840732574463 6.82407903671264648 -103.223548889160156
-21.4262046813964844 -57.2628326416015625 60.0494575500488281
29.9415550231933594 -90.883392333984375 -77.4028701782226562
-6.49885177612304688 -107.380447387695312 72.391448974609375
28.5549945831298828 -48.2350502014160156 54.5175209045410156
40.9348258972167969 -15.2289037704467773 -80.50738525390625
33.6759757995605469 -104.145370483398438 -3.84225678443908691
18.6470737457275391 32.1467552185058594 75.9681320190429688
11.5503616333007812 133.9425048828125 -21.2479190826416016
-31.5883369445800781 -63.5625076293945312 22.1849918365478516
18.1557273864746094 48.9313926696777344 -95.2269210815429688
-33.838897705078125 35.5793914794921875 60.9659309387207031
-17.4002914428710938 78.3822250366210938 -81.929595947265625
-50.0438652038574219 57.1910285949707031 2.49112081527709961
-27.6475315093994141 45.6348762512207031 -36.3984909057617188
23.1225681304931641 -107.615936279296875 -2.07342243194580078
-34.6407623291015625 -33.7582817077636719 83.4556808471679688
-13.3809385299682617 93.91424560546875 30.2449760437011719
8.71371555328369141 -96.3363800048828125 -93.7951126098632812
-35.4326629638671875 -39.0255813598632812 -17.1501865386962891
-42.3352699279785156 -16.4532051086425781 29.1194934844970703
-48.2478828430175781 86.48980712890625 21.3621082305908203
-32.4594612121582031 -61.4041824340820312 12.8899717330932617
-32.2851638793945312 19.8389320373535156 76.7417755126953125
3.18650054931640625 -119.973655700683594 -60.9963035583496094
30.9618625640869141 -104.352531433105469 -41.3340263366699219
16.3088703155517578 13.6222743988037109 78.0316009521484375
-24.2076148986816406 -51.3796730041503906 -89.4593963623046875
-19.0354194641113281 -45.9310302734375 85.3226089477539062
42.9512939453125 -38.3997077941894531 17.9337978363037109
17.6366157531738281 132.469390869140625 1.09999263286590576
49.6726722717285156 14.2534332275390625 -8.32521152496337891
-34.5640487670898438 -4.56577062606811523 80.8194503784179688
21.9029941558837891 122.565238952636719 32.5479621887207031
22.1124534606933594 4.15590715408325195 68.9457626342773438
10.0805301666259766 128.14959716796875 10.7241888046264648
42.8521080017089844 -3.22585892677307129 -65.0456466674804688
11.9364900588989258 70.3882293701171875 -90.2512283325195312
44.408905029296875 -26.0315570831298828 51.2178535461425781
-17.8286514282226562 81.8822021484375 -48.425811767578125
-14.0698671340942383 -123.639083862304688 -8.88048458099365234
-28.7483844757080078 -84.1877288818359375 -13.3103303909301758
-43.7974128723144531 67.668853759765625 27.4177169799804688
-10.8577594757080078 -47.6447029113769531 92.2243576049804688
12.9348430633544922 -113.120758056640625 -37.5277938842773438
-28.6675148010253906 8.8876495361328125 83.9363021850585938
14.8511209487915039 -36.7599029541015625 -88.992095947265625
42.7486419677734375 -35.9727935791015625 27.8359947204589844
-6.566375732421875 -123.315811157226562 13.9822063446044922
34.1306838989257812 -86.2562637329101562 8.32951450347900391
22.4784030914306641 98.1561813354492188 66.3587417602539062
38.817047119140625 -40.7654380798339844 -36.1164627075195312
-21.157135009765625 11.5054721832275391 71.8341217041015625
-16.3539867401123047 124.037750244140625 -39.734466552734375
-47.9812431335449219 85.5140838623046875 19.0040664672851562
21.6324291229248047 130.771865844726562 -10.7696590423583984
-46.7669525146484375 -16.8868904113769531 81.3165206909179688
-0.90966421365737915 115.954788208007812 -61.0654525756835938
23.2669277191162109 31.4180393218994141 68.427978515625
-28.6747379302978516 -66.0559921264648438 -79.3969802856445312
-17.1866950988769531 67.0553970336914062 -79.0537490844726562
-29.7369899749755859 27.6457157135009766 -22.0337810516357422
-13.5515451431274414 133.44085693359375 -39.3282241821289062
-26.7335319519042969 116.151229858398438 -27.5401382446289062
-28.9031219482421875 -63.7541961669921875 -78.8412399291992188
27.3554115295410156 1.03158390522003174 -78.6521148681640625
-10.0114173889160156 56.6650466918945312 72.7346572875976562
53.3358116149902344 35.6393203735351562 -0.251041680574417114
-31.9488964080810547 -54.5438613891601562 47.092498779296875
37.9247398376464844 -25.2954387664794922 65.9947280883789062
28.9129219055175781 -95.5748825073242188 -55.5056304931640625
13.3256711959838867 51.6751251220703125 -94.3941192626953125
-2.65742230415344238 -11.5347528457641602 -105.150428771972656
-16.9441413879394531 105.365097045898438 -45.8383407592773438
-35.1938323974609375 -60.1999626159667969 -7.43731880187988281
-40.2361106872558594 -41.2218170166015625 17.3949298858642578
-28.7560405731201172 -105.089591979980469 -68.8362274169921875
37.1864852905273438 -82.3050155639648438 44.5780258178710938
-41.5789451599121094 56.9068183898925781 -4.64237880706787109
29.1692123413085938 -94.8853912353515625 -50.0594749450683594
-20.2389392852783203 96.12432861328125 -63.9353485107421875
-44.7463150024414062 -39.3638648986816406 74.68756103515625
-6.73590612411499023 103.033058166503906 66.1595458984375
25.3165550231933594 69.8586044311523438 72.9261550903320312
22.6067180633544922 10.2556037902832031 -83.7207717895507812
13.0310688018798828 45.0701560974121094 81.695404052734375
23.2907390594482422 -101.67535400390625 79.3236083984375
-27.7300071716308594 1.21481192111968994 87.913726806640625
-24.132476806640625 18.1563701629638672 -70.475921630859375
-14.4565200805664062 106.037132263183594 20.8635215759277344
-21.7902812957763672 58.9224662780761719 -30.398193359375
-8.80716228485107422 -122.425483703613281 -46.8113746643066406
17.21746826171875 -93.0861434936523438 -83.7641754150390625
-28.1357212066650391 46.2879104614257812 49.2047767639160156
28.3404426574707031 15.6277332305908203 -76.9943923950195312
-32.755889892578125 -79.8275299072265625 -68.8707809448242188
-34.2125015258789062 38.0487442016601562 39.4185142517089844
-18.134857177734375 -39.2850761413574219 85.1156005859375
15.1371030807495117 -8.03398609161376953 -100.903556823730469
26.5647830963134766 129.505386352539062 7.98709011077880859
