ply
format ascii 1.0
element vertex 790
comment vertices
property float x
property float y
property float z
end_header
-87.5108261108398438 92.79351806640625 61.3691177368164062
-71.920989990234375 -104.838157653808594 107.640998840332031
1.12181389331817627 98.0032806396484375 -150.400558471679688
146.770828247070312 -98.5209884643554688 -10.0930814743041992
-39.95697021484375 169.7264404296875 5.5501556396484375
-91.0860061645507812 -11.5815534591674805 75.0769805908203125
-0.286646366119384766 -30.5415821075439453 178.396224975585938
152.707443237304688 -142.768035888671875 -35.8311271667480469
-98.36517333984375 -65.7495040893554688 78.5072174072265625
-74.4004440307617188 -10.6903038024902344 -8.03893852233886719
-27.3732948303222656 136.679885864257812 -93.09100341796875
-36.8191452026367188 166.349807739257812 -8.99622440338134766
-69.068572998046875 107.363845825195312 24.7967128753662109
47.4932441711425781 16.3905525207519531 134.310775756835938
30.0405101776123047 83.970184326171875 -158.105911254882812
28.5449581146240234 7.40486669540405273 182.771957397460938
-61.3088340759277344 -53.1000747680664062 120.206108093261719
-60.5393028259277344 184.271896362304688 6.7582097053527832
-25.3957042694091797 -92.0030441284179688 155.3165283203125
137.593017578125 -39.4553070068359375 19.1616287231445312
37.4455680847167969 120.176971435546875 116.990386962890625
-67.1190032958984375 67.5516128540039062 77.2812118530273438
116.329299926757812 5.72017145156860352 27.3345546722412109
-9.3596954345703125 9.21628570556640625 -188.398422241210938
88.0465087890625 -58.7719345092773438 -149.82122802734375
29.2109165191650391 -80.1240997314453125 157.667633056640625
-38.4773635864257812 -75.8594207763671875 -174.28753662109375
-19.7729148864746094 177.718231201171875 -30.6113777160644531
60.3868637084960938 66.18951416015625 124.855987548828125
149.646804809570312 -115.324684143066406 -87.2227935791015625
-3.5001530647277832 -178.65936279296875 -123.367584228515625
37.0595932006835938 -137.609893798828125 143.938446044921875
29.4813976287841797 218.881561279296875 -106.324127197265625
22.6036491394042969 -113.673431396484375 149.086456298828125
66.5045928955078125 -80.35205078125 130.014678955078125
-93.6618881225585938 -162.383926391601562 -61.294464111328125
-5.31765365600585938 -195.77398681640625 -115.916839599609375
-31.0604991912841797 102.111900329589844 -122.177696228027344
-21.4958686828613281 215.971847534179688 -9.95543193817138672
-55.5225753784179688 22.7987098693847656 -92.0157928466796875
-45.8796653747558594 135.184158325195312 106.976799011230469
39.669281005859375 190.394699096679688 -110.957298278808594
-79.3680419921875 -94.9850387573242188 -13.0218687057495117
-16.8763866424560547 12.6079502105712891 158.271453857421875
-43.6909828186035156 222.844375610351562 93.2809295654296875
-60.3351669311523438 120.103355407714844 105.918838500976562
66.264312744140625 68.1757736206054688 113.506645202636719
20.5643482208251953 164.04010009765625 80.4192733764648438
-25.6407814025878906 109.60906982421875 -149.672943115234375
32.2185134887695312 164.05816650390625 -45.6711616516113281
-55.1625404357910156 -190.854873657226562 -106.771041870117188
-41.8179817199707031 -102.147933959960938 151.191070556640625
58.2063255310058594 44.8792800903320312 -109.725807189941406
1.85548055171966553 -217.43115234375 60.0765762329101562
-16.2998085021972656 -65.0901260375976562 152.035812377929688
-57.4908065795898438 167.935791015625 87.2764892578125
54.4277877807617188 -76.42120361328125 151.257644653320312
-11.9537792205810547 167.480209350585938 -44.5581512451171875
36.5541725158691406 0.639921367168426514 -211.18341064453125
-34.8277511596679688 90.3581161499023438 -115.616477966308594
143.64630126953125 -65.5016937255859375 66.8135223388671875
-66.2129364013671875 44.9657325744628906 116.469947814941406
-30.8439483642578125 291.663665771484375 29.1017837524414062
32.6884040832519531 -66.8311843872070312 161.901458740234375
-51.505035400390625 95.8494720458984375 23.4275321960449219
8.13397026062011719 -161.114227294921875 -141.82574462890625
-78.9135513305664062 -0.448143869638442993 -12.5669031143188477
-13.8709659576416016 68.5586624145507812 130.161056518554688
-73.4126510620117188 -107.71661376953125 -165.8243408203125
6.96505165100097656 -214.151321411132812 4.22878789901733398
-38.1693267822265625 156.738693237304688 6.79709625244140625
97.97564697265625 -178.621185302734375 -120.568145751953125
-71.9928131103515625 124.136116027832031 28.9389667510986328
-83.956390380859375 -174.827545166015625 82.6644821166992188
0.299911946058273315 -200.545486450195312 -99.973419189453125
-93.09332275390625 -107.617507934570312 127.381889343261719
7.95272207260131836 28.3060569763183594 -146.004653930664062
-26.9140357971191406 -202.194595336914062 25.1047306060791016
55.5341072082519531 26.799835205078125 -162.67120361328125
-55.4800872802734375 -32.4473190307617188 -105.907814025878906
-87.8137969970703125 -81.4981613159179688 -46.7615737915039062
134.66064453125 -161.198562622070312 -86.0156097412109375
-15.2704362869262695 -160.720382690429688 146.657455444335938
122.007347106933594 -169.180221557617188 -48.1257095336914062
-46.7818527221679688 -66.1987991333007812 -161.780502319335938
70.201995849609375 -90.5573043823242188 -181.746856689453125
-95.4256973266601562 -66.3284225463867188 29.7188644409179688
-67.4313583374023438 77.1933975219726562 -61.3547172546386719
67.0621795654296875 78.9375457763671875 76.61279296875
-98.27783203125 -69.9571609497070312 80.736297607421875
-43.3296012878417969 106.025154113769531 -3.62145447731018066
-37.1043014526367188 -57.4806442260742188 -168.806793212890625
-67.4120330810546875 208.819351196289062 57.9219398498535156
-52.3521537780761719 250.767105102539062 39.7093505859375
51.62127685546875 -199.641387939453125 -104.447273254394531
-40.504852294921875 304.837188720703125 -26.1703815460205078
-17.4085483551025391 12.120513916015625 -174.8353271484375
-33.1511116027832031 124.92431640625 125.710067749023438
-2.53596878051757812 -81.0453567504882812 166.843521118164062
51.00152587890625 -204.968231201171875 53.3679733276367188
-90.511749267578125 49.5416259765625 32.4251937866210938
97.1230697631835938 -184.084808349609375 -55.2331199645996094
-20.4834442138671875 201.223068237304688 -125.006065368652344
-15.3022146224975586 104.317680358886719 130.588119506835938
-87.7988128662109375 -161.291885375976562 73.896331787109375
-24.7831821441650391 64.9914703369140625 -154.289718627929688
80.7764434814453125 -188.688522338867188 -73.709136962890625
-51.7958335876464844 100.350486755371094 121.228248596191406
-58.0314826965332031 -102.757194519042969 -159.433639526367188
-45.3010139465332031 107.595710754394531 -32.3674964904785156
-74.1087493896484375 -167.184646606445312 128.235671997070312
118.164871215820312 -12.2943696975708008 -34.4895286560058594
63.174102783203125 -213.711929321289062 41.4406089782714844
52.4879684448242188 113.602882385253906 84.5657577514648438
-91.2126541137695312 9.31586551666259766 20.4179878234863281
-53.2130775451660156 193.120803833007812 86.1592483520507812
-27.8987998962402344 140.413909912109375 -94.5535507202148438
-86.3815994262695312 -96.1577911376953125 18.7402610778808594
-47.3213996887207031 -47.518310546875 159.123886108398438
-7.42124843597412109 259.94464111328125 -13.5845260620117188
-24.4460544586181641 -167.648040771484375 -140.847824096679688
55.5698814392089844 104.25714111328125 -0.0862943083047866821
66.0156707763671875 -145.43389892578125 -141.231109619140625
-10.2396144866943359 193.960723876953125 107.613945007324219
14.616729736328125 -189.520172119140625 120.572799682617188
10.8171062469482422 -209.613082885742188 67.2883834838867188
142.765304565429688 -123.169731140136719 109.417930603027344
-30.271209716796875 257.36407470703125 -75.3752899169921875
50.5773735046386719 -5.46659517288208008 -145.518951416015625
59.0016860961914062 -209.67242431640625 -76.0974884033203125
-74.5079116821289062 -24.4688720703125 -71.1746139526367188
97.6138763427734375 22.6928119659423828 103.613151550292969
12.4987802505493164 251.17657470703125 -64.7238693237304688
-35.0860824584960938 189.320755004882812 -14.0912017822265625
29.6403465270996094 227.414794921875 -91.7558441162109375
-60.5143814086914062 148.264144897460938 -65.7533721923828125
-84.1688766479492188 154.858734130859375 59.9958763122558594
-52.5358123779296875 -112.607772827148438 -131.6751708984375
24.9748134613037109 -31.2300930023193359 156.106781005859375
21.6108303070068359 236.625778198242188 -103.235877990722656
-71.204559326171875 -179.143173217773438 -67.6785659790039062
-7.68728017807006836 279.619140625 -80.4134292602539062
-50.8219757080078125 246.162094116210938 66.477783203125
-75.6327056884765625 -192.978408813476562 18.3750782012939453
-29.9036331176757812 182.945404052734375 105.386245727539062
144.902389526367188 -74.3416213989257812 73.9037094116210938
-70.277862548828125 -179.090744018554688 -95.2511367797851562
-15.4164018630981445 101.382698059082031 126.190040588378906
72.2567977905273438 36.9605865478515625 125.516822814941406
-97.6098556518554688 -71.2759780883789062 64.1865310668945312
79.8397674560546875 -202.25335693359375 -79.6950759887695312
35.9810829162597656 -214.785537719726562 -22.9907474517822266
-47.2763938903808594 189.567794799804688 41.004302978515625
68.4708938598632812 -138.814712524414062 -145.509872436523438
-69.2435073852539062 -13.0060739517211914 135.786788940429688
-6.35293388366699219 48.5535202026367188 -158.099624633789062
-69.9865798950195312 14.1462726593017578 -8.25650501251220703
55.5844917297363281 57.042755126953125 -110.554206848144531
21.6589336395263672 5.00153446197509766 -174.083419799804688
156.7833251953125 -117.434234619140625 30.8473072052001953
39.749603271484375 120.958709716796875 -75.3445587158203125
-57.7900428771972656 -30.9675521850585938 -93.09527587890625
117.8326416015625 -27.7570018768310547 130.17071533203125
-58.2687149047851562 49.1931877136230469 128.462020874023438
44.0682525634765625 52.5737800598144531 -156.908584594726562
30.9229068756103516 133.859115600585938 -46.3717041015625
50.8967971801757812 102.488334655761719 -36.1669807434082031
21.0473117828369141 -213.049652099609375 42.1583518981933594
3.84749650955200195 68.8149185180664062 -154.715805053710938
-0.110268868505954742 171.7811279296875 11.5743818283081055
12.4264087677001953 -7.01262807846069336 -190.947113037109375
-69.1100692749023438 96.63970947265625 -63.4383201599121094
-85.9299163818359375 -137.527435302734375 1.07731080055236816
61.4624443054199219 0.723976850509643555 -203.657135009765625
-15.7831153869628906 256.97528076171875 40.2346763610839844
153.933013916015625 -108.130729675292969 51.0342941284179688
-36.7575340270996094 -209.364227294921875 77.252166748046875
41.3167762756347656 12.5758991241455078 171.287338256835938
84.7525787353515625 -81.067901611328125 142.818466186523438
22.6243610382080078 -143.485549926757812 142.383987426757812
-8.23090934753417969 252.280960083007812 -58.8261489868164062
-11.7335987091064453 5.81222963333129883 -176.671905517578125
-29.7395820617675781 41.9085884094238281 -156.0830078125
-9.23846626281738281 -2.22139072418212891 160.179428100585938
118.660354614257812 -37.0714759826660156 -65.1410369873046875
-22.8879585266113281 229.390945434570312 90.4712066650390625
7.56287288665771484 -192.230438232421875 -113.468025207519531
5.45826816558837891 174.59161376953125 16.7660465240478516
-32.6087722778320312 249.619338989257812 -47.1245651245117188
-16.7630729675292969 -199.851776123046875 100.838241577148438
79.7147903442382812 47.8828887939453125 14.4336404800415039
64.528228759765625 -49.8735084533691406 -187.493301391601562
-13.6833877563476562 57.1296806335449219 136.842239379882812
-97.4689559936523438 -66.3850479125976562 53.9794158935546875
73.6432723999023438 -161.384780883789062 126.060791015625
-32.9692955017089844 50.2654380798339844 -150.835311889648438
-29.1453723907470703 250.359695434570312 -46.2275390625
-30.3330059051513672 306.710784912109375 -32.3602867126464844
-59.6655235290527344 -77.1970748901367188 -92.9415435791015625
8.3986968994140625 183.586639404296875 99.7307205200195312
-54.5757713317871094 -76.5953598022460938 -146.789764404296875
-59.8435630798339844 129.453384399414062 -72.7484207153320312
-43.7537307739257812 231.177261352539062 -70.2469329833984375
84.8374710083007812 -96.9987030029296875 -170.525894165039062
10.2027835845947266 169.100921630859375 -67.151092529296875
-7.48778867721557617 204.21221923828125 -60.2532806396484375
34.4074668884277344 119.276237487792969 -126.650505065917969
74.0006561279296875 42.3617820739746094 119.592514038085938
62.1918869018554688 51.0561981201171875 -82.55096435546875
31.0635547637939453 74.684661865234375 131.328170776367188
-101.216407775878906 -97.7949295043945312 49.9667015075683594
-62.124481201171875 -48.7904586791992188 161.5198974609375
40.5991096496582031 125.348823547363281 -68.7291412353515625
-28.5015792846679688 -8.54635524749755859 185.917724609375
60.2857475280761719 17.0448188781738281 -157.76507568359375
-41.7607574462890625 -81.9646987915039062 152.825302124023438
-87.2090225219726562 55.6497611999511719 20.0897083282470703
-47.47955322265625 275.1820068359375 42.6891403198242188
-0.212827965617179871 -5.25520515441894531 192.587142944335938
-1.82726585865020752 -145.433822631835938 163.132919311523438
-60.0206184387207031 128.678985595703125 89.6575241088867188
137.360244750976562 -154.288970947265625 64.6536178588867188
-64.087615966796875 61.6220359802246094 120.357597351074219
45.7600364685058594 -76.7820587158203125 158.330474853515625
84.61175537109375 -195.782882690429688 -55.3214263916015625
62.1718292236328125 -202.800827026367188 26.8717479705810547
143.87188720703125 -136.385406494140625 -88.5120773315429688
69.5300750732421875 -90.3199539184570312 -182.158920288085938
105.252578735351562 -156.781173706054688 110.746330261230469
-35.659576416015625 297.697357177734375 18.6041240692138672
-30.7902488708496094 109.556259155273438 -98.2570266723632812
-54.6678199768066406 -19.0998172760009766 -111.620674133300781
-39.4115219116210938 -83.0982131958007812 -175.506546020507812
-59.4584541320800781 -129.38604736328125 -146.274383544921875
-91.2278213500976562 -134.461883544921875 32.3748321533203125
88.603363037109375 18.5704593658447266 121.5203857421875
-32.6349563598632812 -52.7918777465820312 -172.302215576171875
47.2356414794921875 24.6959800720214844 135.36956787109375
-74.2646331787109375 -188.981582641601562 78.1074295043945312
-75.2765960693359375 -6.04622173309326172 0.755832195281982422
-99.46099853515625 -52.6101417541503906 74.7731552124023438
-9.98035812377929688 251.667205810546875 -72.5714187622070312
-63.4090461730957031 77.7984237670898438 95.931365966796875
-51.0876655578613281 124.392997741699219 64.694976806640625
44.8300285339355469 -28.9981250762939453 -197.172225952148438
-56.2593727111816406 -197.931808471679688 -99.6343231201171875
-46.5452766418457031 -176.365219116210938 -145.266281127929688
-2.27339434623718262 -216.195053100585938 -25.1349315643310547
-11.0012435913085938 -217.83270263671875 12.0674877166748047
30.0471115112304688 -212.958465576171875 73.36517333984375
106.822700500488281 -44.0543632507324219 -97.4034194946289062
-8.03471946716308594 149.987503051757812 108.272811889648438
-56.3295402526855469 260.88348388671875 34.1947441101074219
140.980865478515625 -78.5233612060546875 -41.459869384765625
-1.89154088497161865 253.224273681640625 20.4571914672851562
141.944015502929688 -56.1715507507324219 44.0185050964355469
-23.4145107269287109 55.6114654541015625 -162.418746948242188
-46.2626571655273438 164.277130126953125 29.5483932495117188
37.1862564086914062 48.6501693725585938 -133.346908569335938
-41.5223426818847656 285.014495849609375 -55.7120323181152344
0.210375145077705383 249.424636840820312 19.7621135711669922
146.575408935546875 -88.2302169799804688 8.95562744140625
33.9777412414550781 -90.0491561889648438 161.999832153320312
90.70269775390625 -147.156005859375 132.2435302734375
155.547927856445312 -112.93804931640625 44.6798973083496094
55.4803314208984375 100.073013305664062 46.6407546997070312
-43.8581581115722656 105.98101806640625 -34.9125137329101562
138.154083251953125 -42.9427680969238281 -3.0172879695892334
-99.5512237548828125 -141.820785522460938 72.2380294799804688
-72.6680374145507812 -124.589271545410156 145.356582641601562
-96.0412445068359375 -130.86785888671875 131.687835693359375
3.5381169319152832 -213.957305908203125 89.3938751220703125
132.69915771484375 -61.9196815490722656 -86.9972991943359375
-17.2584400177001953 174.736892700195312 112.942085266113281
-100.405403137207031 -41.7206306457519531 46.9236793518066406
140.203781127929688 -69.7657241821289062 -35.2978172302246094
-24.4844436645507812 268.929840087890625 33.0927276611328125
-48.2739372253417969 -43.1670112609863281 -142.184463500976562
-68.0866165161132812 81.7335281372070312 -23.4531764984130859
45.66668701171875 13.2162942886352539 -170.076812744140625
118.296676635742188 -32.9756050109863281 133.0858154296875
-25.4889965057373047 -197.45184326171875 50.0321846008300781
26.1420612335205078 39.6330986022949219 -155.350677490234375
-27.1574935913085938 -9.66682529449462891 150.300643920898438
22.9093399047851562 -57.2796821594238281 -187.308822631835938
64.323394775390625 81.5408401489257812 11.2381801605224609
-77.969757080078125 -9.33663558959960938 -70.5120391845703125
42.0815544128417969 119.210792541503906 -64.2575454711914062
152.847244262695312 -109.12347412109375 69.00677490234375
15.5750284194946289 -213.507797241210938 48.3171501159667969
139.156570434570312 -59.466064453125 -24.4712238311767578
23.8484306335449219 27.6225376129150391 -145.0350341796875
65.8470916748046875 8.21874237060546875 -175.754287719726562
-46.9399375915527344 193.558853149414062 40.3074226379394531
51.9277381896972656 -200.8240966796875 111.982666015625
-5.0771946907043457 148.38079833984375 105.484291076660156
19.8888130187988281 175.523223876953125 -44.0285224914550781
-79.7162094116210938 -41.0031394958496094 14.1468324661254883
22.0736007690429688 145.893478393554688 -107.420944213867188
-81.725494384765625 -189.330490112304688 64.6899337768554688
134.735595703125 -66.47637939453125 123.704490661621094
-45.1865959167480469 -202.553497314453125 64.0513076782226562
78.5975570678710938 -152.5692138671875 -138.7158203125
5.29595041275024414 148.744888305664062 132.2740478515625
-97.8443374633789062 -78.6492156982421875 39.2580146789550781
-77.504730224609375 189.53277587890625 59.8174018859863281
-42.2829933166503906 120.788009643554688 10.916895866394043
86.5548858642578125 -64.5814743041992188 -167.773330688476562
-50.919158935546875 -22.5377845764160156 -130.329010009765625
-50.5701179504394531 97.1954345703125 20.5196685791015625
-26.0630531311035156 -193.634552001953125 91.6996078491210938
-73.4618682861328125 -194.856735229492188 2.4480898380279541
-46.5096855163574219 -207.560653686523438 -31.5174541473388672
36.0078659057617188 -86.6671676635742188 -178.619110107421875
-71.8733978271484375 103.807075500488281 7.68365907669067383
-67.7075347900390625 -202.158050537109375 11.8642034530639648
44.4688682556152344 -194.700653076171875 92.9298248291015625
54.1654434204101562 -159.206756591796875 148.880889892578125
-86.2735824584960938 -158.1358642578125 -77.837646484375
45.5865707397460938 -18.0945987701416016 146.127960205078125
78.9831695556640625 -28.3462581634521484 -160.738998413085938
17.8933734893798828 -8.65404033660888672 -193.590011596679688
-12.7253265380859375 260.27435302734375 -70.8842086791992188
-56.8473014831542969 218.60931396484375 54.3357467651367188
-69.6016693115234375 -120.640365600585938 149.12005615234375
32.7253684997558594 132.756332397460938 -52.3679466247558594
-27.9822750091552734 289.828704833984375 -0.830471694469451904
-89.09588623046875 -135.831588745117188 16.7803916931152344
26.1392631530761719 -214.295700073242188 -9.08331108093261719
-91.225128173828125 -134.62786865234375 124.244308471679688
-34.6010627746582031 282.71514892578125 8.53231620788574219
12.6212835311889648 -93.5122146606445312 134.881134033203125
44.238128662109375 -192.02001953125 -111.899818420410156
37.4583320617675781 -210.503036499023438 -103.3502197265625
50.9762763977050781 -25.7237033843994141 142.835006713867188
-7.25236940383911133 106.195198059082031 -148.388412475585938
13.5701131820678711 -141.572357177734375 130.817001342773438
-23.0337142944335938 270.74658203125 -87.0883102416992188
-70.674530029296875 198.983169555664062 36.9818649291992188
-88.9630966186523438 -171.874343872070312 113.046173095703125
57.5669708251953125 101.0037841796875 76.6380386352539062
33.1513137817382812 -213.323684692382812 72.0760116577148438
32.2090492248535156 188.650283813476562 -123.952102661132812
-80.5957565307617188 -45.6168098449707031 18.6682720184326172
-28.2116012573242188 -95.791717529296875 144.905990600585938
-67.6926803588867188 134.741531372070312 9.21092319488525391
-6.3531489372253418 -61.7959785461425781 -188.32305908203125
-28.6986331939697266 294.3980712890625 -60.9502525329589844
-34.8390274047851562 181.528579711914062 -13.3614263534545898
-93.5312423706054688 96.5638275146484375 47.6634445190429688
38.5370330810546875 -213.216293334960938 -0.312516450881958008
153.0518798828125 -112.797958374023438 76.1275863647460938
28.6407203674316406 -216.444808959960938 49.9500083923339844
7.13080644607543945 172.388824462890625 -139.438278198242188
-61.0960960388183594 47.0966453552246094 -78.8720626831054688
3.61226749420166016 -38.6744613647460938 -184.606948852539062
-3.85129594802856445 287.84197998046875 -53.6889915466308594
127.154380798339844 -159.682907104492188 35.959259033203125
-81.3935928344726562 -119.468673706054688 97.9268417358398438
-72.9818496704101562 -170.041229248046875 -63.9312858581542969
76.5917205810546875 -194.56072998046875 52.2012901306152344
14.2453231811523438 -213.833038330078125 -90.613739013671875
-81.5374526977539062 -134.297622680664062 -73.2343978881835938
94.1659317016601562 -105.309814453125 -147.663040161132812
7.14441585540771484 -189.229690551757812 -112.059844970703125
-86.4181747436523438 -96.1520156860351562 18.9714946746826172
-66.6670608520507812 -51.9169845581054688 -63.0743942260742188
137.637542724609375 -158.59649658203125 12.8627834320068359
-67.6686325073242188 -34.7107810974121094 125.167076110839844
-64.6559829711914062 203.876480102539062 54.346435546875
58.7510032653808594 49.5917129516601562 -98.5503997802734375
-21.5118885040283203 188.331329345703125 -13.3883771896362305
-17.9811325073242188 -201.457656860351562 92.7263031005859375
-51.8301506042480469 96.4112396240234375 -27.6329441070556641
-77.2909469604492188 -173.226455688476562 -115.633880615234375
-28.6546955108642578 179.6568603515625 48.1074409484863281
-39.4872512817382812 305.094940185546875 -25.9735527038574219
-71.7503280639648438 35.1433868408203125 96.1320877075195312
-19.1160106658935547 210.242034912109375 -126.024497985839844
-55.3618011474609375 169.029525756835938 -61.2528419494628906
-69.71868896484375 -46.3101348876953125 -65.505859375
-33.7920379638671875 250.477096557617188 -27.4114532470703125
-91.4003372192382812 -135.725723266601562 51.3479690551757812
94.9067306518554688 -136.339035034179688 -139.607147216796875
53.7503662109375 61.0710411071777344 -110.086593627929688
-86.8902587890625 -74.3119659423828125 89.8519668579101562
16.9652118682861328 18.4692668914794922 154.31170654296875
-71.6413726806640625 -166.154632568359375 130.41986083984375
64.8224639892578125 -208.568145751953125 -97.4250717163085938
141.607421875 -62.93511962890625 -6.1562495231628418
39.9918441772460938 99.5827102661132812 -155.703170776367188
38.2983932495117188 16.2163658142089844 -152.383346557617188
-64.4308700561523438 -129.535964965820312 154.9700927734375
-53.5744743347167969 171.487045288085938 -50.0346107482910156
29.158477783203125 143.435897827148438 33.6413764953613281
-24.7066097259521484 49.1927680969238281 -161.610763549804688
-52.9003829956054688 90.807159423828125 -27.1544780731201172
-11.2634506225585938 279.89471435546875 -80.8547821044921875
-65.0688552856445312 -19.6640148162841797 153.375961303710938
74.348297119140625 -203.905746459960938 -56.5614547729492188
12.9643383026123047 -132.014129638671875 -163.637832641601562
-8.64577770233154297 -50.7767181396484375 -184.5694580078125
102.853187561035156 17.7938346862792969 -36.6851921081542969
-40.9521293640136719 -71.4803848266601562 154.818527221679688
149.862838745117188 -120.456520080566406 90.2761993408203125
-96.2951126098632812 -67.5784454345703125 33.2924041748046875
10.8772916793823242 145.231796264648438 116.429344177246094
-26.0605525970458984 171.63702392578125 20.7454357147216797
155.838409423828125 -117.302818298339844 50.6997299194335938
-69.0344314575195312 215.96612548828125 44.5780067443847656
121.64886474609375 -0.811167776584625244 31.1702194213867188
14.7254400253295898 90.3973922729492188 150.593673706054688
53.4443359375 -204.787216186523438 39.9979362487792969
51.7930068969726562 8.23107337951660156 132.6904296875
-17.7018108367919922 304.448333740234375 -41.3775787353515625
41.0350723266601562 -212.509994506835938 68.010009765625
39.246368408203125 106.188804626464844 -144.839874267578125
2.20517182350158691 253.588104248046875 -8.81212139129638672
126.617965698242188 -158.762313842773438 45.9390945434570312
66.7274398803710938 -205.344436645507812 -18.6438560485839844
-87.9360427856445312 -182.345993041992188 51.9658546447753906
-53.6404800415039062 122.469108581542969 72.5135955810546875
14.8127431869506836 199.464111328125 -99.4065322875976562
-55.2292976379394531 -132.0460205078125 -110.098655700683594
-55.4691925048828125 183.8057861328125 86.0558319091796875
-56.9327774047851562 -184.868331909179688 -102.672454833984375
-22.4477729797363281 198.251235961914062 -123.439010620117188
17.7043647766113281 65.637786865234375 153.602752685546875
-94.4470138549804688 -153.322616577148438 125.905235290527344
-76.2706985473632812 82.762969970703125 44.3820457458496094
141.559402465820312 -57.4132232666015625 68.7538070678710938
72.517181396484375 42.8204421997070312 -66.4748687744140625
-91.4980621337890625 -11.6224079132080078 17.1097030639648438
-49.9565048217773438 138.073699951171875 56.2321128845214844
99.03668212890625 14.5112094879150391 -59.3677558898925781
-10.5856790542602539 -87.5710067749023438 152.240005493164062
-74.046417236328125 -76.0968475341796875 146.9512939453125
5.14637231826782227 202.59649658203125 -130.965713500976562
-52.4738616943359375 -83.937591552734375 158.210281372070312
-75.2313690185546875 13.2348804473876953 95.986297607421875
-41.0844993591308594 115.15032958984375 124.815353393554688
-4.23441123962402344 -134.46026611328125 156.72711181640625
-69.0492324829101562 -168.614944458007812 -91.1312942504882812
-40.3172798156738281 211.422271728515625 -51.4447135925292969
11.636296272277832 -176.687103271484375 -128.16693115234375
-28.9824314117431641 71.2491531372070312 113.37738037109375
41.0872611999511719 115.931175231933594 -121.635498046875
-34.5612907409667969 157.489212036132812 -28.764801025390625
-94.6040115356445312 6.7705845832824707 53.4206008911132812
-55.3409843444824219 207.529296875 1.3574519157409668
-61.1273956298828125 226.878402709960938 15.2729148864746094
74.2690277099609375 45.4105682373046875 -45.0535316467285156
-32.2755317687988281 138.2244873046875 123.54718017578125
-25.4132843017578125 170.0677490234375 27.7454395294189453
-90.1685333251953125 -139.14630126953125 20.8536167144775391
27.6380443572998047 -112.293365478515625 -175.045150756835938
-52.3332061767578125 128.517318725585938 -91.44635009765625
-40.3054771423339844 205.496429443359375 11.5824966430664062
72.4921493530273438 -190.199234008789062 2.67164421081542969
-51.8531684875488281 -57.5840110778808594 -114.842918395996094
-52.2575225830078125 241.615432739257812 6.86637401580810547
138.990890502929688 -51.2074432373046875 90.1510086059570312
64.6028671264648438 -201.67376708984375 43.6646537780761719
-21.9289932250976562 83.31622314453125 -153.078628540039062
37.6517753601074219 -83.8292617797851562 160.01275634765625
-28.6866111755371094 20.9767360687255859 136.19091796875
-32.5658187866210938 288.90234375 -6.38765668869018555
145.449722290039062 -91.4530410766601562 104.248863220214844
136.188583374023438 -44.1032371520996094 101.945587158203125
-23.9144268035888672 142.76739501953125 112.714454650878906
-46.0779991149902344 68.9367294311523438 -82.813934326171875
-37.9200286865234375 252.453689575195312 -5.63803529739379883
15.2849245071411133 46.0200309753417969 153.715164184570312
114.220367431640625 -118.6065673828125 -132.09344482421875
9.92385292053222656 -128.227142333984375 -166.919418334960938
-9.61810493469238281 24.8270473480224609 162.344573974609375
-1.29537034034729004 153.194869995117188 103.889198303222656
143.632110595703125 -160.25775146484375 -44.3892326354980469
-40.9657974243164062 213.75286865234375 -99.987579345703125
93.4432373046875 -90.7670211791992188 -159.817962646484375
-42.2559738159179688 35.1370964050292969 136.222946166992188
112.291595458984375 -169.91473388671875 -83.3398895263671875
105.687797546386719 -147.975860595703125 -127.832305908203125
-33.3612136840820312 184.795150756835938 -31.3320713043212891
-44.2205734252929688 235.85015869140625 -16.0509357452392578
39.5656356811523438 78.7492904663085938 -142.874832153320312
-54.8091201782226562 124.47967529296875 76.033477783203125
8.34138965606689453 -21.7980518341064453 168.706634521484375
-92.8722000122070312 -152.897018432617188 38.3379173278808594
-88.1893768310546875 -112.736885070800781 -51.1409034729003906
-75.8626785278320312 112.326278686523438 39.0114669799804688
-92.1483612060546875 -141.992340087890625 46.6388130187988281
77.6288833618164062 -20.0028324127197266 -135.911758422851562
-41.620635986328125 271.148712158203125 -66.5665512084960938
-42.6376457214355469 243.860275268554688 -51.5013694763183594
143.351211547851562 -96.268768310546875 119.223991394042969
94.030242919921875 -186.989715576171875 -65.6404571533203125
15.6130456924438477 132.857711791992188 -121.177169799804688
-40.7264137268066406 19.0865116119384766 150.425506591796875
-9.26963233947753906 -166.59478759765625 -137.161849975585938
54.0804290771484375 -66.8652267456054688 136.428955078125
-8.93649673461914062 207.183425903320312 -57.1885719299316406
-12.7543773651123047 297.51776123046875 -32.8049201965332031
-65.4263687133789062 100.503990173339844 9.87119579315185547
-90.3789749145507812 105.458274841308594 53.7822227478027344
10.1215715408325195 109.516197204589844 126.745719909667969
-71.320587158203125 73.1076431274414062 51.8486595153808594
-38.7442817687988281 14.8798303604125977 -154.637039184570312
-22.4405117034912109 -204.222625732421875 43.7745285034179688
1.36474978923797607 -139.14739990234375 129.890380859375
-10.7380790710449219 216.678314208984375 -125.614341735839844
26.0052814483642578 -3.65009665489196777 -183.937225341796875
-26.7855167388916016 -133.547256469726562 137.49969482421875
146.368209838867188 -135.0811767578125 84.046844482421875
21.0029010772705078 83.90667724609375 132.8623046875
-20.1822624206542969 49.4442558288574219 -166.194534301757812
-28.3097152709960938 78.985748291015625 108.528045654296875
14.4878463745117188 166.830352783203125 -138.656158447265625
-6.33634233474731445 24.7190227508544922 -153.524322509765625
-7.7542119026184082 3.05246376991271973 -178.939102172851562
-15.6811456680297852 -113.135726928710938 151.866851806640625
62.3848533630371094 -92.7635116577148438 -184.600051879882812
-42.5150985717773438 132.329940795898438 18.5216350555419922
14.2078008651733398 -116.709976196289062 134.444854736328125
-57.3580284118652344 161.00445556640625 76.287322998046875
-42.7259559631347656 208.537017822265625 86.51837158203125
-51.4935302734375 -103.635177612304688 -128.71453857421875
-12.5667352676391602 -27.21588134765625 134.656082153320312
152.413833618164062 -146.116592407226562 24.0811729431152344
45.1223373413085938 -88.5016098022460938 160.836090087890625
-35.4599838256835938 -188.946441650390625 126.602836608886719
-27.0199508666992188 188.019256591796875 49.1235847473144531
14.4322853088378906 -158.458267211914062 134.362594604492188
7.46583271026611328 70.49420166015625 -142.1268310546875
-72.1962051391601562 -178.771484375 -48.3119125366210938
-56.1477470397949219 130.303695678710938 -87.6939163208007812
30.0268211364746094 -96.0163726806640625 -180.845016479492188
-58.0523109436035156 -164.82379150390625 -115.349555969238281
85.45166015625 -54.3652381896972656 -159.49310302734375
-61.3023223876953125 -86.255462646484375 -167.271194458007812
40.4386711120605469 -129.038330078125 -162.08111572265625
-65.9107284545898438 -95.9533538818359375 -171.361068725585938
70.041259765625 4.56211757659912109 -185.194976806640625
-61.2553253173828125 -209.500930786132812 99.1327056884765625
-60.5203666687011719 198.726455688476562 40.9173774719238281
140.743362426757812 -144.179061889648438 86.6226577758789062
103.144737243652344 -178.601791381835938 -81.6375274658203125
-65.0248489379882812 61.1791915893554688 11.8425159454345703
-49.8777809143066406 135.832412719726562 -31.8670787811279297
125.667007446289062 -148.422119140625 -116.901992797851562
-31.2290248870849609 -8.89121437072753906 148.431427001953125
5.07271528244018555 69.8976211547851562 152.532241821289062
-54.8502159118652344 160.738189697265625 96.5717086791992188
-22.213775634765625 -40.5086746215820312 173.165985107421875
-35.5444908142089844 200.285598754882812 -99.5531158447265625
-45.6318359375 300.804901123046875 -40.4414939880371094
129.431976318359375 -16.6923618316650391 40.2071800231933594
-16.5908241271972656 -55.6011390686035156 155.568923950195312
64.0745773315429688 9.07178974151611328 -151.24920654296875
-35.3988876342773438 130.343994140625 -83.6915664672851562
-92.3066253662109375 -61.1338043212890625 -37.9051933288574219
81.5154037475585938 37.5947456359863281 106.378746032714844
-38.6797103881835938 46.990692138671875 134.087493896484375
49.5318794250488281 119.655570983886719 -9.83928394317626953
-45.3568534851074219 133.298171997070312 107.460807800292969
13.0764274597167969 -1.47780394554138184 -195.730270385742188
14.9164505004882812 199.59051513671875 -98.8930206298828125
-26.1412239074707031 198.372055053710938 11.8238382339477539
23.3119583129882812 -214.374496459960938 -34.8781814575195312
-47.5362472534179688 -29.5470657348632812 -149.067031860351562
95.3374099731445312 -99.4935379028320312 142.296142578125
-28.1769256591796875 137.057281494140625 122.888801574707031
-14.696049690246582 176.716033935546875 113.452362060546875
69.8311080932617188 -195.249771118164062 -37.0834083557128906
20.6371364593505859 173.40618896484375 29.1224536895751953
-0.0639324113726615906 247.27099609375 14.5500574111938477
-14.3286895751953125 79.3357391357421875 120.741073608398438
64.5251541137695312 -20.2975311279296875 -191.18951416015625
23.5578556060791016 -66.4704666137695312 -186.146926879882812
-64.5411605834960938 -185.166519165039062 -68.507232666015625
-50.9365653991699219 225.881561279296875 -44.6709709167480469
100.570732116699219 24.9710044860839844 91.27099609375
86.8906097412109375 -68.00140380859375 -170.606979370117188
33.5714302062988281 142.059356689453125 -149.452163696289062
148.492919921875 -121.521110534667969 -85.0392303466796875
-71.15631103515625 -110.236778259277344 -154.784988403320312
144.36749267578125 -83.485321044921875 -19.0400600433349609
-38.0995864868164062 275.4827880859375 17.0487384796142578
147.02789306640625 -101.017768859863281 -68.9165725708007812
90.3696975708007812 9.36165809631347656 125.741477966308594
-7.32701635360717773 -208.5849609375 116.88580322265625
26.2391109466552734 2.51847600936889648 189.752639770507812
122.901199340820312 -22.7338829040527344 120.098968505859375
147.431137084960938 -156.186416625976562 -52.1238975524902344
-57.4824790954589844 132.961624145507812 76.3173675537109375
-25.8230323791503906 148.587844848632812 -126.361427307128906
15.8190174102783203 174.504013061523438 -128.023330688476562
44.3127555847167969 -128.03973388671875 -157.379913330078125
-29.8167552947998047 111.243743896484375 -101.896636962890625
103.169692993164062 -129.194869995117188 -130.603240966796875
-87.9952163696289062 -181.408843994140625 60.0252647399902344
25.0788745880126953 -159.013778686523438 -139.709091186523438
44.2763710021972656 -141.08636474609375 -151.368270874023438
59.2861595153808594 95.0255355834960938 -13.7674722671508789
-4.08778190612792969 -54.5412673950195312 163.90771484375
-64.1941604614257812 3.24057650566101074 164.880203247070312
52.6924858093261719 -161.832778930664062 129.3717041015625
-68.45556640625 216.106124877929688 42.8522834777832031
84.31671142578125 -165.98486328125 117.712898254394531
154.674407958984375 -112.831886291503906 56.1705131530761719
-96.0552291870117188 -138.3642578125 107.084968566894531
25.3388214111328125 131.191085815429688 120.443138122558594
-87.44818115234375 96.1759719848632812 24.6301956176757812
109.695091247558594 18.3425006866455078 37.3432960510253906
-14.1540355682373047 46.1460914611816406 129.632720947265625
-72.2050094604492188 70.476287841796875 -36.724456787109375
-48.4361915588378906 212.981094360351562 51.8548965454101562
55.360595703125 103.903587341308594 93.03118896484375
-7.28885459899902344 213.94921875 95.0975494384765625
-86.2508087158203125 -155.491485595703125 122.652412414550781
-87.4225997924804688 44.8060111999511719 18.2030315399169922
10.0765266418457031 173.097183227539062 111.159767150878906
22.1459197998046875 160.91851806640625 34.7315101623535156
113.727928161621094 6.33065080642700195 -8.98036670684814453
-90.8536453247070312 -32.3162765502929688 -17.6792488098144531
38.6382598876953125 29.0404987335205078 -157.246673583984375
-44.6672439575195312 293.703643798828125 19.8318767547607422
-82.39935302734375 56.722503662109375 10.6523990631103516
71.4105987548828125 27.454193115234375 -102.585067749023438
-76.83447265625 -30.6862754821777344 92.9985275268554688
21.5286273956298828 106.040626525878906 -154.450485229492188
74.5344696044921875 14.54217529296875 -114.890182495117188
57.4100532531738281 -185.466232299804688 124.187606811523438
-35.3252372741699219 -199.794326782226562 66.8185577392578125
-76.6466598510742188 8.62484931945800781 -69.4731369018554688
55.1142158508300781 -196.948715209960938 -106.784637451171875
61.0649185180664062 -181.437835693359375 73.7251205444335938
-20.7313079833984375 -17.0458641052246094 138.475189208984375
-102.927536010742188 -118.343986511230469 52.8256301879882812
-42.2332077026367188 24.1253566741943359 -142.8758544921875
17.7598381042480469 61.7198677062988281 155.93963623046875
-29.3122100830078125 156.515609741210938 111.687446594238281
31.8000221252441406 -210.646759033203125 -93.8750839233398438
-80.755767822265625 -185.863174438476562 4.66671514511108398
-28.3296928405761719 -132.755218505859375 -165.31414794921875
-3.96584582328796387 200.569076538085938 79.7706146240234375
-36.9051246643066406 236.761016845703125 -75.9461669921875
137.673324584960938 -40.8306655883789062 -6.08722591400146484
-51.8579635620117188 -121.300270080566406 -122.657646179199219
-44.8866729736328125 96.678253173828125 -79.859161376953125
11.9720554351806641 159.547012329101562 -142.229721069335938
-8.31030368804931641 173.156967163085938 96.8066024780273438
61.1726875305175781 4.01241302490234375 -155.65081787109375
21.4944362640380859 -159.986892700195312 -140.073867797851562
37.097442626953125 139.549285888671875 -139.720016479492188
-55.821014404296875 12.4340915679931641 164.207046508789062
55.4828033447265625 -18.1412734985351562 134.264862060546875
-26.0003528594970703 281.223907470703125 41.2185516357421875
-6.15688943862915039 60.7545204162597656 158.693313598632812
-48.9168624877929688 281.90997314453125 -29.8468112945556641
74.0332107543945312 -10.6350297927856445 -170.973892211914062
4.63158512115478516 -25.3795528411865234 182.632293701171875
121.609939575195312 -142.807479858398438 126.535667419433594
21.6782550811767578 76.173126220703125 148.65692138671875
5.50229167938232422 -182.93829345703125 119.806732177734375
44.8694076538085938 38.6938667297363281 -137.806594848632812
143.832717895507812 -137.219589233398438 -97.362335205078125
-3.47650504112243652 -137.806869506835938 138.342239379882812
-95.2649993896484375 1.34844183921813965 51.4425735473632812
-79.5925674438476562 -49.2859077453613281 -14.4169702529907227
-13.9656553268432617 36.9326210021972656 137.302505493164062
33.8480720520019531 139.120773315429688 -137.539398193359375
21.2675933837890625 144.233917236328125 110.496734619140625
-40.6252365112304688 -61.3728179931640625 -162.03228759765625
140.35455322265625 -53.7752304077148438 73.0305023193359375
-11.213627815246582 199.4403076171875 102.716781616210938
-55.5091629028320312 -6.48450422286987305 -99.6047134399414062
65.1103439331054688 -153.576828002929688 147.783920288085938
149.612442016601562 -96.8886642456054688 27.9048137664794922
-23.2372837066650391 -70.7872314453125 158.687515258789062
-42.6692276000976562 -198.584930419921875 41.6018333435058594
-17.3114433288574219 -100.999061584472656 -184.127105712890625
27.5943870544433594 -0.49651259183883667 -181.293472290039062
49.5627403259277344 12.489471435546875 -159.609451293945312
38.8195343017578125 44.7810745239257812 -149.807968139648438
51.0407752990722656 -12.1591062545776367 139.207855224609375
31.8614482879638672 202.273162841796875 -98.9370498657226562
25.7690010070800781 -166.650161743164062 -134.503021240234375
-11.9153175354003906 -189.39678955078125 120.087677001953125
-9.38160419464111328 126.665412902832031 -156.528884887695312
46.6173362731933594 -27.6967830657958984 161.961517333984375
-63.5901412963867188 80.5017166137695312 69.63311767578125
152.213043212890625 -110.492828369140625 -17.3375167846679688
-51.2644882202148438 84.261138916015625 -10.0314359664916992
53.6111679077148438 -71.4826126098632812 -192.464950561523438
56.6901321411132812 103.288467407226562 -7.25084733963012695
74.2919158935546875 -195.85064697265625 68.7184066772460938
-19.8353347778320312 212.709060668945312 -124.126869201660156
-86.9712753295898438 -150.385665893554688 118.632301330566406
15.3541784286499023 -211.513427734375 97.4989166259765625
143.165603637695312 -139.032073974609375 -96.1309280395507812
32.4489669799804688 -163.47454833984375 138.275543212890625
-92.922332763671875 -51.3311767578125 24.1352386474609375
56.8339080810546875 25.8309516906738281 140.734237670898438
15.6333169937133789 -213.645477294921875 38.9399909973144531
-52.4615097045898438 -208.805679321289062 -57.8357887268066406
8.33757781982421875 -18.0014381408691406 183.277099609375
-8.14841365814208984 -207.212493896484375 124.579170227050781
33.9582633972167969 102.010002136230469 129.420242309570312
49.21075439453125 106.14404296875 -53.3057594299316406
-34.0528793334960938 249.5521240234375 -18.6747951507568359
47.61083984375 -4.51174640655517578 -185.678253173828125
53.8766822814941406 95.7948226928710938 -32.045867919921875
-17.9748497009277344 224.035369873046875 -119.930473327636719
74.23992919921875 2.24010133743286133 -169.711624145507812
44.6449623107910156 -70.6063079833984375 163.75543212890625
-55.9956741333007812 -204.1651611328125 -70.3618698120117188
31.3608951568603516 134.030715942382812 -50.6567344665527344
134.1195068359375 -152.207000732421875 85.6342239379882812
64.7828598022460938 -195.590301513671875 117.962005615234375
132.967636108398438 -165.96014404296875 -44.3245277404785156
51.2419929504394531 -33.7071533203125 141.5927734375
47.5399627685546875 30.4451484680175781 136.44439697265625
18.0456676483154297 14.3774089813232422 -155.846054077148438
-68.1048965454101562 62.0798454284667969 89.0412445068359375
25.6505012512207031 151.1630859375 16.6145496368408203
15.5764617919921875 -178.553817749023438 -126.420555114746094
24.6634387969970703 -212.00787353515625 60.1079216003417969
19.7641391754150391 146.616302490234375 -105.02032470703125
-68.7818756103515625 -29.3255252838134766 115.4051513671875
-51.0013694763183594 -24.2988090515136719 -128.903884887695312
-6.60661506652832031 254.966583251953125 -85.5319900512695312
80.3491973876953125 -201.70111083984375 -74.8375015258789062
151.976242065429688 -126.739799499511719 -54.2542800903320312
20.8586750030517578 -213.041671752929688 42.7290496826171875
36.9858589172363281 -143.467041015625 143.916763305664062
-9.32057285308837891 -53.1123542785644531 146.31048583984375
7.9923858642578125 167.25714111328125 85.3012847900390625
-72.9469833374023438 54.7736663818359375 -19.1590728759765625
141.027435302734375 -146.246963500976562 81.2439727783203125
131.20098876953125 -156.987472534179688 -103.160942077636719
20.4301662445068359 180.112060546875 -106.313865661621094
-46.3839492797851562 191.615402221679688 33.2272529602050781
110.47491455078125 -158.717361450195312 90.4659805297851562
10.7504024505615234 -87.8521881103515625 -186.237762451171875
-81.1791305541992188 78.7833404541015625 55.0288887023925781
-72.2387619018554688 -23.0956287384033203 103.693153381347656
39.5927391052246094 76.8420639038085938 -142.899932861328125
-24.9479827880859375 -168.638809204101562 -139.8004150390625
71.800811767578125 6.14262247085571289 132.451553344726562
50.3712158203125 -38.343841552734375 149.453781127929688
-101.737358093261719 -57.7833900451660156 64.6989898681640625
-4.00857067108154297 164.627105712890625 -51.9038009643554688
80.0584564208984375 -189.129241943359375 77.1955642700195312
28.0547313690185547 -175.26397705078125 128.511306762695312
10.0459985733032227 169.554946899414062 -62.2810134887695312
-22.9337177276611328 183.465057373046875 98.96630859375
45.6422882080078125 -213.018875122070312 64.5794219970703125
-63.6505393981933594 -195.688125610351562 74.154205322265625
-51.8708992004394531 -205.851119995117188 -87.2672653198242188
-44.323699951171875 95.943206787109375 -20.9419708251953125
-46.2239341735839844 93.130462646484375 -16.3596572875976562
29.4831295013427734 -17.9656772613525391 165.490020751953125
-3.81706976890563965 -216.988433837890625 42.3981208801269531
142.880218505859375 -85.6730117797851562 -81.0197372436523438
95.9736480712890625 -20.9912643432617188 -119.115066528320312
-64.263397216796875 -114.207992553710938 160.913528442382812
-26.2743377685546875 210.90106201171875 10.599553108215332
-100.668067932128906 -34.7067184448242188 35.7907485961914062
-64.5455322265625 177.639373779296875 20.6819286346435547
-53.0393409729003906 229.025344848632812 -2.82732605934143066
105.420028686523438 -6.15696859359741211 135.60992431640625
53.6134262084960938 -2.63712430000305176 -204.913528442382812
-7.75174808502197266 -134.052749633789062 -163.06622314453125
102.787559509277344 26.7273674011230469 72.1839218139648438
62.1175651550292969 80.1944808959960938 -29.6295280456542969
134.00018310546875 -60.2459220886230469 -63.1691360473632812
-62.0316276550292969 -54.4350471496582031 116.815071105957031
34.6430435180664062 -7.92286539077758789 -187.815780639648438
-17.2339591979980469 86.0233078002929688 114.355857849121094
-70.7393875122070312 95.3277816772460938 7.85902166366577148
37.1151390075683594 117.90130615234375 -114.527191162109375
-28.5161266326904297 -65.8464508056640625 159.856582641601562
-17.7662487030029297 174.552886962890625 -37.01251220703125
-84.521270751953125 77.4240875244140625 21.3297004699707031
112.000129699707031 -67.498504638671875 -123.9248046875
-97.373382568359375 -1.01191723346710205 62.2222709655761719
-70.0067596435546875 51.4910087585449219 88.6107711791992188
-44.38275146484375 179.198822021484375 21.6899013519287109
112.389724731445312 -159.770462036132812 70.2919540405273438
