ply
format ascii 1.0
element vertex 792
comment vertices
property float x
property float y
property float z
end_header
-50.6817245483398438 -208.372787475585938 -141.15789794921875
-77.5402755737304688 -55.6723899841308594 83.4067535400390625
-28.7473316192626953 210.880447387695312 35.5301399230957031
-19.5249862670898438 18.0115585327148438 -157.683837890625
-42.7305259704589844 122.891403198242188 -121.170150756835938
38.6039390563964844 201.860000610351562 -83.5037307739257812
75.3965682983398438 201.495590209960938 -93.5208511352539062
-72.9770050048828125 115.948989868164062 28.7306880950927734
23.1834869384765625 -103.142242431640625 151.7752685546875
100.467796325683594 -264.4769287109375 -20.504364013671875
7.63211727142333984 235.7462158203125 -2.76514720916748047
18.2822208404541016 179.106704711914062 -164.792709350585938
123.829383850097656 51.1493072509765625 -1.28577399253845215
15.8363552093505859 -214.827804565429688 -169.254348754882812
-13.3173999786376953 134.978790283203125 122.540245056152344
60.4736480712890625 -100.371025085449219 135.069381713867188
-72.9749374389648438 217.48046875 177.982437133789062
109.512702941894531 75.217010498046875 31.6877021789550781
-16.1928253173828125 228.434463500976562 -36.6282386779785156
102.758819580078125 -203.410842895507812 -94.9902801513671875
-89.56341552734375 209.094009399414062 31.2519340515136719
6.10248899459838867 256.53985595703125 -46.8109664916992188
-74.5883255004882812 -112.472770690917969 12.7034006118774414
-10.9659643173217773 238.065567016601562 113.316047668457031
78.6844329833984375 -144.164871215820312 116.138839721679688
-80.6148681640625 -63.5694694519042969 -42.6879158020019531
87.1902008056640625 -240.279861450195312 73.815277099609375
-71.095703125 220.651382446289062 85.9372406005859375
-32.7193756103515625 -238.34246826171875 115.243797302246094
38.103424072265625 -282.71392822265625 94.2810134887695312
112.583450317382812 69.5916061401367188 29.9519977569580078
-70.0277557373046875 -298.39111328125 -9.00702857971191406
72.4199371337890625 116.59783935546875 93.7408828735351562
-8.34529876708984375 232.232421875 87.532958984375
111.301750183105469 12.6316375732421875 -111.664810180664062
105.396690368652344 70.4177322387695312 -116.11431884765625
-86.1838836669921875 58.2767486572265625 -5.40856170654296875
-86.0560989379882812 77.9724884033203125 -61.5063629150390625
113.030433654785156 79.8535003662109375 -87.2348480224609375
-50.9390983581542969 154.510406494140625 -122.554428100585938
128.235977172851562 -159.8255615234375 -58.5831756591796875
-48.6997718811035156 110.738372802734375 -69.8094863891601562
125.380615234375 32.0813484191894531 37.0435066223144531
29.0542964935302734 -287.586669921875 -68.921875
-69.7719192504882812 152.3568115234375 -92.5723876953125
-22.2363834381103516 83.79815673828125 117.588447570800781
-70.509613037109375 -34.6696968078613281 88.8268966674804688
91.1175765991210938 104.386497497558594 -3.67185091972351074
96.9721527099609375 -201.81280517578125 77.6265335083007812
-42.8651847839355469 132.333328247070312 54.9511337280273438
-63.1919021606445312 -195.290267944335938 5.04040145874023438
-44.8924293518066406 -300.77880859375 -65.1061859130859375
-33.2773704528808594 81.03546142578125 93.7471923828125
-84.7969970703125 -252.150421142578125 -55.6730537414550781
98.5712203979492188 76.0374374389648438 73.0095291137695312
-45.5681419372558594 83.1399002075195312 39.4865226745605469
78.3452377319335938 -75.90338134765625 121.728355407714844
55.5588035583496094 -299.781036376953125 28.7987861633300781
-52.2638282775878906 -119.578765869140625 -138.616363525390625
-41.6566123962402344 240.679367065429688 -86.6630325317382812
-67.9059677124023438 -24.7310867309570312 89.2504425048828125
33.6210861206054688 -300.773895263671875 -11.580021858215332
29.7138118743896484 -34.5999526977539062 -164.292327880859375
-81.3166275024414062 -165.120010375976562 -111.054473876953125
133.41314697265625 -92.7718582153320312 -4.75778341293334961
-67.6748199462890625 -101.4283447265625 106.323539733886719
21.7091865539550781 80.5017929077148438 129.43231201171875
-69.634490966796875 -171.395843505859375 -107.847763061523438
-41.2972335815429688 182.635848999023438 201.28955078125
133.445449829101562 -124.008834838867188 -8.35872077941894531
-83.5092391967773438 198.903366088867188 47.7279205322265625
-32.5891227722167969 -295.18603515625 -94.6478729248046875
-17.7810173034667969 180.017990112304688 165.645126342773438
-24.0527610778808594 -192.615936279296875 139.818389892578125
130.456756591796875 -102.714889526367188 -37.4978256225585938
-28.2895755767822266 -290.58270263671875 -68.9102935791015625
132.88726806640625 17.4049301147460938 -2.54868483543395996
94.9046096801757812 82.1217422485351562 61.7875213623046875
-40.9694671630859375 56.9053497314453125 93.4398651123046875
-38.3746833801269531 258.59161376953125 85.3550491333007812
16.6559391021728516 -267.58917236328125 -120.971214294433594
-59.9601211547851562 -173.255966186523438 110.10479736328125
-79.70745849609375 -158.919845581054688 -67.7587661743164062
-82.6634368896484375 100.232589721679688 -88.3260650634765625
-71.3635482788085938 -120.328376770019531 103.626541137695312
133.185638427734375 -15.8853578567504883 5.43298006057739258
56.7240104675292969 -261.960845947265625 -121.331878662109375
-4.41590738296508789 123.058380126953125 127.339164733886719
38.4501838684082031 210.293167114257812 122.368186950683594
-34.4230194091796875 -49.0953292846679688 131.616317749023438
38.0519332885742188 -54.6033172607421875 -163.675338745117188
-66.9838638305664062 226.419265747070312 -30.2981510162353516
116.85302734375 -45.1089973449707031 71.18548583984375
-58.2996406555175781 -35.8954315185546875 -134.229141235351562
92.2907257080078125 2.59952664375305176 114.183815002441406
-60.3516159057617188 60.3373565673828125 -70.8794174194335938
75.3567276000976562 204.881362915039062 -92.8447723388671875
3.43601393699645996 229.328536987304688 28.0157737731933594
-66.133514404296875 62.7785835266113281 -98.8696975708007812
-68.7218856811523438 -186.21380615234375 -45.8272056579589844
70.0223846435546875 194.047531127929688 0.63346940279006958
73.2282943725585938 170.627166748046875 -81.65399169921875
22.2587738037109375 10.6120271682739258 -158.632110595703125
-15.4386491775512695 -293.66644287109375 -103.04779052734375
112.263542175292969 -147.277969360351562 70.470001220703125
56.2186470031738281 -278.646759033203125 -91.7550430297851562
-81.4098052978515625 191.157516479492188 73.1318893432617188
-79.565673828125 -166.652618408203125 13.6422090530395508
15.2890329360961914 230.503280639648438 39.1180496215820312
-0.710262060165405273 243.845916748046875 -11.6429929733276367
-65.2044296264648438 238.840576171875 9.89790725708007812
-54.9629783630371094 40.6318778991699219 70.0990219116210938
-62.0816268920898438 162.902084350585938 60.7514915466308594
-11.5320215225219727 38.7430877685546875 130.241989135742188
104.828079223632812 -253.983413696289062 -49.243988037109375
-30.9087963104248047 155.979248046875 175.8363037109375
5.48021268844604492 179.442626953125 114.647064208984375
-10.1272411346435547 241.04742431640625 7.48487520217895508
82.4436492919921875 -150.793670654296875 -139.6715087890625
127.775352478027344 -40.9132919311523438 -54.4765968322753906
-58.0742721557617188 241.525390625 -36.6286735534667969
59.3265800476074219 210.203155517578125 6.84650325775146484
-78.8426132202148438 59.0853233337402344 20.9484844207763672
-39.5572166442871094 234.531356811523438 -19.4298534393310547
-50.8870658874511719 236.183303833007812 211.77740478515625
-84.39300537109375 -146.38262939453125 -58.0050239562988281
-84.7787933349609375 178.000625610351562 26.0408935546875
55.5598411560058594 178.927536010742188 122.07305908203125
101.288887023925781 95.538421630859375 1.9396284818649292
-71.212127685546875 -155.845657348632812 10.7601737976074219
-24.0964488983154297 168.499786376953125 113.372314453125
80.2234725952148438 -121.472396850585938 132.9437255859375
102.895263671875 -240.723617553710938 -86.41448974609375
77.2704925537109375 175.091064453125 -19.3987560272216797
75.8330841064453125 149.57928466796875 105.254966735839844
-80.9370880126953125 -272.325836181640625 40.6103439331054688
67.6755599975585938 -216.472427368164062 -145.929916381835938
68.144683837890625 74.1313018798828125 -145.527114868164062
-83.1019668579101562 7.79056358337402344 -40.0590286254882812
-44.4168968200683594 86.9104080200195312 42.7338333129882812
-46.6136474609375 -111.841598510742188 -144.379898071289062
-71.769683837890625 105.819595336914062 -39.0516929626464844
-3.1477198600769043 13.8691015243530273 -164.364410400390625
24.1312408447265625 -300.092193603515625 -11.1378364562988281
-21.2882785797119141 254.509613037109375 -1.22991609573364258
12.9553909301757812 -183.203079223632812 -170.861557006835938
-14.7595176696777344 147.45672607421875 137.729934692382812
-12.8244295120239258 246.098907470703125 14.2382640838623047
103.446571350097656 -268.16094970703125 18.7154941558837891
-70.6243057250976562 191.068527221679688 194.299545288085938
75.06292724609375 -292.421478271484375 57.5629348754882812
-0.528391480445861816 -197.531997680664062 -168.108291625976562
100.335365295410156 122.271781921386719 -103.562019348144531
-54.2346038818359375 210.718551635742188 -96.8980026245117188
70.66387939453125 127.485916137695312 43.7754287719726562
-64.6145172119140625 208.674850463867188 92.2178192138671875
-76.077301025390625 -275.60601806640625 33.0720710754394531
-30.7832469940185547 121.858467102050781 -126.763839721679688
19.7492599487304688 -302.46661376953125 36.8861618041992188
-81.06494140625 -178.696456909179688 43.4574737548828125
-70.0626907348632812 -184.60321044921875 68.8655776977539062
-72.3501968383789062 -38.774017333984375 -104.222877502441406
-9.70684146881103516 -250.70086669921875 -155.230316162109375
1.42104566097259521 229.6904296875 20.1287250518798828
-69.8590469360351562 233.784454345703125 -12.4717254638671875
65.6487655639648438 145.165786743164062 31.4098110198974609
-35.7142791748046875 18.5438232421875 -148.579925537109375
-66.1109848022460938 245.697113037109375 -24.2724246978759766
112.7132568359375 5.94781684875488281 76.3588638305664062
98.81976318359375 119.405364990234375 -117.8306884765625
-26.4884510040283203 -293.371795654296875 33.3861961364746094
42.9050941467285156 -225.078872680664062 147.201507568359375
-38.3478317260742188 174.928237915039062 65.1178741455078125
24.9020786285400391 213.0643310546875 -2.73371243476867676
88.3686065673828125 166.870742797851562 -90.290802001953125
-74.8816909790039062 -253.605117797851562 97.8344039916992188
-47.3534622192382812 -154.496566772460938 -141.667190551757812
-84.5457992553710938 -235.955154418945312 72.3755722045898438
-68.02386474609375 211.767654418945312 157.150238037109375
-72.217559814453125 -39.2970504760742188 -11.4220209121704102
66.975982666015625 -276.64923095703125 75.9459152221679688
123.369407653808594 53.1205177307128906 -8.40828895568847656
122.376129150390625 -153.65753173828125 51.0034027099609375
-67.5039749145507812 -62.3920669555664062 94.8541488647460938
77.0443954467773438 -288.97833251953125 -34.8180198669433594
-78.8656158447265625 -34.7367324829101562 -16.4872589111328125
-79.8013916015625 -93.764434814453125 -106.624298095703125
108.690048217773438 -142.9716796875 -96.8871612548828125
-58.8754615783691406 -230.167129516601562 -115.8839111328125
-19.0814552307128906 248.278182983398438 -64.6398544311523438
-41.6753616333007812 -175.03387451171875 -148.517669677734375
78.8610000610351562 -174.274505615234375 112.514152526855469
-80.398223876953125 -255.506805419921875 -107.55401611328125
-8.36358451843261719 223.622879028320312 122.658378601074219
71.1737136840820312 -6.39698076248168945 133.439254760742188
-16.8083133697509766 -263.39697265625 -150.025985717773438
4.74706649780273438 31.9260005950927734 138.854522705078125
68.0294418334960938 -18.3697681427001953 135.751022338867188
11.9698457717895508 256.577056884765625 57.9794731140136719
71.95343017578125 -245.871170043945312 79.8417434692382812
-89.1385498046875 -66.148468017578125 71.4431533813476562
108.009078979492188 -13.8729352951049805 90.1229324340820312
-21.7511711120605469 -160.894302368164062 141.031707763671875
-56.6958389282226562 -297.52642822265625 -22.5364151000976562
-80.081512451171875 -125.014144897460938 -48.7459678649902344
15.2354259490966797 -218.185440063476562 -167.261932373046875
98.2100753784179688 -268.604278564453125 -17.4575347900390625
-8.80655956268310547 236.962142944335938 38.6729164123535156
-61.1058845520019531 28.2210578918457031 47.0125617980957031
-42.3844451904296875 99.8845748901367188 48.0784111022949219
-71.2211685180664062 -79.4503402709960938 -40.3298568725585938
61.0720176696777344 -141.366134643554688 134.027084350585938
61.1901893615722656 120.787506103515625 104.222526550292969
116.346809387207031 -24.0352115631103516 69.6809844970703125
55.6771888732910156 121.335472106933594 107.572578430175781
-34.258575439453125 75.6941986083984375 -137.066329956054688
53.4275627136230469 67.3523178100585938 -150.748306274414062
63.1462516784667969 105.730758666992188 46.4376220703125
129.001480102539062 -198.16851806640625 -5.88026571273803711
87.9730987548828125 -111.503768920898438 -129.079833984375
-80.8953170776367188 -76.4652786254882812 72.6924667358398438
-69.0162734985351562 162.288253784179688 100.217636108398438
36.8747024536132812 -299.93011474609375 -18.5051746368408203
78.3944854736328125 -33.4787178039550781 127.646827697753906
-46.4149169921875 114.102798461914062 -95.93170166015625
-54.0782203674316406 -218.544723510742188 -102.112686157226562
-64.5078659057617188 230.835678100585938 69.275848388671875
-27.4343280792236328 -113.746803283691406 139.586517333984375
126.891441345214844 43.6037673950195312 -13.8731536865234375
-6.27230358123779297 242.1160888671875 -137.823699951171875
-14.7105045318603516 -103.243743896484375 -167.011428833007812
-39.3696517944335938 60.7153091430664062 95.0273208618164062
130.297332763671875 -73.7721099853515625 27.7507801055908203
-19.8372669219970703 228.2603759765625 171.251754760742188
-52.6162910461425781 -194.848358154296875 110.715606689453125
121.910362243652344 55.4213218688964844 11.4836521148681641
-69.80511474609375 187.780242919921875 46.9959182739257812
-71.13946533203125 -135.55523681640625 103.137138366699219
50.1676445007324219 12.5554170608520508 -158.336746215820312
-76.9024200439453125 131.378494262695312 -60.4645004272460938
-83.677581787109375 29.4961509704589844 -5.90421247482299805
59.5159034729003906 -136.21441650390625 -151.733566284179688
-67.8840255737304688 190.514694213867188 -80.9752655029296875
45.9520912170410156 -8.53934097290039062 -160.150039672851562
-9.88168716430664062 198.395355224609375 134.082809448242188
-64.9781494140625 -301.501495361328125 -3.80376696586608887
-49.6168174743652344 61.0096511840820312 51.1572151184082031
-52.1413383483886719 142.992782592773438 54.1262435913085938
-69.471893310546875 -289.34735107421875 -76.7872543334960938
18.6241607666015625 -291.9625244140625 -56.2110824584960938
-18.3318004608154297 188.24346923828125 -133.2103271484375
-4.90870141983032227 -221.914962768554688 138.989334106445312
-52.143798828125 60.2987174987792969 -75.1698532104492188
-67.5594863891601562 -188.515731811523438 -100.913238525390625
7.41293859481811523 209.817214965820312 -166.488433837890625
132.254196166992188 -131.144622802734375 -40.179962158203125
14.0845918655395508 221.63427734375 -59.2806053161621094
-21.4147872924804688 247.762954711914062 -19.5930614471435547
-68.6094207763671875 204.491500854492188 162.600662231445312
-80.2824325561523438 -124.134117126464844 63.39111328125
1.68352115154266357 -296.847412109375 34.5722007751464844
132.174942016601562 -48.9679946899414062 9.65916156768798828
52.3987274169921875 149.113357543945312 -140.870285034179688
-56.7296981811523438 206.832305908203125 -95.3000946044921875
-64.51141357421875 238.682266235351562 2.75375914573669434
-81.130462646484375 -0.640552878379821777 14.1695346832275391
-70.402587890625 -265.582763671875 -125.625625610351562
81.798370361328125 56.3748817443847656 -142.044601440429688
-79.6981964111328125 87.782928466796875 -79.66705322265625
-18.8179054260253906 172.011932373046875 -141.742721557617188
86.486480712890625 -261.619476318359375 -84.0986709594726562
-61.2575836181640625 -179.969512939453125 -12.7337236404418945
2.88045811653137207 230.555816650390625 18.1748390197753906
78.2465896606445312 186.131271362304688 -31.3637237548828125
-89.6347732543945312 -185.340423583984375 50.5122756958007812
75.0889129638671875 -282.795562744140625 -66.902801513671875
-32.1087303161621094 216.043212890625 4.62736082077026367
63.1741256713867188 -294.7674560546875 -14.4035053253173828
-77.6333084106445312 111.743888854980469 -97.4998321533203125
-55.0290565490722656 215.547622680664062 135.265213012695312
63.4059295654296875 212.553863525390625 -58.7834701538085938
53.8302955627441406 63.7225227355957031 129.100784301757812
-91.1881637573242188 37.6977729797363281 -45.0546302795410156
102.348403930664062 103.29449462890625 -76.94769287109375
121.240348815917969 -200.792160034179688 25.4602947235107422
61.380889892578125 107.154647827148438 64.7080764770507812
-60.1462135314941406 175.354110717773438 87.4245834350585938
-69.3519287109375 220.723037719726562 190.178695678710938
-85.6821517944335938 24.2614097595214844 28.4910335540771484
-83.6871795654296875 115.2940673828125 -19.6239089965820312
47.8858184814453125 213.337875366210938 29.6016635894775391
-29.75030517578125 96.24688720703125 89.51593017578125
-61.8868675231933594 -194.835617065429688 -89.7463607788085938
85.2409820556640625 -59.5308265686035156 -137.70880126953125
71.02093505859375 -62.424285888671875 129.018646240234375
-87.7223358154296875 118.84368896484375 -29.7438602447509766
61.9040756225585938 107.535308837890625 48.3071746826171875
-75.165557861328125 226.376739501953125 -22.1017436981201172
125.653305053710938 -91.9386444091796875 -68.2128219604492188
14.5755519866943359 77.5843429565429688 -157.355239868164062
-41.2517051696777344 235.510208129882812 -15.0973291397094727
22.5170783996582031 -118.257164001464844 -169.41973876953125
21.1694736480712891 203.623428344726562 -45.3176231384277344
-14.2461795806884766 -183.689239501953125 143.212203979492188
-77.5410842895507812 223.012985229492188 -16.9673805236816406
-14.8977270126342773 262.964599609375 -52.1997566223144531
-80.8156585693359375 -125.051780700683594 59.8874435424804688
-60.4571685791015625 -291.71087646484375 40.5401420593261719
13.2245330810546875 252.373336791992188 61.2052726745605469
-71.6517562866210938 231.298721313476562 58.6812362670898438
-56.3220787048339844 246.969512939453125 -30.1438503265380859
99.45977783203125 -265.043609619140625 0.882865428924560547
-92.2235641479492188 84.2763442993164062 -33.0711822509765625
-93.9463882446289062 -199.65142822265625 45.093780517578125
-57.0837478637695312 -127.4268798828125 121.800361633300781
-35.9393081665039062 233.563934326171875 73.21954345703125
-16.9547786712646484 -104.635688781738281 -166.310501098632812
-24.9750690460205078 73.5454025268554688 115.837684631347656
77.316925048828125 -91.2646560668945312 -138.472137451171875
-10.3226842880249023 249.236923217773438 84.0827102661132812
25.3908348083496094 -95.1633148193359375 150.580078125
91.5975418090820312 -240.581771850585938 -97.3545608520507812
-73.813262939453125 36.8856391906738281 -81.15240478515625
47.8635330200195312 210.293701171875 -131.597137451171875
77.0965728759765625 127.9971923828125 94.32806396484375
-91.1649856567382812 -53.1849861145019531 19.6912956237792969
31.7332592010498047 -300.63153076171875 -10.1910200119018555
-21.4835681915283203 -217.061614990234375 123.805130004882812
46.0028190612792969 -299.926055908203125 0.0580344125628471375
129.091262817382812 -19.2148475646972656 29.3265190124511719
115.628997802734375 59.0772323608398438 -89.8979110717773438
37.8493766784667969 78.6788864135742188 127.631904602050781
-69.8693313598632812 188.680679321289062 71.7330856323242188
-2.6196138858795166 257.162933349609375 -64.107757568359375
-58.5226593017578125 208.150985717773438 130.438323974609375
-38.3824005126953125 202.662460327148438 160.609405517578125
-46.6838531494140625 120.2218017578125 -98.6971282958984375
61.5110511779785156 121.428245544433594 31.332061767578125
-87.108673095703125 53.9952926635742188 -60.14996337890625
80.9972610473632812 -140.930938720703125 -143.87799072265625
-42.3623161315917969 41.8918495178222656 -139.01068115234375
-53.3938026428222656 183.05352783203125 109.27667236328125
58.7360115051269531 211.106903076171875 -79.5988616943359375
-23.3041629791259766 131.996658325195312 118.692329406738281
-38.2489662170410156 139.632492065429688 144.576400756835938
66.5967483520507812 158.469070434570312 -136.984832763671875
-21.4639987945556641 221.416122436523438 -39.927337646484375
-80.9841690063476562 -134.376678466796875 -100.02203369140625
-67.6691207885742188 -178.5223388671875 34.6982765197753906
-86.0639419555664062 -237.124481201171875 68.7923431396484375
-1.47659432888031006 252.5841064453125 66.486846923828125
-50.8433151245117188 -10.5505304336547852 -138.979934692382812
128.210052490234375 -79.9813156127929688 -53.5190353393554688
103.965431213378906 -240.249588012695312 -84.8894119262695312
52.4862403869628906 -260.8011474609375 89.0991287231445312
-45.6376800537109375 136.7784423828125 48.7497634887695312
6.4567265510559082 68.5017852783203125 -157.450546264648438
-18.8562564849853516 113.558624267578125 97.23199462890625
81.2634811401367188 92.9109573364257812 -136.81646728515625
-58.9900627136230469 -182.7984619140625 -62.0469207763671875
30.6418724060058594 175.333389282226562 121.699089050292969
126.660202026367188 -192.731369018554688 21.1966285705566406
123.054344177246094 -97.5845947265625 -79.288787841796875
-89.4812545776367188 29.4670829772949219 -36.8110427856445312
-83.0471038818359375 -270.252899169921875 -21.2662086486816406
-80.4966354370117188 57.5732192993164062 1.53383433818817139
-85.9624557495117188 -162.233917236328125 -99.7168655395507812
93.7413177490234375 -115.480201721191406 -122.543838500976562
-64.8653640747070312 143.574432373046875 -101.573097229003906
-76.8492355346679688 -67.6501007080078125 11.2333345413208008
50.6275558471679688 -285.6995849609375 68.7239151000976562
-82.1618804931640625 -27.7370052337646484 65.2888412475585938
-35.8987007141113281 71.9794540405273438 96.498870849609375
-92.000152587890625 79.8482589721679688 -55.6870956420898438
103.137939453125 -256.567657470703125 -18.9268665313720703
-55.8613471984863281 -186.02288818359375 109.249305725097656
-77.7723464965820312 212.928451538085938 14.8724346160888672
5.44853687286376953 10.2684841156005859 142.926193237304688
53.69091796875 -108.511528015136719 -155.57666015625
-83.4042129516601562 -249.0565185546875 3.59326839447021484
94.5371856689453125 -132.17071533203125 -126.213455200195312
-71.5199661254882812 -171.13885498046875 -42.5617942810058594
-33.9012985229492188 -133.24371337890625 -157.576858520507812
10.3280925750732422 235.46734619140625 81.7453384399414062
-25.1899700164794922 140.995254516601562 139.723358154296875
12.1129388809204102 -270.8717041015625 107.377044677734375
-53.9432029724121094 226.070816040039062 84.7015304565429688
-66.8630523681640625 3.95810532569885254 74.0144805908203125
-81.9796600341796875 -155.744033813476562 -59.243988037109375
60.85400390625 147.147476196289062 -140.549423217773438
-19.9550609588623047 -119.016067504882812 144.100738525390625
-85.615631103515625 73.441131591796875 -53.1555595397949219
108.508544921875 -68.1346893310546875 -103.5042724609375
-64.8746337890625 228.005859375 -42.7949676513671875
-35.3812980651855469 -186.191558837890625 134.10833740234375
3.90990924835205078 -225.595199584960938 -168.257644653320312
-27.7662563323974609 215.09674072265625 187.66412353515625
-76.418365478515625 -210.674270629882812 60.5547714233398438
72.634857177734375 206.48699951171875 -46.6255722045898438
-35.6562919616699219 162.07220458984375 68.7324295043945312
111.859100341796875 -112.710113525390625 73.3750686645507812
58.8421134948730469 -102.162933349609375 135.095352172851562
-86.2401962280273438 -40.7063827514648438 -28.8180351257324219
121.430244445800781 -32.7588920593261719 -83.2783050537109375
-48.3672142028808594 71.6049575805664062 37.4630546569824219
-55.6418228149414062 -297.658660888671875 -12.2379350662231445
37.1171836853027344 149.297607421875 113.497642517089844
-46.9667129516601562 -52.83319091796875 -143.228057861328125
-82.6645889282226562 92.9841461181640625 8.61545467376708984
-67.732818603515625 187.275588989257812 93.2615509033203125
58.1486091613769531 -90.368896484375 -163.091598510742188
58.8432769775390625 -18.0637111663818359 -158.708236694335938
-7.60740518569946289 255.12640380859375 4.98550128936767578
-71.1858749389648438 105.842056274414062 -36.7377662658691406
98.063507080078125 90.5256423950195312 22.9858131408691406
-9.15132999420166016 -125.9443359375 -168.518264770507812
-30.0592555999755859 237.803924560546875 159.850173950195312
-53.0155105590820312 20.8967037200927734 89.6493072509765625
112.687568664550781 -249.498321533203125 14.5823783874511719
-76.8520965576171875 12.0441083908081055 57.7704048156738281
37.9497413635253906 236.2498779296875 55.5401840209960938
133.618392944335938 -148.2490234375 -30.7762966156005859
106.567451477050781 -93.8904800415039062 -104.380523681640625
-49.5591163635253906 -195.115402221679688 -135.828231811523438
-7.94449853897094727 226.766433715820312 131.907058715820312
59.1655731201171875 18.5411739349365234 144.026412963867188
77.0854110717773438 189.179779052734375 -61.1589698791503906
109.207305908203125 -80.507904052734375 84.8656234741210938
93.8385391235351562 -276.2960205078125 -10.6881189346313477
-66.4258651733398438 -173.114273071289062 108.971817016601562
28.8135108947753906 103.395225524902344 126.829734802246094
-87.2566375732421875 24.8797836303710938 -0.90569007396697998
-87.5767364501953125 77.2884521484375 -69.4832000732421875
-74.1181793212890625 26.7831134796142578 -5.6343231201171875
39.2218017578125 -164.110946655273438 -164.224014282226562
-76.6373214721679688 132.17938232421875 -60.8374061584472656
62.3635063171386719 79.7748260498046875 -146.931884765625
-3.65307784080505371 -50.555938720703125 -163.43414306640625
123.979080200195312 -172.797622680664062 41.5625495910644531
66.95672607421875 153.596908569335938 -15.1586971282958984
-22.3599224090576172 172.539703369140625 -129.935272216796875
103.770118713378906 -89.5354461669921875 -107.827110290527344
100.676284790039062 -34.248291015625 105.752296447753906
-5.21949863433837891 265.62725830078125 44.4878463745117188
65.6237716674804688 152.760971069335938 88.6778717041015625
-20.8372840881347656 105.4622802734375 104.771903991699219
-6.01060056686401367 263.840301513671875 69.5736007690429688
133.843521118164062 -147.976837158203125 9.55570697784423828
-74.2999343872070312 -147.177474975585938 -110.172767639160156
-88.7093124389648438 -30.78125 -19.8323173522949219
-39.5824394226074219 242.8876953125 173.152114868164062
127.5499267578125 -76.58453369140625 -56.8379096984863281
-86.9039306640625 -173.929656982421875 42.817413330078125
112.726020812988281 -134.33917236328125 -94.3382415771484375
-45.4269638061523438 90.0307693481445312 -95.27130126953125
-11.6566572189331055 124.571739196777344 102.548408508300781
58.1422157287597656 156.4154052734375 -140.411865234375
89.7302703857421875 -62.8429908752441406 112.877418518066406
-37.5276374816894531 58.1395072937011719 99.9456634521484375
-75.0819931030273438 -82.6215896606445312 91.8377838134765625
-78.411712646484375 -283.900421142578125 57.1544952392578125
3.7212979793548584 83.420867919921875 122.40362548828125
97.1035995483398438 -32.8085174560546875 107.435066223144531
-58.5238723754882812 -66.5184097290039062 109.286445617675781
-17.1315269470214844 -254.217178344726562 -154.41717529296875
-77.5318527221679688 200.637435913085938 -5.35390996932983398
94.7166366577148438 -276.208587646484375 -22.4135704040527344
-70.3944549560546875 126.419532775878906 -69.1802902221679688
-82.1099929809570312 76.8574371337890625 -33.5706367492675781
-77.6388092041015625 -56.8083229064941406 7.04848957061767578
114.003128051757812 66.0432815551757812 31.5767440795898438
77.8443374633789062 193.101394653320312 -50.6944847106933594
31.9752826690673828 -161.760528564453125 -167.134780883789062
45.2043991088867188 221.126541137695312 66.9085464477539062
91.73272705078125 161.552642822265625 -90.8609848022460938
-60.0124244689941406 -40.7603988647460938 -131.838302612304688
-72.9745712280273438 143.6568603515625 -80.0785980224609375
82.8204269409179688 84.0560073852539062 77.6346206665039062
-67.905487060546875 187.511123657226562 102.711593627929688
122.39105224609375 -36.5966987609863281 -123.556167602539062
-42.9351539611816406 190.690322875976562 169.621490478515625
-8.03592395782470703 236.6158447265625 -83.5473480224609375
-18.5360584259033203 -301.2772216796875 -8.92283725738525391
-78.3825454711914062 120.048248291015625 -70.71990966796875
-17.8624687194824219 -300.996307373046875 -12.6415300369262695
-66.285552978515625 -171.4208984375 -105.44744873046875
97.2081680297851562 -75.6891555786132812 102.274032592773438
57.8311843872070312 -258.16156005859375 -132.729339599609375
-53.4406852722167969 -225.077850341796875 -112.113594055175781
-27.1763668060302734 84.7181320190429688 109.313186645507812
106.455299377441406 -189.437728881835938 -90.6658477783203125
-4.59900569915771484 -129.664474487304688 150.122940063476562
121.905807495117188 49.1975784301757812 -44.481353759765625
106.810134887695312 -127.802528381347656 -106.366973876953125
-11.5264072418212891 256.358123779296875 66.654937744140625
71.1170425415039062 165.923828125 15.8773021697998047
-91.8822097778320312 -27.8544559478759766 -45.5560989379882812
115.270965576171875 78.9744796752929688 -74.4646987915039062
107.902557373046875 -168.295333862304688 -91.7569122314453125
-75.29718017578125 -11.5290212631225586 -16.1829681396484375
-3.10468935966491699 130.41497802734375 115.873382568359375
124.655998229980469 -193.926071166992188 27.0372600555419922
28.6748008728027344 206.94464111328125 -131.305587768554688
82.93170166015625 135.626678466796875 -61.8336410522460938
97.4144744873046875 98.0005950927734375 6.34066247940063477
102.231422424316406 -203.633621215820312 -97.4522781372070312
-83.2690353393554688 14.1987380981445312 -49.2896995544433594
-72.0406036376953125 214.62451171875 -15.7482099533081055
65.3494796752929688 -288.6427001953125 -51.3264274597167969
-79.46240234375 -158.635711669921875 -69.38397216796875
117.223274230957031 -24.1811752319335938 -96.1198272705078125
73.203857421875 -127.107940673828125 125.854629516601562
112.355888366699219 -246.622711181640625 20.7664966583251953
15.0005006790161133 225.254867553710938 99.4486083984375
-70.22711181640625 101.4459228515625 33.7877845764160156
-7.64748716354370117 -2.56296801567077637 -162.341705322265625
64.8765869140625 91.4864501953125 -148.8416748046875
58.1083946228027344 -197.02081298828125 -155.05767822265625
-72.9439620971679688 -6.33982467651367188 -94.8417739868164062
-43.6733512878417969 46.5387153625488281 92.5868301391601562
-59.9378776550292969 -195.503097534179688 -32.4662513732910156
-43.2898712158203125 225.816177368164062 178.355850219726562
-4.19834518432617188 -233.296707153320312 -164.98577880859375
41.8565902709960938 -109.209381103515625 146.854660034179688
-70.2985763549804688 -106.099082946777344 -37.9443893432617188
-67.5012969970703125 104.460716247558594 30.6093044281005859
34.6866798400878906 -263.078765869140625 -125.072006225585938
-80.9435501098632812 99.4624710083007812 2.9485924243927002
16.7839031219482422 208.07720947265625 86.001312255859375
133.774826049804688 -69.7662734985351562 4.87418317794799805
-85.5472564697265625 119.760711669921875 -16.2817459106445312
-80.7082061767578125 17.8815383911132812 -17.1163864135742188
85.8780670166015625 -29.7606887817382812 121.300178527832031
-70.789703369140625 107.364700317382812 -32.3257026672363281
-92.3173294067382812 -193.398468017578125 66.1565170288085938
-86.4979934692382812 56.7402191162109375 -3.07362699508666992
53.7899856567382812 -244.067733764648438 127.249336242675781
-34.9344520568847656 225.601455688476562 -8.69830894470214844
120.75067138671875 -182.340591430664062 45.0507240295410156
89.38714599609375 116.472389221191406 -67.540771484375
128.771148681640625 -55.0791168212890625 -48.7595100402832031
31.9002609252929688 -287.43731689453125 -69.9237060546875
-20.4807510375976562 -268.610137939453125 91.2809600830078125
-74.8570175170898438 -28.55108642578125 79.059661865234375
59.1746330261230469 101.556396484375 72.3150634765625
86.3333740234375 -164.875930786132812 -124.956092834472656
91.64697265625 127.500274658203125 -67.9514541625976562
-58.7343864440917969 -227.625152587890625 -81.6511001586914062
88.5221786499023438 -130.638214111328125 -138.264862060546875
-82.6221084594726562 78.6563568115234375 -37.5868568420410156
114.636634826660156 -88.1004180908203125 71.0677566528320312
-68.6561813354492188 98.8589248657226562 31.0648479461669922
35.9438667297363281 -267.578582763671875 -134.549652099609375
114.301933288574219 -17.6710109710693359 -101.279884338378906
-69.867828369140625 -185.02972412109375 67.3719635009765625
-33.563934326171875 95.1724014282226562 66.516998291015625
-31.6561717987060547 146.843231201171875 -129.7923583984375
-76.719940185546875 17.9940814971923828 -10.963287353515625
-33.53204345703125 258.996734619140625 -74.6260223388671875
-63.2779617309570312 -297.4210205078125 18.3379592895507812
24.5963115692138672 -144.153793334960938 -170.025527954101562
-57.195404052734375 211.6845703125 136.5418701171875
-42.8220291137695312 258.440155029296875 79.15582275390625
-76.6448822021484375 -30.6440658569335938 -34.0321769714355469
-58.5894279479980469 -220.480789184570312 -71.9754714965820312
-64.4686431884765625 17.0074234008789062 61.7915306091308594
105.764938354492188 -205.128036499023438 58.50543212890625
-86.495086669921875 -259.58489990234375 38.7887344360351562
52.2644081115722656 212.5550537109375 0.687149107456207275
19.1612148284912109 -96.1555023193359375 151.49700927734375
-76.9287567138671875 214.098526000976562 -10.1885757446289062
-59.9027099609375 241.435760498046875 28.3379840850830078
96.947723388671875 -206.658477783203125 72.1390457153320312
1.81405806541442871 -15.4692144393920898 -164.612457275390625
-30.9935474395751953 216.290725708007812 10.1625471115112305
-79.8241806030273438 152.845550537109375 -42.116790771484375
48.0521240234375 62.9790878295898438 -150.822311401367188
128.591323852539062 -91.3101425170898438 35.650360107421875
-20.9791469573974609 82.7575912475585938 -151.071243286132812
31.3188591003417969 199.465057373046875 -72.6632003784179688
111.467704772949219 61.6390609741210938 -100.338233947753906
-27.4727249145507812 132.312576293945312 105.263114929199219
-81.8120956420898438 -227.02545166015625 54.8671684265136719
-67.7512664794921875 115.879005432128906 34.7897186279296875
8.62573528289794922 254.532455444335938 -58.3586769104003906
-91.1223297119140625 96.1130142211914062 -53.4048309326171875
80.1669235229492188 -117.707199096679688 136.272293090820312
44.6440887451171875 -281.4263916015625 91.9818344116210938
2.75291705131530762 -43.3705101013183594 -164.00396728515625
66.9650650024414062 130.309906005859375 21.1013622283935547
1.52971029281616211 -53.9884719848632812 -165.217849731445312
-23.8167762756347656 159.5133056640625 117.773902893066406
-76.0081863403320312 -53.9451751708984375 -106.091690063476562
113.532890319824219 -23.8687629699707031 -110.616477966308594
111.605873107910156 -28.9445972442626953 81.0738754272460938
93.0496292114257812 96.3488235473632812 20.4069099426269531
-79.955352783203125 -128.256332397460938 67.861480712890625
124.899917602539062 -76.999267578125 47.5890846252441406
-2.38894367218017578 -112.740982055664062 150.66290283203125
38.7432708740234375 230.008819580078125 31.998016357421875
29.8427543640136719 172.492721557617188 -152.882522583007812
68.522186279296875 154.956832885742188 -18.3306922912597656
-92.4846343994140625 -63.4816741943359375 15.7770862579345703
-94.2234954833984375 -21.0012874603271484 -13.0838794708251953
70.0318679809570312 160.854507446289062 -36.8133697509765625
-69.3977279663085938 120.363136291503906 36.7989273071289062
89.3904953002929688 3.72513580322265625 116.784248352050781
86.9029388427734375 121.954704284667969 -27.0209331512451172
-79.371307373046875 54.982879638671875 45.1195602416992188
18.4890727996826172 79.2748794555664062 127.521286010742188
-29.7387218475341797 207.93377685546875 14.8761873245239258
26.68157958984375 -282.176055908203125 84.3538284301757812
-32.6230812072753906 -192.007797241210938 132.493148803710938
67.4016876220703125 -295.7681884765625 11.8790693283081055
125.800338745117188 -183.233322143554688 33.3496322631835938
-28.1023693084716797 -133.135955810546875 140.143692016601562
81.636566162109375 -207.029891967773438 102.60888671875
-55.6427955627441406 67.5195770263671875 33.9972801208496094
-83.8479156494140625 -28.1824550628662109 -64.2035903930664062
-71.4209213256835938 -175.391754150390625 -96.0148391723632812
41.3186454772949219 -281.929168701171875 77.7484130859375
86.985076904296875 -262.364288330078125 -83.4314804077148438
43.8420944213867188 -250.504669189453125 125.063941955566406
-6.522918701171875 101.540191650390625 -161.863739013671875
-29.5104961395263672 -120.584815979003906 -160.664230346679688
-73.161590576171875 -188.8834228515625 86.940460205078125
-77.4397964477539062 153.133712768554688 75.8481292724609375
-66.9826202392578125 194.957077026367188 151.980300903320312
-50.1532707214355469 77.2180252075195312 -70.1063079833984375
19.2189273834228516 195.99298095703125 -107.747581481933594
-62.5096893310546875 -282.885406494140625 74.5033340454101562
11.6158304214477539 166.631332397460938 -159.786483764648438
-89.1250991821289062 198.537750244140625 47.1054725646972656
12.4813680648803711 162.201553344726562 129.775131225585938
69.1904373168945312 -188.463821411132812 -147.08843994140625
45.5733604431152344 192.620590209960938 -145.653610229492188
-72.3548355102539062 73.6582183837890625 -86.8117294311523438
-7.83114480972290039 255.745986938476562 -103.231513977050781
22.2541007995605469 57.5271339416503906 -157.107711791992188
-64.643402099609375 -141.586776733398438 115.792922973632812
118.887931823730469 49.0187835693359375 34.8583488464355469
115.411422729492188 57.0788726806640625 30.4234619140625
-60.1192169189453125 -194.799972534179688 -86.1102676391601562
-47.4653968811035156 191.810821533203125 119.032615661621094
43.67462158203125 228.573211669921875 76.6243896484375
23.3163852691650391 -303.145111083984375 18.8796920776367188
17.7841739654541016 -271.93914794921875 -101.122344970703125
-70.7011947631835938 162.083755493164062 66.8645172119140625
98.2396011352539062 -206.008880615234375 -113.911483764648438
-43.0564613342285156 172.317306518554688 96.4619903564453125
-83.4065704345703125 -240.220596313476562 40.0366897583007812
113.686241149902344 48.7898750305175781 60.946807861328125
14.6826467514038086 29.5983924865722656 143.306076049804688
113.490097045898438 -47.6744117736816406 -98.5293426513671875
-31.2225608825683594 234.636886596679688 193.66766357421875
93.7354965209960938 -144.378524780273438 100.265037536621094
-30.3856525421142578 -12.0843124389648438 128.357925415039062
85.0510025024414062 128.310775756835938 -132.564926147460938
-72.080963134765625 62.919647216796875 -107.524246215820312
-33.6100006103515625 223.588729858398438 54.9952545166015625
89.6338272094726562 36.1271514892578125 -139.459732055664062
-1.46689724922180176 172.807144165039062 -162.229827880859375
-74.5119781494140625 203.992889404296875 38.1778030395507812
64.6578750610351562 134.621688842773438 9.86886024475097656
90.22076416015625 -207.93914794921875 72.081939697265625
112.739486694335938 37.8825798034667969 63.4658927917480469
-17.3258800506591797 227.48785400390625 -22.8262615203857422
73.3529052734375 -115.18560791015625 134.4989013671875
83.3944549560546875 -177.565826416015625 -130.045364379882812
134.37091064453125 -140.747283935546875 -8.31991481781005859
-49.6538658142089844 68.972412109375 -89.9840316772460938
-73.6661300659179688 57.280914306640625 69.4592514038085938
-67.7847747802734375 -168.37322998046875 -52.33978271484375
-7.55829906463623047 219.445724487304688 138.999008178710938
75.2074966430664062 103.972129821777344 15.3079729080200195
-84.3833541870117188 3.00872635841369629 57.953582763671875
-40.5904350280761719 140.609939575195312 80.1526947021484375
22.7597217559814453 -197.869033813476562 151.001937866210938
-5.38699245452880859 18.6276226043701172 -163.851242065429688
24.3246917724609375 197.898757934570312 -127.447998046875
-71.7481307983398438 -77.354248046875 -30.7310791015625
88.805389404296875 -39.376617431640625 117.6142578125
117.864250183105469 -117.099769592285156 -87.2546844482421875
-9.70239925384521484 245.6123046875 -23.3514842987060547
-3.37152814865112305 -270.950836181640625 106.733856201171875
123.038856506347656 -23.9401130676269531 -74.7164688110351562
-82.1961517333984375 10.7281913757324219 45.6353607177734375
65.0879364013671875 -246.74957275390625 84.1980514526367188
-63.4821624755859375 -154.201766967773438 -110.337013244628906
-100.637054443359375 -42.1289024353027344 -39.877838134765625
-76.1589431762695312 -290.567169189453125 26.7579021453857422
-50.956512451171875 1.89618420600891113 -138.082275390625
-68.2248992919921875 250.510269165039062 -5.83018064498901367
54.8344154357910156 212.107009887695312 -23.0923175811767578
97.3610992431640625 -43.7450141906738281 -124.244697570800781
34.7948646545410156 -214.828750610351562 -164.321029663085938
-79.329376220703125 77.3954849243164062 48.7014579772949219
-79.548187255859375 65.682861328125 8.41699314117431641
-24.2477245330810547 206.52691650390625 181.456878662109375
-0.280871868133544922 165.735214233398438 123.600860595703125
-76.4517059326171875 72.5448532104492188 73.5660171508789062
64.78265380859375 164.267257690429688 120.099311828613281
-106.235153198242188 -128.01708984375 52.2466773986816406
21.2494983673095703 196.57159423828125 -97.7675323486328125
2.38889503479003906 232.265716552734375 -6.74770498275756836
-62.98162841796875 -203.188262939453125 0.573606669902801514
-26.8644199371337891 -71.420196533203125 -156.906158447265625
41.67474365234375 233.925796508789062 63.2948417663574219
-2.81904125213623047 129.138290405273438 110.951469421386719
-79.3029022216796875 187.763381958007812 38.8949470520019531
-45.2333259582519531 71.0898284912109375 -105.517463684082031
19.1923389434814453 -300.283050537109375 63.718963623046875
-79.2044906616210938 -89.5236740112304688 -106.681854248046875
-51.0756645202636719 232.587539672851562 90.3943634033203125
-37.22802734375 173.342208862304688 96.0139999389648438
-45.9460029602050781 172.325546264648438 106.537956237792969
-65.6038970947265625 184.001220703125 -91.49322509765625
-9.71108531951904297 251.647796630859375 83.7035293579101562
-17.5557765960693359 -158.483627319335938 144.729217529296875
113.920951843261719 -207.246322631835938 27.2476177215576172
-71.9991378784179688 109.762039184570312 14.9506769180297852
115.132621765136719 -223.878326416015625 24.8907604217529297
-36.2504196166992188 -146.854080200195312 134.868179321289062
-33.0053062438964844 83.3847274780273438 -136.57373046875
44.1992034912109375 -283.713470458984375 87.1644210815429688
88.1190261840820312 86.8477554321289062 53.8466072082519531
6.93205356597900391 -199.16943359375 149.825027465820312
-12.1531658172607422 232.753707885742188 -122.261398315429688
-27.9701519012451172 61.0506095886230469 116.111747741699219
67.120574951171875 112.591590881347656 36.8055152893066406
-29.9847202301025391 207.436248779296875 13.0672407150268555
0.0598780363798141479 -264.680389404296875 -147.551177978515625
-70.6508865356445312 193.441299438476562 92.3378067016601562
98.36224365234375 112.450775146484375 -89.1888961791992188
-88.1125030517578125 11.2465476989746094 8.56681442260742188
19.0337123870849609 108.787887573242188 -151.597198486328125
71.9632720947265625 -141.7906494140625 123.526901245117188
-27.6812648773193359 212.6890869140625 91.6257553100585938
-86.4236526489257812 -264.265289306640625 36.0439300537109375
29.9448604583740234 -278.58099365234375 102.34600830078125
0.103063911199569702 243.88385009765625 30.5546932220458984
-61.8908004760742188 175.769744873046875 85.6899871826171875
-85.4290847778320312 -141.92626953125 -57.8220634460449219
-54.1650619506835938 -202.9622802734375 -108.488655090332031
46.7728042602539062 196.637908935546875 125.995330810546875
-41.1480712890625 -290.10870361328125 32.71636962890625
-86.7532577514648438 -204.308013916015625 58.8576583862304688
-74.2803115844726562 147.542373657226562 -63.2800407409667969
124.800849914550781 -44.693572998046875 -84.04974365234375
1.41938698291778564 236.008071899414062 -144.490982055664062
-55.5880203247070312 6.81225442886352539 96.9772491455078125
106.56512451171875 -147.545989990234375 -101.374992370605469
-36.9210891723632812 225.997161865234375 166.312576293945312
-60.2178878784179688 -149.619827270507812 -111.511138916015625
-70.8208389282226562 -224.458816528320312 49.0131187438964844
82.7344512939453125 -258.6885986328125 -95.2507781982421875
-12.3813333511352539 237.962417602539062 127.687728881835938
124.283363342285156 -45.8661346435546875 -72.1716079711914062
-88.8034286499023438 -25.0200939178466797 54.8110084533691406
61.1587181091308594 213.937042236328125 96.4356155395507812
109.609870910644531 -91.1107940673828125 83.7648544311523438
-77.6381072998046875 -224.72479248046875 75.7816848754882812
-14.0057735443115234 235.513717651367188 46.1595535278320312
42.6229476928710938 56.7433815002441406 137.368026733398438
-28.8854637145996094 220.216079711914062 114.282669067382812
-72.13409423828125 -198.974884033203125 12.3129358291625977
72.2533187866210938 155.835281372070312 -69.7356796264648438
-27.3437347412109375 -168.8782958984375 -158.358261108398438
-40.5670700073242188 12.2815208435058594 111.709587097167969
129.34307861328125 12.3605728149414062 -45.5272636413574219
42.302093505859375 -251.50775146484375 122.894340515136719
1.13481926918029785 240.455520629882812 -141.209732055664062
114.883308410644531 64.4133529663085938 29.7709121704101562
-31.3926410675048828 -264.02972412109375 -137.154678344726562
-80.2958755493164062 32.2444572448730469 30.9127712249755859
-50.42120361328125 72.719970703125 -70.1186676025390625
67.703094482421875 113.189559936523438 34.613677978515625
-77.2374038696289062 48.6407814025878906 15.2476720809936523
-60.6829414367675781 -193.557861328125 -95.7258224487304688
33.2309150695800781 152.836990356445312 -149.293777465820312
7.15277099609375 208.078781127929688 -89.664154052734375
-65.4797134399414062 183.718963623046875 73.8039932250976562
63.288848876953125 135.835037231445312 42.1240158081054688
-49.3394241333007812 102.986824035644531 30.7305774688720703
-42.4494514465332031 151.847335815429688 54.9463272094726562
8.99588775634765625 251.486434936523438 13.2591257095336914
-32.6918144226074219 169.280670166015625 140.0106201171875
-67.828369140625 135.248825073242188 39.6212654113769531
-54.6300621032714844 -139.200332641601562 -133.9520263671875
-66.6658248901367188 -166.820693969726562 6.51447677612304688
-9.45733356475830078 251.401214599609375 -31.8916950225830078
-19.0703792572021484 203.576141357421875 114.190406799316406
