ply
format ascii 1.0
element vertex 783
comment vertices
property float x
property float y
property float z
end_header
-49.8723907470703125 5.78963518142700195 -46.267913818359375
-3.33663463592529297 14.6125717163085938 27.6399192810058594
-5.56033134460449219 14.8456993103027344 10.4409780502319336
0.84680783748626709 -17.5802021026611328 2.86159896850585938
-9.11916255950927734 14.0676240921020508 -6.90930509567260742
-17.6381206512451172 -6.36462497711181641 -42.7499427795410156
-14.3245820999145508 -8.45377826690673828 42.8118553161621094
-46.4481468200683594 5.79575395584106445 39.2813835144042969
-47.3903045654296875 -13.2737932205200195 14.5368518829345703
4.07907485961914062 7.08426237106323242 43.4785346984863281
54.3893318176269531 -6.48648262023925781 -41.4604034423828125
-11.0897312164306641 -15.3500471115112305 18.6802310943603516
-30.4816360473632812 17.2287235260009766 -3.98062849044799805
-35.2557144165039062 -11.4473056793212891 28.5254917144775391
-42.9109649658203125 -10.7270641326904297 -29.0327091217041016
-13.8897390365600586 16.0654468536376953 18.0076751708984375
-49.6732254028320312 -6.86526012420654297 36.8534774780273438
-27.7246723175048828 -2.0820159912109375 45.7855911254882812
50.5109519958496094 -12.3670568466186523 35.1783790588378906
-46.8984413146972656 -11.0340785980224609 30.8362274169921875
39.843048095703125 -5.00298023223876953 44.2702598571777344
8.51335334777832031 -18.5410842895507812 0.993489444255828857
-24.5838356018066406 17.1793956756591797 28.2862262725830078
-5.09269905090332031 14.1060218811035156 32.8043212890625
9.93173599243164062 -18.6049880981445312 -4.76511001586914062
-7.64618492126464844 14.7427597045898438 8.01821517944335938
18.8749446868896484 -15.8951902389526367 26.0633983612060547
-8.77161026000976562 5.00526332855224609 44.768463134765625
-34.0422439575195312 -6.6473994255065918 -40.4586715698242188
17.2292079925537109 11.1957406997680664 -44.468109130859375
49.6051139831542969 -15.7430543899536133 -1.15116536617279053
-15.7898530960083008 -11.3599061965942383 -28.2656784057617188
38.1236648559570312 -16.6604671478271484 28.8117160797119141
-46.9673233032226562 19.2102317810058594 11.1354961395263672
54.3971023559570312 9.84137153625488281 2.01805353164672852
-38.7464828491210938 -2.97596073150634766 46.087493896484375
-46.9428138732910156 20.2397232055664062 -24.7310829162597656
53.3595733642578125 4.85060310363769531 -8.40367031097412109
33.3283538818359375 8.16297245025634766 -18.8978805541992188
-14.4771957397460938 15.6234846115112305 -25.8690109252929688
50.712249755859375 -13.408930778503418 -21.8669338226318359
27.6822834014892578 8.94511699676513672 -3.73241806030273438
-11.7675104141235352 -16.1693840026855469 0.880732297897338867
-26.2279186248779297 5.45392179489135742 -46.1410331726074219
-39.4298439025878906 19.2047767639160156 -45.3215370178222656
-11.1637411117553711 8.48039722442626953 43.8538589477539062
31.1002864837646484 9.98571872711181641 27.2938365936279297
-29.3188762664794922 16.7789993286132812 13.9124298095703125
13.6022911071777344 -10.143345832824707 -36.3988685607910156
0.151560962200164795 14.3891572952270508 21.3646678924560547
18.2653884887695312 12.9064130783081055 40.3713951110839844
-49.1268692016601562 17.7700767517089844 -36.7964439392089844
23.1831264495849609 -15.0263986587524414 -19.3469467163085938
-37.1486282348632812 -12.6103401184082031 -4.74985361099243164
9.24920749664306641 -7.19419384002685547 -41.4191780090332031
18.0703048706054688 11.9505252838134766 30.1369304656982422
6.98579692840576172 12.4853477478027344 -4.85245513916015625
52.4028778076171875 -6.07939720153808594 22.2963123321533203
20.066192626953125 11.6026697158813477 42.5641288757324219
-29.9220218658447266 16.7419357299804688 15.13775634765625
54.4166336059570312 0.879893064498901367 -32.0407676696777344
-8.16551685333251953 15.1131744384765625 -26.8981151580810547
-2.76512289047241211 11.7476520538330078 -44.8283195495605469
-7.69834756851196289 -9.20265483856201172 -37.9764747619628906
48.3548240661621094 -8.228759765625 38.0281448364257812
49.5293807983398438 11.5000534057617188 11.566746711730957
-50.2677268981933594 -10.7225608825683594 27.3884487152099609
-30.9550724029541016 17.2838459014892578 -21.7264385223388672
-20.071807861328125 -6.74030017852783203 -41.8806381225585938
-7.53020143508911133 -16.6603431701660156 5.98460245132446289
-43.2577056884765625 -10.8184404373168945 -28.5361480712890625
-32.44873046875 -6.75130701065063477 -40.4864997863769531
-41.8204078674316406 -12.5828180313110352 11.4255523681640625
50.0500679016113281 -13.5374965667724609 -14.7773504257202148
29.4008102416992188 -13.8642997741699219 -24.7916660308837891
-20.9805164337158203 -7.45393753051757812 44.1300888061523438
3.56864333152770996 -15.6069574356079102 26.7924633026123047
2.77568626403808594 13.9371843338012695 21.2711544036865234
-31.0344486236572266 16.0566997528076172 7.98097085952758789
25.4624290466308594 -11.7675046920776367 -31.7145462036132812
53.5761680603027344 13.6741971969604492 -15.6872129440307617
-44.6413078308105469 -11.5862760543823242 39.4871711730957031
-20.8547382354736328 17.0763874053955078 -33.8167304992675781
-51.7762069702148438 13.4292593002319336 -9.69380569458007812
1.57371044158935547 6.5173649787902832 43.1277427673339844
-45.1732406616210938 -1.68829572200775146 -46.0848808288574219
16.9085369110107422 0.358629524707794189 43.4953041076660156
43.2175064086914062 8.81792068481445312 -22.8577785491943359
42.4411201477050781 7.89423131942749023 18.4756660461425781
18.8938102722167969 -17.6721439361572266 -9.81118297576904297
11.4233598709106445 12.2969341278076172 -44.276641845703125
-7.95031452178955078 14.9889078140258789 -43.4324607849121094
-30.2548122406005859 -8.18315982818603516 -38.4671897888183594
1.28899705410003662 -15.2709074020385742 -17.7076625823974609
-14.9681673049926758 16.7512969970703125 -34.907989501953125
-37.6350440979003906 -11.3418397903442383 35.9725532531738281
33.4767646789550781 11.2380266189575195 38.9214057922363281
-18.4386539459228516 -11.8600749969482422 -24.5661373138427734
-17.1999912261962891 -13.4234981536865234 27.6587238311767578
-28.4364643096923828 5.68239164352416992 -47.0757827758789062
52.7551498413085938 4.76380157470703125 -1.37122321128845215
-23.9871883392333984 16.9599685668945312 -30.1376285552978516
51.7732505798339844 -0.4517478346824646 33.672271728515625
-51.6168746948242188 4.59404850006103516 -9.49700546264648438
-38.8249740600585938 -10.653350830078125 -22.001800537109375
-50.7662467956542969 -6.35758829116821289 -16.8211822509765625
-50.3864860534667969 10.5400915145874023 -31.7895030975341797
34.1695632934570312 8.14542579650878906 -14.7769193649291992
20.4604377746582031 -17.4227848052978516 -10.8804225921630859
-47.5954666137695312 21.2992534637451172 -29.6630973815917969
-50.2030525207519531 2.61837148666381836 -23.4611587524414062
-25.7936744689941406 17.4045028686523438 26.2014484405517578
39.1007537841796875 -16.0279369354248047 -20.721435546875
2.3928062915802002 13.787144660949707 29.9473190307617188
34.4425010681152344 9.25082588195800781 23.9320449829101562
-47.1160659790039062 -12.8071832656860352 -15.0762138366699219
51.8532829284667969 -12.0737667083740234 23.5716762542724609
-18.4502029418945312 17.0399303436279297 15.4945030212402344
-40.1142654418945312 -11.8137054443359375 27.2852287292480469
22.7537746429443359 -15.9577751159667969 -15.5678997039794922
-51.1393661499023438 0.364325731992721558 16.3079395294189453
26.6765327453613281 -15.7625083923339844 34.5505523681640625
8.16672801971435547 12.6893310546875 0.139254644513130188
-36.3171348571777344 17.4018211364746094 -4.41948795318603516
-38.9502296447753906 15.3856344223022461 39.9131584167480469
13.0162191390991211 -10.0665082931518555 -34.0761528015136719
-25.9591560363769531 15.8182687759399414 -8.68806838989257812
51.9511909484863281 -14.084834098815918 28.1760330200195312
9.38497543334960938 17.9847335815429688 -42.3291587829589844
22.2092075347900391 1.73646295070648193 -43.1820602416992188
22.8908863067626953 -15.8866863250732422 26.0807151794433594
-51.34716796875 3.15165591239929199 8.68106746673583984
15.1863183975219727 12.1515312194824219 10.1786661148071289
-24.4899635314941406 -12.6137609481811523 -22.8429679870605469
39.3260688781738281 -18.0232467651367188 18.3041515350341797
-41.8674888610839844 17.8118400573730469 -12.4533348083496094
-47.2816619873046875 19.6551361083984375 -19.6944427490234375
-34.3684806823730469 -11.6500148773193359 27.073028564453125
-10.1402111053466797 16.6745700836181641 -39.7835617065429688
35.2022857666015625 -12.3448591232299805 -31.7482509613037109
23.7013473510742188 10.0733051300048828 22.2757072448730469
-49.9305381774902344 17.5519943237304688 18.8063869476318359
13.8041896820068359 -15.1133184432983398 36.5788002014160156
-6.51233768463134766 -16.2815017700195312 -9.66964054107666016
41.1434822082519531 -11.862736701965332 43.3287849426269531
-39.4954452514648438 -12.6487951278686523 6.16129302978515625
52.7200584411621094 -4.75513124465942383 -50.2014694213867188
-50.0005416870117188 9.21892166137695312 15.2231559753417969
-4.21150302886962891 -16.8825874328613281 -5.65476846694946289
20.5392894744873047 -18.1264114379882812 -10.0179233551025391
-36.9215660095214844 -11.4697704315185547 -13.1485490798950195
-22.0662689208984375 6.64175796508789062 -46.4076347351074219
51.2743568420410156 -13.8996210098266602 -35.0246810913085938
-3.49774527549743652 14.7762651443481445 18.3709506988525391
-4.8477940559387207 15.2901268005371094 -32.7462692260742188
46.3745346069335938 -17.2847137451171875 28.6481304168701172
-12.0217809677124023 16.1047439575195312 -33.5631103515625
-46.6653861999511719 19.6113605499267578 -45.3862152099609375
28.8531074523925781 -15.2730321884155273 38.3340835571289062
-50.9555740356445312 10.4891338348388672 15.931361198425293
-25.1336708068847656 -14.2557706832885742 10.8947343826293945
31.2937374114990234 8.66490077972412109 18.8545989990234375
0.762956500053405762 16.5892410278320312 -43.9656715393066406
-46.7275161743164062 18.7260055541992188 -17.4395027160644531
47.2402687072753906 11.1343832015991211 -14.8702239990234375
-12.3082361221313477 16.0836830139160156 14.1075639724731445
-42.8714065551757812 15.4484596252441406 37.8931808471679688
-13.5592718124389648 17.4681510925292969 -43.797821044921875
53.1248397827148438 15.3674831390380859 -25.0334148406982422
5.96986007690429688 3.40550017356872559 43.1694679260253906
-47.7379341125488281 -13.2703104019165039 12.2128467559814453
13.0910129547119141 13.3771839141845703 43.4651985168457031
30.0897541046142578 3.71462106704711914 -44.1001129150390625
-28.9009571075439453 -12.7778129577636719 23.5647563934326172
-50.6534576416015625 5.96634006500244141 24.2039203643798828
-10.466588020324707 15.3073568344116211 32.7720718383789062
4.32181882858276367 -12.6422548294067383 -25.2862319946289062
-33.3381156921386719 10.5625 44.1183433532714844
3.248504638671875 -14.8468189239501953 35.2495536804199219
-47.2068557739257812 -12.6754856109619141 -16.4561061859130859
47.0243415832519531 -19.2523345947265625 16.7481632232666016
49.7980079650878906 13.412109375 -9.12095165252685547
-29.5398521423339844 -11.3482112884521484 31.7349815368652344
10.1250762939453125 1.74936211109161377 43.0270042419433594
26.0024185180664062 -2.33310747146606445 -43.3953437805175781
52.61212158203125 9.59012794494628906 8.6573333740234375
-51.3947486877441406 4.45499420166015625 15.1398344039916992
15.9105920791625977 1.67114055156707764 -44.1874427795410156
-48.9206962585449219 19.0638847351074219 -40.1370468139648438
-46.9183540344238281 14.2464742660522461 35.3506126403808594
-24.2162952423095703 16.9381027221679688 -28.1478271484375
-22.7194099426269531 16.7966079711914062 32.5151290893554688
38.6974945068359375 8.41168498992919922 -17.5674686431884766
-48.9479446411132812 16.6342296600341797 -33.2114448547363281
-50.0076789855957031 19.1535415649414062 -6.36419677734375
-46.6303863525390625 8.98575592041015625 37.1912307739257812
16.9482479095458984 11.7379302978515625 30.144683837890625
50.9276237487792969 -13.8093681335449219 -35.5693130493164062
52.0268898010253906 -2.52860283851623535 -1.86541748046875
23.9068889617919922 12.0877904891967773 -25.4346065521240234
-24.5149497985839844 -12.8695859909057617 38.20068359375
25.7043972015380859 13.0436763763427734 -39.037811279296875
-32.0680465698242188 -13.5139551162719727 8.27489185333251953
-17.2063026428222656 -14.946406364440918 -7.99311733245849609
17.4669132232666016 -18.7292575836181641 -3.87565302848815918
-49.4013519287109375 -9.74303531646728516 -13.5019731521606445
24.7790775299072266 -18.6404571533203125 11.3341732025146484
45.6276054382324219 -18.8625965118408203 -0.240541800856590271
-6.84242534637451172 0.724257230758666992 43.8658065795898438
-43.4440803527832031 10.5539207458496094 39.3924751281738281
-47.2453956604003906 20.0134201049804688 -41.0267372131347656
30.8814239501953125 11.9503679275512695 -41.0134658813476562
54.6600837707519531 -2.69925403594970703 -33.2085800170898438
-7.01742076873779297 1.69725775718688965 43.7917976379394531
-51.3449821472167969 -0.194668486714363098 9.17784214019775391
48.7261810302734375 10.6240234375 -44.2486457824707031
19.188446044921875 11.524479866027832 33.9492874145507812
-41.7241287231445312 18.0267562866210938 -29.079132080078125
-19.6764297485351562 -13.9060802459716797 -14.8418340682983398
-9.05568695068359375 -14.7241125106811523 26.0416889190673828
-22.5441379547119141 1.51099371910095215 -46.4628181457519531
8.35109043121337891 -16.7032814025878906 23.9963321685791016
0.434575140476226807 13.1313419342041016 1.07585513591766357
40.7218704223632812 -16.0194911956787109 -22.1083564758300781
-45.5441436767578125 19.1001033782958984 -46.6903076171875
32.4602279663085938 9.82114696502685547 -20.33935546875
-50.438446044921875 -3.47061634063720703 -22.436676025390625
16.98382568359375 -18.4665164947509766 15.3192720413208008
-49.9960174560546875 14.6802244186401367 29.3545913696289062
-27.2600517272949219 -11.6884899139404297 33.7203216552734375
-34.5716133117675781 -9.55283355712890625 -31.8057899475097656
-46.7430038452148438 10.0905523300170898 36.8445396423339844
33.3602790832519531 10.9732189178466797 -32.59832763671875
8.32616424560546875 10.2846698760986328 44.0527267456054688
3.70865201950073242 12.857691764831543 -16.5560474395751953
19.1784553527832031 -12.2770748138427734 -26.6093521118164062
51.7251014709472656 -15.4423961639404297 27.4458255767822266
-3.64246296882629395 -14.043828010559082 -20.5122528076171875
2.53595900535583496 -18.0973930358886719 -1.91158854961395264
12.6269016265869141 14.1448287963867188 -35.0367660522460938
-14.381098747253418 10.4309091567993164 -45.5342140197753906
13.4371938705444336 -13.7300281524658203 -22.7897396087646484
-5.94872617721557617 15.4789857864379883 25.11126708984375
-13.9256315231323242 16.6419849395751953 -34.5800437927246094
5.41801118850708008 -15.0359897613525391 32.7248687744140625
24.9816188812255859 -16.2389907836914062 -14.2388362884521484
-29.1725635528564453 16.9757175445556641 -1.15342199802398682
-11.496342658996582 14.7067165374755859 -17.300811767578125
19.2412910461425781 -10.8638601303100586 -28.4903430938720703
33.1279373168945312 5.29883766174316406 -44.8186531066894531
32.2275924682617188 -17.9760189056396484 18.9672412872314453
36.3783798217773438 -15.4133968353271484 40.1008949279785156
-1.29929041862487793 -17.2522964477539062 12.4171380996704102
-17.4228439331054688 -14.2022914886474609 20.4237194061279297
-47.7378387451171875 17.5279216766357422 32.1263847351074219
51.6876640319824219 -0.944293856620788574 15.3493032455444336
-28.3718528747558594 -14.1836147308349609 7.11712312698364258
53.1926460266113281 -0.798208117485046387 -48.6649436950683594
-1.03272616863250732 15.2647857666015625 -38.2852058410644531
-5.86068487167358398 -12.6260929107666016 -25.1485157012939453
-23.8704986572265625 -13.4257450103759766 23.9270458221435547
-50.2456207275390625 6.66363000869750977 -17.0912265777587891
49.5066261291503906 -15.9513969421386719 -4.81131124496459961
8.26567268371582031 -18.542144775390625 -5.71031475067138672
-35.8615493774414062 17.4002780914306641 -7.86845207214355469
-33.1113128662109375 17.9472560882568359 14.8205509185791016
-42.3496131896972656 4.62559032440185547 -46.9091377258300781
-20.4629936218261719 0.247605368494987488 -46.1737556457519531
49.5101127624511719 -16.8553085327148438 -13.2190532684326172
-30.7624740600585938 -13.5336294174194336 -4.09668779373168945
33.7220382690429688 9.94373416900634766 26.6145114898681641
7.55335378646850586 -14.9759302139282227 32.9238700866699219
-6.6817326545715332 -16.0986804962158203 -11.3513422012329102
22.6526699066162109 -14.1869182586669922 -22.8263454437255859
-35.5189056396484375 18.2474956512451172 -35.0533332824707031
50.9551849365234375 -8.29412078857421875 34.4279823303222656
28.6805915832519531 12.0787277221679688 -32.7134513854980469
-46.6771430969238281 11.1594104766845703 36.6998863220214844
22.7611522674560547 10.3128843307495117 14.6809577941894531
33.9367218017578125 10.1254425048828125 -23.8110237121582031
30.2684040069580078 -9.32616615295410156 44.8176765441894531
-47.4088973999023438 19.92315673828125 24.4963226318359375
-39.0852622985839844 17.8275375366210938 -25.9419593811035156
-6.24760580062866211 -17.0966587066650391 9.02239227294921875
41.2219619750976562 -18.4625644683837891 -3.74343752861022949
-19.7941532135009766 18.0595607757568359 -45.4239082336425781
-37.0955238342285156 17.5706615447998047 -3.42145276069641113
-37.1274223327636719 17.0095767974853516 38.344482421875
8.78425502777099609 0.110472515225410461 -44.0442047119140625
0.873874485492706299 -10.2170219421386719 -33.5171165466308594
39.7382087707519531 10.3505964279174805 34.7152366638183594
48.4934310913085938 12.8417043685913086 -13.4398412704467773
-16.2911624908447266 15.2416877746582031 -7.6367497444152832
35.3152542114257812 -18.4190521240234375 3.17294526100158691
-41.7338600158691406 16.6660366058349609 -47.4510421752929688
-31.425079345703125 -13.4389858245849609 0.973750054836273193
15.6864500045776367 -8.46707916259765625 41.5285072326660156
23.4776153564453125 -16.3388633728027344 -14.9885902404785156
46.3015289306640625 -18.6995735168457031 -2.63708591461181641
-35.2824211120605469 -8.98274803161621094 -35.234954833984375
-32.33648681640625 -1.03190922737121582 46.0979194641113281
-1.71533918380737305 14.1422414779663086 6.2239680290222168
-18.20318603515625 16.1362819671630859 29.890655517578125
-33.4970855712890625 17.2360668182373047 -7.18119049072265625
38.0765037536621094 -5.62313652038574219 45.0904312133789062
-51.8912086486816406 14.3416824340820312 -0.453411728143692017
-27.4386043548583984 -13.8462152481079102 16.6385173797607422
-4.44760513305664062 -3.21195530891418457 -41.7393836975097656
40.6464920043945312 2.21657109260559082 -47.5217781066894531
-17.0510292053222656 -14.6527624130249023 17.7938671112060547
-34.6236991882324219 17.6544647216796875 6.52296686172485352
36.9695053100585938 9.20219516754150391 25.6838169097900391
47.0679092407226562 -18.8902721405029297 -1.03023457527160645
-42.6115646362304688 -7.73937511444091797 -40.97137451171875
30.1699657440185547 -16.3162422180175781 27.6749000549316406
-30.5868358612060547 3.98747110366821289 -46.2858047485351562
27.4181118011474609 -18.1884174346923828 -0.472715526819229126
-13.8162755966186523 10.1610069274902344 -45.4994392395019531
-46.01910400390625 19.4352207183837891 21.7144317626953125
-27.5257091522216797 1.33874619007110596 46.3439521789550781
40.9671630859375 7.02437591552734375 1.61439800262451172
-51.0465469360351562 -3.30909991264343262 34.7055206298828125
40.6901359558105469 -18.0985031127929688 -15.1544914245605469
-49.9447822570800781 19.0814800262451172 -46.55364990234375
-36.2469711303710938 -0.313169240951538086 -47.1168251037597656
53.7280845642089844 5.36681985855102539 -23.9047222137451172
54.0290756225585938 5.78284358978271484 -11.1911420822143555
-51.5234336853027344 -8.54897022247314453 25.5336360931396484
24.5005626678466797 11.7367887496948242 41.7608604431152344
28.6536769866943359 6.64959573745727539 -44.3414573669433594
36.4160652160644531 -18.2339458465576172 16.8962936401367188
-46.3978691101074219 19.6866130828857422 -35.2396774291992188
-8.06746387481689453 -14.9314250946044922 -17.9703865051269531
51.4669990539550781 3.46497607231140137 22.2618579864501953
5.61583375930786133 -18.0994949340820312 -6.36008167266845703
1.17238819599151611 8.87609672546386719 43.6837005615234375
-48.6498985290527344 -12.2453393936157227 10.5633087158203125
2.4294891357421875 12.9276018142700195 -1.25841748714447021
25.2659587860107422 9.64223861694335938 14.3323087692260742
-36.3298988342285156 -11.3346290588378906 31.2007064819335938
44.6216201782226562 8.15997600555419922 38.9820137023925781
50.8284873962402344 15.172027587890625 -24.8204383850097656
-15.0799417495727539 -15.4695158004760742 -3.3269805908203125
-51.3491058349609375 8.27376556396484375 11.904505729675293
49.9239616394042969 11.736048698425293 15.9217987060546875
46.8756904602050781 -19.6601810455322266 2.51526665687561035
51.1994590759277344 -6.42527675628662109 -13.7818832397460938
-47.9104843139648438 21.0238208770751953 -32.0742225646972656
53.2085647583007812 13.7493276596069336 -12.6052360534667969
-51.2136764526367188 17.7055568695068359 -15.7562723159790039
2.41902446746826172 -9.87458705902099609 -37.6694831848144531
-51.561767578125 2.07444620132446289 6.21167802810668945
-24.5462417602539062 -14.5916824340820312 -3.15062737464904785
-6.36812019348144531 15.7061796188354492 20.3732872009277344
45.8403167724609375 -18.4559249877929688 -12.5545902252197266
19.0105304718017578 -10.3519077301025391 -32.92626953125
-48.98553466796875 -10.4768991470336914 7.20238924026489258
49.0196418762207031 13.1793041229248047 -13.3494501113891602
49.5506439208984375 -8.77399063110351562 0.304227560758590698
-1.79188883304595947 15.4260787963867188 -42.6861114501953125
12.6068859100341797 12.0602016448974609 15.750208854675293
-0.124644525349140167 14.2294464111328125 17.9696121215820312
31.8501625061035156 12.1479940414428711 -40.4396896362304688
-14.0573816299438477 -7.0497288703918457 43.2490158081054688
51.5185928344726562 2.43743562698364258 -2.21483659744262695
-27.7934474945068359 17.3900737762451172 10.3895139694213867
-16.4862384796142578 16.3113918304443359 -27.7507610321044922
18.880340576171875 11.9681978225708008 -16.2197933197021484
-8.06506443023681641 14.4105167388916016 -20.5458755493164062
7.45123529434204102 13.3271608352661133 25.1515789031982422
-5.60425519943237305 -11.666163444519043 -26.9504718780517578
-36.72210693359375 -10.1491308212280273 -27.4404163360595703
-37.7889671325683594 -11.6496467590332031 26.1509685516357422
-30.424285888671875 -13.8632316589355469 9.70836734771728516
32.8389091491699219 8.10685825347900391 -12.766937255859375
-29.6035327911376953 17.2487430572509766 -26.9146080017089844
47.5996360778808594 -19.5405635833740234 2.17712569236755371
-22.0400924682617188 -14.6186590194702148 7.63665246963500977
25.6873950958251953 9.020172119140625 45.11126708984375
25.9250640869140625 -18.2549877166748047 -6.88033151626586914
-17.3622150421142578 -10.8420886993408203 -29.1087093353271484
-26.3303127288818359 -14.4283857345581055 2.98609519004821777
-18.0860881805419922 15.4590997695922852 -23.99700927734375
-50.0092315673828125 6.02550983428955078 -25.8192863464355469
13.241302490234375 -13.5631895065307617 -22.0503654479980469
-50.2753639221191406 5.13892173767089844 -16.0988254547119141
-15.6085548400878906 -10.0704851150512695 -33.7355575561523438
-36.105712890625 17.9770545959472656 11.939453125
47.4293327331542969 8.33045005798339844 -46.9830780029296875
-1.99654483795166016 14.1583089828491211 34.9253273010253906
-43.7055320739746094 18.2104778289794922 -16.8239574432373047
-25.2931880950927734 17.7359523773193359 28.8276901245117188
29.4252128601074219 -16.0713024139404297 32.9965400695800781
29.6971664428710938 2.81421160697937012 -44.2000465393066406
21.8173561096191406 -10.7668066024780273 -32.5933761596679688
-51.8484878540039062 0.534942984580993652 -1.837929368019104
12.560542106628418 11.6671972274780273 2.33041834831237793
-17.4269046783447266 14.839238166809082 -20.3864364624023438
23.63299560546875 -11.8288383483886719 -29.4504890441894531
-28.428863525390625 -5.23586750030517578 -43.7300605773925781
20.5768909454345703 11.8359174728393555 33.80792236328125
-37.1553764343261719 -13.1519660949707031 7.36807584762573242
-44.5749244689941406 13.6358232498168945 -48.3022613525390625
-6.9038701057434082 -10.4815816879272461 -31.0134296417236328
-49.5070533752441406 -3.86125898361206055 -29.2018318176269531
-15.5216073989868164 15.0624847412109375 -12.3436470031738281
12.4277210235595703 -9.82781219482421875 -34.9746131896972656
-47.4402656555175781 19.7507953643798828 25.4105587005615234
-48.6029319763183594 13.783355712890625 33.2391891479492188
10.9592866897583008 -14.7375020980834961 -16.6395111083984375
41.8574600219726562 -18.4368305206298828 17.2008228302001953
-22.4560661315917969 16.5652656555175781 22.7150459289550781
49.2098884582519531 -18.1167774200439453 28.1909351348876953
52.3230209350585938 -10.7460155487060547 -25.9449043273925781
-33.9398612976074219 18.4991493225097656 28.3704719543457031
-34.6702919006347656 -12.2891855239868164 39.3464393615722656
6.78445148468017578 -14.6623029708862305 -20.0990257263183594
31.2925300598144531 -14.4173030853271484 -16.2078876495361328
21.5067024230957031 -15.4637613296508789 29.8153076171875
17.35589599609375 11.3493289947509766 19.3462982177734375
-47.9071578979492188 18.1028423309326172 31.3569602966308594
3.67309999465942383 3.88013982772827148 -43.7269134521484375
51.7661781311035156 -3.8296353816986084 13.6609420776367188
27.123046875 -16.2349700927734375 29.9661483764648438
-11.3646268844604492 16.0372657775878906 24.7598495483398438
53.8163642883300781 4.75598621368408203 -24.4206180572509766
15.9857549667358398 -11.1059646606445312 -28.3500041961669922
15.835993766784668 11.7470369338989258 18.9350852966308594
-48.9279441833496094 12.3720836639404297 -24.7975940704345703
55.5846405029296875 13.2832803726196289 -31.9295272827148438
17.8769779205322266 -15.4297761917114258 -17.0652809143066406
44.5808448791503906 -9.22135829925537109 41.3160171508789062
-51.5062332153320312 -4.6421513557434082 17.2170238494873047
-46.34344482421875 18.8983783721923828 -47.3436965942382812
-46.7857589721679688 10.6669092178344727 36.7140541076660156
53.3931617736816406 11.9682941436767578 2.95921015739440918
-34.9724349975585938 -12.4622526168823242 -5.4296879768371582
53.5281219482421875 5.7729649543762207 -47.6696929931640625
-31.3320503234863281 13.8608999252319336 42.0554122924804688
5.41684865951538086 14.5653352737426758 -42.2901458740234375
-5.89280891418457031 -15.0301027297973633 27.0002670288085938
-3.22821354866027832 -17.4356460571289062 7.62768936157226562
44.1910820007324219 -18.513214111328125 21.6766319274902344
13.8675298690795898 13.7730588912963867 -32.4854202270507812
42.9352455139160156 -3.23805856704711914 42.5978317260742188
-27.8017787933349609 -12.0619077682495117 24.7446823120117188
18.1674346923828125 12.4639272689819336 -17.2016563415527344
54.1170997619628906 7.61603212356567383 -20.5368213653564453
33.4915885925292969 10.3994054794311523 -42.7569580078125
-50.1700363159179688 -7.77913618087768555 6.2574000358581543
52.0938835144042969 5.18675661087036133 -48.5028305053710938
9.68295764923095703 1.86229276657104492 -43.168487548828125
40.7486953735351562 -17.8428630828857422 -17.1983451843261719
18.1291427612304688 12.9388332366943359 40.3626251220703125
33.8917198181152344 -17.2252330780029297 23.6195449829101562
8.52593994140625 -18.1289558410644531 12.6344470977783203
-15.2039089202880859 -15.3448009490966797 -6.30592966079711914
-7.47066450119018555 15.2234659194946289 -26.1106090545654297
15.6012897491455078 -10.4041452407836914 -40.0165977478027344
9.34463119506835938 -10.3220062255859375 -38.9917945861816406
49.7470321655273438 -12.9341449737548828 -38.7431564331054688
31.6113967895507812 11.6326389312744141 38.5145606994628906
-7.87581682205200195 13.8900537490844727 -9.00716686248779297
-47.3076362609863281 -9.62445831298828125 -31.6050376892089844
-33.4941596984863281 -6.71353816986083984 -43.1151313781738281
15.9285507202148438 -14.2822103500366211 -20.2439708709716797
-31.6477546691894531 -8.76991939544677734 -37.190032958984375
25.0903339385986328 -18.2684383392333984 -3.47135567665100098
-0.400473684072494507 -17.3533706665039062 12.1714639663696289
39.1532440185546875 11.8267440795898438 -42.0824317932128906
-17.7125625610351562 -14.9508161544799805 13.1268711090087891
-46.150177001953125 18.7387008666992188 -4.51401901245117188
5.60764551162719727 -16.9313831329345703 18.7508602142333984
9.39706611633300781 13.0498466491699219 -27.4812412261962891
53.0409927368164062 1.6603083610534668 27.9912376403808594
31.9243869781494141 -13.2454414367675781 -27.5402469635009766
-45.9354019165039062 -12.4654788970947266 -14.4526243209838867
-9.45352745056152344 -16.6294460296630859 8.14361190795898438
15.0150432586669922 -18.0501728057861328 15.4539880752563477
10.9489364624023438 -14.1765403747558594 -20.1474208831787109
17.4678058624267578 11.2470941543579102 10.1969079971313477
-10.2612905502319336 15.3007011413574219 4.08920717239379883
-26.3222980499267578 14.0588045120239258 43.1488380432128906
53.8365554809570312 15.8808822631835938 -29.6991691589355469
-38.4535408020019531 18.9961528778076172 -40.7333030700683594
-9.96653270721435547 -16.5514335632324219 10.3177251815795898
50.1239662170410156 11.3256855010986328 -43.883209228515625
-51.0985298156738281 7.67247915267944336 -18.6481971740722656
50.2311820983886719 -9.97416877746582031 3.68437719345092773
-49.9200859069824219 -8.79879951477050781 -12.5466794967651367
-51.8706855773925781 -1.49863338470458984 -3.05640387535095215
53.8172187805175781 1.24354064464569092 -21.8390598297119141
51.8375816345214844 0.793013334274291992 2.84815263748168945
-51.6619529724121094 2.26684951782226562 -5.9228668212890625
44.1707572937011719 -17.3942108154296875 -20.6788234710693359
26.7821731567382812 -18.7536220550537109 -2.2888495922088623
-4.48565912246704102 -17.0550212860107422 -6.31845569610595703
-13.856205940246582 15.9715642929077148 20.9540920257568359
50.6835861206054688 -16.957763671875 15.3729104995727539
-1.83265995979309082 13.6530923843383789 -5.08237886428833008
-10.4078760147094727 -15.7294950485229492 18.9238758087158203
23.3638362884521484 11.4954872131347656 44.2241439819335938
-52.082122802734375 -5.99272489547729492 18.4669742584228516
-41.0186729431152344 17.8494396209716797 -22.6143398284912109
-48.230712890625 20.3321056365966797 -22.1953182220458984
51.5734291076660156 4.82258701324462891 19.1320362091064453
-47.8422737121582031 8.81765270233154297 -46.8098106384277344
-6.18528079986572266 -13.4047060012817383 -22.5445880889892578
49.3017845153808594 -17.786529541015625 27.2942905426025391
24.0352325439453125 10.023651123046875 4.65301513671875
-51.5972709655761719 15.7617254257202148 -6.83982229232788086
15.6536045074462891 -10.5404434204101562 -33.2565765380859375
34.4042854309082031 12.1146926879882812 -39.2225723266601562
-8.64522075653076172 -16.4811019897460938 -8.23638725280761719
53.465972900390625 -6.61507463455200195 -49.5009384155273438
-48.8434829711914062 1.71258485317230225 37.304412841796875
27.0975933074951172 9.97431755065917969 21.7566814422607422
-25.3680648803710938 6.49517059326171875 -46.5028457641601562
51.3210830688476562 -5.43722009658813477 -15.1542043685913086
-41.6540145874023438 19.9166774749755859 30.7106819152832031
22.7676372528076172 -10.5417442321777344 -41.1516189575195312
25.6089000701904297 10.2185449600219727 44.8036308288574219
-12.8305377960205078 17.1618289947509766 -44.108367919921875
14.6126871109008789 -16.5835857391357422 26.98321533203125
54.6446990966796875 13.6317920684814453 -23.8598690032958984
3.64314031600952148 13.5944385528564453 28.4916744232177734
-26.4674777984619141 -13.8478431701660156 -8.85759830474853516
40.9406585693359375 -17.7319660186767578 12.4590034484863281
-31.276947021484375 17.1920642852783203 -1.78462886810302734
-43.2937278747558594 17.8913326263427734 -20.4252109527587891
45.8353195190429688 -18.4537353515625 20.8011035919189453
-9.41352462768554688 -14.4939565658569336 28.5240364074707031
50.2671966552734375 -9.23600101470947266 -7.45683956146240234
-3.18702387809753418 15.0020217895507812 -30.4300632476806641
-44.9215049743652344 -11.8135147094726562 -23.4879169464111328
-51.0572357177734375 14.5849971771240234 -11.033686637878418
-46.699127197265625 -1.69556915760040283 -46.2535400390625
-8.47854423522949219 9.32645702362060547 -44.9143791198730469
9.84074592590332031 -2.76888322830200195 41.7375030517578125
32.1253166198730469 -15.2832221984863281 38.5022850036621094
-49.3975601196289062 18.6661128997802734 -39.3980636596679688
-50.2919731140136719 5.59444856643676758 -44.3267326354980469
13.03082275390625 1.81457674503326416 43.2995719909667969
54.6634330749511719 8.70880317687988281 -6.47451877593994141
2.88068628311157227 12.9359760284423828 -43.5665016174316406
-15.2772645950317383 15.5582981109619141 -20.6880340576171875
53.1190834045410156 -1.18639004230499268 -21.1315746307373047
15.1658000946044922 -3.06283974647521973 -43.4307975769042969
52.3520927429199219 0.380846112966537476 -4.77042818069458008
-5.42279195785522461 14.2546358108520508 -15.7257022857666016
-50.4691009521484375 -7.69620323181152344 -11.7811784744262695
53.4353790283203125 6.23786735534667969 -1.32808566093444824
-3.35087275505065918 13.2020721435546875 -9.39160919189453125
50.1270637512207031 11.7176389694213867 9.83927536010742188
-2.05484914779663086 15.3410892486572266 -41.8098831176757812
-6.55791759490966797 -15.8142147064208984 22.8318634033203125
-29.6757850646972656 -12.5638656616210938 23.3761024475097656
-29.0636177062988281 -9.00906085968017578 -34.6433868408203125
-9.518096923828125 7.53068447113037109 43.9137840270996094
33.6946487426757812 -18.5617446899414062 -4.27394008636474609
-39.438446044921875 17.8633041381835938 1.62110936641693115
-9.43342113494873047 -11.4274044036865234 40.2908782958984375
14.9926319122314453 10.7854833602905273 16.5832595825195312
34.5625762939453125 -8.10517120361328125 45.3190841674804688
54.7745246887207031 10.0223674774169922 -43.8111763000488281
-50.3379745483398438 13.7426681518554688 21.7410755157470703
52.9805717468261719 14.6155519485473633 -39.8723297119140625
36.3276329040527344 -18.3848609924316406 -6.58201122283935547
-35.7199554443359375 -5.8779292106628418 -44.0118446350097656
-29.5513954162597656 -6.32558202743530273 -43.477294921875
-48.0177574157714844 -13.0591831207275391 9.09694957733154297
10.3989906311035156 -18.1998519897460938 14.1538543701171875
-33.4308433532714844 -12.8179054260253906 9.7092437744140625
-45.7841606140136719 17.9237899780273438 -48.2658500671386719
-50.2479934692382812 -9.01924991607666016 -7.54399728775024414
8.23190784454345703 1.65296709537506104 42.6223564147949219
-41.2742538452148438 18.6906013488769531 -37.1940765380859375
52.6914215087890625 -12.3869132995605469 -33.9518356323242188
45.0425071716308594 9.05052661895751953 30.6482601165771484
31.6926250457763672 12.2048206329345703 -33.4033241271972656
-10.0555896759033203 16.2336177825927734 -42.1568794250488281
-19.2490005493164062 -13.6219453811645508 -18.5087013244628906
-3.49043035507202148 17.5933456420898438 -43.4138984680175781
14.2889785766601562 8.58981800079345703 -44.2988052368164062
34.3638954162597656 -7.54752969741821289 -45.7762718200683594
40.7915916442871094 -18.5550727844238281 17.2971687316894531
51.2605133056640625 -12.3282766342163086 16.0057163238525391
-4.59100723266601562 14.8367843627929688 14.5309562683105469
-51.8091506958007812 5.71109437942504883 -7.286346435546875
-39.4669876098632812 17.9070205688476562 -30.7160358428955078
-41.9799766540527344 -12.5846805572509766 9.13185501098632812
-0.773576974868774414 -14.7766094207763672 -18.7558574676513672
-33.9684638977050781 -0.366202592849731445 46.2441062927246094
-11.1591768264770508 15.6736793518066406 13.7274074554443359
23.5326862335205078 9.94642162322998047 1.90475952625274658
54.871734619140625 10.2621402740478516 0.656481266021728516
-51.2139358520507812 -1.063751220703125 -7.46988248825073242
-27.5783901214599609 -11.5752553939819336 36.674896240234375
-46.3564338684082031 -13.392603874206543 4.01331615447998047
-6.99524402618408203 -16.8061733245849609 2.06857800483703613
51.9495658874511719 -3.29845118522644043 -50.2687835693359375
19.0094375610351562 13.4026451110839844 -31.9827938079833984
-51.1045951843261719 9.53255462646484375 -17.8769073486328125
-29.8099002838134766 -12.2868833541870117 29.7865142822265625
-5.04013729095458984 -15.0922927856445312 26.5520267486572266
17.2247714996337891 13.4675102233886719 -36.6628799438476562
47.2786331176757812 -16.3059959411621094 -27.0196762084960938
19.3254280090332031 -15.5539083480834961 32.8156661987304688
23.9288806915283203 10.1510038375854492 -1.12510383129119873
-48.9727058410644531 20.5301551818847656 -22.9813728332519531
34.62066650390625 6.88572883605957031 -44.8921165466308594
-4.45432710647583008 14.8403797149658203 -40.5919990539550781
-49.6604461669921875 -4.21626901626586914 15.6083908081054688
51.4714622497558594 -11.7367620468139648 16.5594444274902344
-18.9921798706054688 15.7327041625976562 -5.0071253776550293
28.7756423950195312 -18.8591213226318359 4.92839431762695312
-35.7305450439453125 6.8356785774230957 -47.7261085510253906
-35.4167098999023438 -7.86394643783569336 -39.4373359680175781
-25.5282268524169922 17.6401786804199219 -38.1682167053222656
28.1676540374755859 -18.1007366180419922 19.3704624176025391
-47.1283493041992188 19.2242584228515625 -15.6606969833374023
-36.7819175720214844 1.82298636436462402 -46.7788887023925781
-36.5673751831054688 18.0878982543945312 -29.7653236389160156
-6.10831594467163086 1.30436062812805176 43.5839309692382812
45.2456016540527344 -18.35003662109375 22.9396800994873047
-9.83131599426269531 -16.3118438720703125 2.29637527465820312
19.1586170196533203 5.65415096282958984 -44.4697380065917969
13.1850662231445312 -17.4768619537353516 20.4472084045410156
46.0144920349121094 10.5115127563476562 33.4499359130859375
-51.5208358764648438 2.95759892463684082 15.0226154327392578
-13.8696556091308594 -15.3475351333618164 -6.52924728393554688
-50.9199638366699219 9.30771160125732422 21.8040637969970703
15.089207649230957 12.743560791015625 43.7526931762695312
45.7331047058105469 9.38826847076416016 19.548553466796875
17.096038818359375 0.621016561985015869 -43.0781440734863281
33.2199668884277344 -8.24759483337402344 -45.5025138854980469
25.9897499084472656 8.32045936584472656 45.268341064453125
-51.0151748657226562 -4.06510305404663086 9.36422634124755859
46.6027641296386719 -18.6568717956542969 -5.70924901962280273
-17.3608989715576172 16.4870357513427734 22.0633869171142578
46.0799903869628906 11.2674446105957031 -35.3071174621582031
23.25238037109375 -18.86480712890625 4.95023012161254883
-51.0078659057617188 4.47372913360595703 -18.6755599975585938
28.4984207153320312 11.1130237579345703 32.069610595703125
-51.180694580078125 -1.51422059535980225 -21.6264286041259766
-49.3734359741210938 18.9429302215576172 5.76309776306152344
22.0601367950439453 12.0393075942993164 -42.4195709228515625
-22.8182868957519531 -7.60089254379272461 -40.5142974853515625
27.5037002563476562 9.8005828857421875 43.1589202880859375
17.3660011291503906 -13.290924072265625 -24.9082050323486328
34.8543701171875 -11.808497428894043 -33.7299690246582031
-3.96049785614013672 -14.4381685256958008 34.1711158752441406
52.0888519287109375 11.5821819305419922 17.0871295928955078
-15.7155857086181641 16.7411727905273438 18.6211948394775391
26.6660442352294922 8.00300788879394531 45.3393516540527344
-43.3591117858886719 17.6690750122070312 -9.37310791015625
-36.6818122863769531 -10.1666908264160156 -24.9047470092773438
-34.8958969116210938 -6.14534425735473633 -40.3067703247070312
-49.8256645202636719 -5.16536569595336914 -40.9992599487304688
-40.3624191284179688 7.46167755126953125 -48.070556640625
10.6916131973266602 11.9925174713134766 -14.8228616714477539
-30.13555908203125 17.380218505859375 -22.8001861572265625
38.8264045715332031 -1.63532984256744385 44.7266578674316406
53.8432731628417969 7.38416528701782227 -22.9505100250244141
-11.0238151550292969 15.1027307510375977 -1.62533128261566162
-26.7460098266601562 -10.5452594757080078 -27.2031536102294922
-29.1749725341796875 18.5909614562988281 -46.0620193481445312
25.7242507934570312 9.76130771636962891 -7.07209539413452148
17.2169818878173828 12.1902914047241211 33.877960205078125
-7.12159538269042969 -10.7123022079467773 -28.4065189361572266
52.3753166198730469 11.0831775665283203 10.1454305648803711
2.33347177505493164 -15.038517951965332 27.5143947601318359
-20.3745326995849609 15.6755714416503906 -11.01800537109375
-38.1484832763671875 -7.81302881240844727 -40.6042251586914062
51.9271736145019531 -0.769563496112823486 11.5788908004760742
54.9555625915527344 -2.14178943634033203 -41.3420867919921875
25.0918750762939453 -18.9385852813720703 7.36302566528320312
20.6752872467041016 11.3433389663696289 -7.60617446899414062
52.44903564453125 -8.47439956665039062 25.6880683898925781
-1.28440690040588379 -14.4731712341308594 -19.1319580078125
-50.4538192749023438 -3.4502568244934082 -38.1191368103027344
13.1196966171264648 12.5882911682128906 27.9421920776367188
27.286285400390625 13.0153102874755859 -42.2499542236328125
30.3980293273925781 -11.312469482421875 -34.8663902282714844
36.6919364929199219 9.99171257019042969 -26.0417060852050781
-48.4645500183105469 20.0920848846435547 -42.706939697265625
-10.5907688140869141 15.5799884796142578 10.8593931198120117
-50.4807090759277344 0.64014047384262085 -22.7174758911132812
38.7672653198242188 10.4757146835327148 -25.8801994323730469
-2.91223907470703125 14.9099636077880859 -29.3429183959960938
-49.396392822265625 18.4931087493896484 -47.7459983825683594
-43.3818092346191406 7.25588703155517578 -46.9082717895507812
-50.0846214294433594 15.3423185348510742 -37.0477714538574219
-43.2384567260742188 -10.1526918411254883 40.8637428283691406
52.6973190307617188 -12.7825517654418945 -38.251617431640625
26.3580589294433594 9.70152854919433594 -13.4248886108398438
-35.0674400329589844 18.0105342864990234 -30.5116806030273438
49.4405326843261719 -15.981389045715332 2.24702692031860352
-51.4679832458496094 13.4662351608276367 -11.2922849655151367
-49.9612960815429688 3.38562273979187012 -32.2922630310058594
25.3258895874023438 7.21008729934692383 -43.7213859558105469
-13.8360843658447266 -10.7948322296142578 -29.1956138610839844
45.3979530334472656 -11.4688968658447266 -41.5325775146484375
27.1284751892089844 10.0878314971923828 43.4307022094726562
-1.40891730785369873 -12.1600732803344727 -26.5383930206298828
26.1341342926025391 12.9836740493774414 -39.3314285278320312
35.3655662536621094 -11.7034053802490234 -34.8013763427734375
0.766709506511688232 5.70804595947265625 -44.0697860717773438
-0.18886139988899231 -17.4455280303955078 14.4740676879882812
3.5886077880859375 10.4329757690429688 4.44294023513793945
-48.2377052307128906 -5.17561626434326172 39.5962715148925781
53.261322021484375 -2.13823080062866211 -22.3884525299072266
-50.5599403381347656 2.64248800277709961 -24.4320201873779297
-24.7264842987060547 9.61349868774414062 45.3318901062011719
10.6054267883300781 14.2578611373901367 -43.9193572998046875
15.9557332992553711 -8.09653186798095703 -42.5133514404296875
-10.1673765182495117 -12.4577274322509766 -24.6300544738769531
-51.2693214416503906 7.91265487670898438 -12.2659473419189453
-27.0960445404052734 -6.21197271347045898 45.0655326843261719
31.352325439453125 -4.93698024749755859 -42.8412742614746094
-23.8616828918457031 16.2238559722900391 -16.8268146514892578
-32.7835884094238281 17.7933673858642578 -44.3812828063964844
23.4289875030517578 10.1362829208374023 5.8388667106628418
36.206695556640625 6.97345590591430664 -44.850555419921875
12.862767219543457 13.7977943420410156 -44.1093025207519531
16.4364337921142578 11.9274206161499023 -19.6370220184326172
-12.3800716400146484 15.0481157302856445 36.6845169067382812
-8.07554054260253906 -16.1811122894287109 -8.79311180114746094
17.6049079895019531 -18.4885425567626953 16.0663356781005859
45.7318191528320312 10.1091337203979492 -12.1477365493774414
46.584991455078125 9.85676383972167969 -20.0070304870605469
25.0422134399414062 9.45705223083496094 -2.06210899353027344
48.1896018981933594 -11.6137819290161133 -43.7380523681640625
-46.9294281005859375 19.2131862640380859 -38.5668563842773438
46.7802772521972656 -17.9369678497314453 -20.1718387603759766
-25.8259181976318359 -13.2018518447875977 23.7392749786376953
-4.68382358551025391 11.5049524307250977 -44.1381187438964844
-24.2467231750488281 -11.6181631088256836 -25.3240261077880859
44.6721534729003906 -12.3101348876953125 -37.2541847229003906
50.0176658630371094 -15.4216012954711914 6.66894912719726562
-16.1722908020019531 -15.175145149230957 9.51723098754882812
5.14850425720214844 16.4275798797607422 -42.1362228393554688
6.1195068359375 12.1551170349121094 -10.1618137359619141
-47.4414024353027344 19.3673591613769531 32.7165870666503906
-30.5994472503662109 -5.44243907928466797 -42.7440071105957031
3.66833853721618652 0.0346591733396053314 -43.1937942504882812
15.4897375106811523 -16.8298721313476562 -13.0564937591552734
-7.20142984390258789 -8.39330959320068359 -39.8385696411132812
32.2994537353515625 -15.6403779983520508 27.3321247100830078
8.00053787231445312 -17.2413482666015625 5.05736446380615234
-28.1586380004882812 16.9576339721679688 -1.29768502712249756
-49.8394050598144531 -3.49485278129577637 37.2176589965820312
-2.86723542213439941 -9.08523082733154297 -39.31524658203125
-5.28261566162109375 14.0376138687133789 0.410086065530776978
-18.8638229370117188 16.6758289337158203 21.306549072265625
52.7338142395019531 -10.0778474807739258 28.4322395324707031
3.61042547225952148 -16.5391807556152344 23.5661354064941406
-17.6880874633789062 8.12552261352539062 -45.2782554626464844
-20.1978645324707031 16.0663261413574219 1.82809603214263916
44.6939010620117188 9.3509979248046875 -21.908111572265625
54.3126144409179688 -10.7346096038818359 -45.5443458557128906
-23.4028224945068359 16.8900985717773438 21.1673812866210938
-40.6119613647460938 18.0815639495849609 -25.5756149291992188
7.36794424057006836 13.6641769409179688 -41.5291900634765625
-33.25634765625 -11.2211980819702148 -17.6748142242431641
-49.1715888977050781 20.1514816284179688 -19.3219776153564453
52.4744529724121094 1.75270736217498779 24.2188282012939453
-42.0239028930664062 17.762908935546875 -22.5616989135742188
3.62564349174499512 -14.8845663070678711 32.7916145324707031
-24.6902694702148438 17.5686664581298828 -41.7089424133300781
36.1927490234375 -16.0802268981933594 -17.7751274108886719
35.5811309814453125 -15.6815910339355469 36.9768638610839844
-34.9229621887207031 17.9040546417236328 13.3792104721069336
52.6453323364257812 11.0712699890136719 18.7296543121337891
-7.7091374397277832 15.2209491729736328 -28.8085594177246094
-38.7571449279785156 -11.9464855194091797 -9.62712001800537109
-36.4650993347167969 -11.7678937911987305 -7.58832263946533203
-52.0236778259277344 14.0571556091308594 4.84325790405273438
-37.2954940795898438 19.0935440063476562 26.9771709442138672
35.7216033935546875 9.97012138366699219 -34.4602813720703125
-16.2958431243896484 16.7151851654052734 -34.9779243469238281
-19.3253326416015625 -14.8971920013427734 -5.7613983154296875
0.422845751047134399 13.842432975769043 -24.7849330902099609
