ply
format ascii 1.0
element vertex 784
comment vertices
property float x
property float y
property float z
end_header
13.5302152633666992 28.7680263519287109 -0.0429956391453742981
23.0231723785400391 -27.7409744262695312 -18.1431980133056641
-36.9454612731933594 27.24713134765625 0.546414554119110107
48.8704757690429688 19.0479221343994141 9.50455093383789062
-43.5569877624511719 21.4189510345458984 -3.3084104061126709
-16.0060348510742188 -13.0838403701782227 44.4738731384277344
-28.3084754943847656 15.4232444763183594 3.99274373054504395
27.5556125640869141 -27.4632225036621094 -30.9251728057861328
47.2420082092285156 -23.8790245056152344 11.6724739074707031
-45.3614692687988281 -11.7374858856201172 11.3076696395874023
8.25054836273193359 4.05521917343139648 44.3020477294921875
9.72261714935302734 28.4535694122314453 49.3301239013671875
-47.6840667724609375 -23.3371601104736328 -9.81693744659423828
-29.6440391540527344 5.68950223922729492 -22.1709175109863281
18.7020587921142578 -13.9124975204467773 -31.3567962646484375
44.5906639099121094 -0.355618804693222046 9.16487884521484375
-20.519622802734375 -14.2447566986083984 41.6631202697753906
9.60150909423828125 30.5975341796875 29.2725601196289062
29.4118270874023438 30.9468784332275391 27.4589881896972656
-17.32891845703125 34.1490898132324219 33.4184074401855469
37.1108055114746094 15.5000772476196289 41.1533279418945312
1.40505862236022949 1.58738899230957031 -39.5844879150390625
-30.4321765899658203 -9.93327713012695312 -20.3779277801513672
-45.1700363159179688 -6.46019649505615234 -0.331013292074203491
3.30510497093200684 23.1053676605224609 -33.7090034484863281
-14.1087284088134766 8.28806209564208984 28.7796363830566406
42.4973182678222656 -6.63219785690307617 -13.2451953887939453
-25.9430198669433594 -2.98178744316101074 22.0434741973876953
7.67214536666870117 6.67538070678710938 37.6566047668457031
21.9457607269287109 -2.04716992378234863 32.8567008972167969
38.7352409362792969 11.6207361221313477 37.0694770812988281
39.050811767578125 -17.0979576110839844 26.8129348754882812
12.4364433288574219 -3.1463158130645752 45.0749282836914062
5.49130344390869141 -14.2674140930175781 50.2793655395507812
28.56591796875 14.1857204437255859 -33.9800033569335938
-9.26514625549316406 -12.8661813735961914 46.3315849304199219
-38.8323020935058594 28.6362171173095703 -4.98545742034912109
-24.7910842895507812 20.1394367218017578 -36.2047157287597656
-25.5521430969238281 -4.9108881950378418 36.8929252624511719
-27.7224273681640625 15.6100931167602539 -34.41937255859375
33.7252311706542969 -17.0237808227539062 33.5954475402832031
30.2624492645263672 -17.0517082214355469 -31.8448925018310547
-21.2642879486083984 29.5321769714355469 -14.0467061996459961
-44.1784248352050781 -8.554443359375 6.92930364608764648
-33.3711051940917969 29.6694488525390625 -17.6611747741699219
48.654022216796875 2.24548459053039551 21.9876594543457031
-1.53874790668487549 28.83538818359375 16.8576259613037109
-11.3944435119628906 -15.8945531845092773 40.4592819213867188
0.380898505449295044 1.50086963176727295 48.0650215148925781
17.2020587921142578 -22.0716342926025391 -41.6981430053710938
-8.03325462341308594 -24.0442733764648438 22.5255184173583984
-17.0131168365478516 -0.234561502933502197 15.7771577835083008
-7.98907041549682617 -26.7261409759521484 3.87557268142700195
14.9357681274414062 -13.0864381790161133 -40.2722511291503906
-26.5379238128662109 -26.2348957061767578 -20.9298000335693359
-4.72173261642456055 -22.9218196868896484 27.1953773498535156
46.7853469848632812 -26.8634376525878906 10.2565412521362305
-8.43734359741210938 -26.6311073303222656 5.14073753356933594
-3.16187214851379395 -0.777861177921295166 -46.5014305114746094
-41.7696876525878906 0.969343781471252441 7.58832406997680664
-40.3351325988769531 25.9571819305419922 -13.4414129257202148
-8.78885459899902344 13.598271369934082 45.9554443359375
41.3018951416015625 -16.2399311065673828 -6.32333469390869141
28.142913818359375 23.04119873046875 0.760009706020355225
-23.3540630340576172 29.3647823333740234 36.5788040161132812
-32.9579353332519531 -20.5292072296142578 -27.4517745971679688
-25.2122249603271484 31.0073165893554688 7.06825971603393555
-31.2276802062988281 18.2430839538574219 34.3618965148925781
-46.1413764953613281 -20.3077163696289062 -14.7517833709716797
18.5422248840332031 -13.9573526382446289 -28.9203929901123047
-13.7773599624633789 -14.7868328094482422 -24.2559165954589844
-34.7222747802734375 -16.1431446075439453 -25.604248046875
-35.0668754577636719 -3.45328664779663086 15.4255514144897461
8.17391681671142578 20.4284782409667969 -38.589935302734375
-25.1221904754638672 29.0842990875244141 -13.8549060821533203
-26.9565219879150391 29.3291225433349609 -8.71308517456054688
34.5734977722167969 29.8879947662353516 24.57666015625
48.3462905883789062 5.92380189895629883 23.3394203186035156
-19.5704250335693359 27.6825294494628906 -27.9285964965820312
-14.2334651947021484 11.4423093795776367 36.9708633422851562
26.0660572052001953 -9.52907562255859375 33.6360054016113281
-17.7418422698974609 19.4600696563720703 -40.8801956176757812
7.75482988357543945 -20.9396839141845703 -44.1162681579589844
-30.8897132873535156 -7.37206649780273438 33.2877998352050781
-28.7942771911621094 -0.116483882069587708 -20.0875797271728516
-25.0699996948242188 33.3535957336425781 21.5717792510986328
-1.28541731834411621 4.11184835433959961 43.3489151000976562
28.6452369689941406 -5.73004961013793945 -19.9208259582519531
-45.1893730163574219 -6.42731142044067383 -0.207061722874641418
-31.3685302734375 -21.6077156066894531 -30.6882152557373047
-10.0616960525512695 -0.979649960994720459 31.3156318664550781
38.9948501586914062 -20.3745212554931641 -24.1557483673095703
-12.3646354675292969 -5.83673524856567383 32.8374099731445312
-35.5324630737304688 -4.01166439056396484 13.1850032806396484
47.23248291015625 19.3655548095703125 -3.65951728820800781
-28.6442794799804688 -9.88944339752197266 -21.9434165954589844
-9.88883876800537109 -28.1574726104736328 -5.46436452865600586
-6.71345329284667969 -19.6937389373779297 42.6969108581542969
49.5760307312011719 -2.17408323287963867 5.05790376663208008
-17.2126121520996094 -1.10997796058654785 14.1701459884643555
-12.2002153396606445 27.0897903442382812 -29.2284755706787109
44.6697654724121094 -28.9320240020751953 10.2719411849975586
-29.3355865478515625 14.7857599258422852 11.8532733917236328
27.5088119506835938 30.4357967376708984 25.2704143524169922
-21.2220478057861328 -18.84173583984375 31.8243865966796875
-21.9499664306640625 18.3939456939697266 43.2332839965820312
-31.069366455078125 31.0397434234619141 22.565399169921875
-35.3558387756347656 -7.35010099411010742 -15.4805746078491211
8.86785316467285156 -17.5963172912597656 -43.5077972412109375
45.4771156311035156 -16.5765647888183594 -2.99643039703369141
-48.42828369140625 -17.1191596984863281 -13.7337474822998047
-3.01383399963378906 26.1032695770263672 50.9198684692382812
0.326276868581771851 19.5567302703857422 -40.7329139709472656
47.6151657104492188 20.7831993103027344 22.9203548431396484
35.2972869873046875 20.6892337799072266 41.8798828125
-17.6712322235107422 15.2875699996948242 -39.61126708984375
-29.4023075103759766 9.23873329162597656 10.5423212051391602
-0.887346506118774414 -0.6273040771484375 48.0815277099609375
-48.3089027404785156 -8.86674594879150391 -11.4134445190429688
26.8990879058837891 -23.1135711669921875 -36.01513671875
-9.28003883361816406 -24.7576103210449219 7.43429374694824219
4.88447189331054688 -24.6484699249267578 -44.2889595031738281
-40.5378990173339844 13.5019283294677734 -16.0935153961181641
-12.3923521041870117 5.6975245475769043 -30.4679832458496094
-1.01126790046691895 0.180610805749893188 48.1231422424316406
-14.509648323059082 25.9169540405273438 -34.9347076416015625
22.239471435546875 16.3196887969970703 -32.521514892578125
10.7701416015625 -27.8082809448242188 -9.12108993530273438
-40.0515480041503906 -1.57074689865112305 10.4678144454956055
15.8878803253173828 -28.1319904327392578 -20.2461605072021484
-9.31650924682617188 -22.5543098449707031 27.417572021484375
5.42575168609619141 -26.8430023193359375 -31.777099609375
37.6939506530761719 -13.1133460998535156 -16.0982208251953125
40.5355186462402344 0.854459881782531738 17.6057720184326172
-4.58165740966796875 1.59268486499786377 42.9810676574707031
-30.1891841888427734 31.6624755859375 22.4569454193115234
-20.0696468353271484 -14.1406240463256836 40.5113182067871094
28.0667781829833984 -24.0740299224853516 -35.0660285949707031
-40.1469535827636719 6.30131626129150391 -0.256244480609893799
47.46002197265625 -4.69340085983276367 -8.89876842498779297
6.94598531723022461 5.86106729507446289 -41.6564598083496094
-42.1202354431152344 24.3697757720947266 -13.7360296249389648
-35.0777473449707031 18.8847503662109375 -3.22407007217407227
21.8296623229980469 25.0345096588134766 48.8025588989257812
31.8946800231933594 -3.94298624992370605 -25.5946617126464844
-31.8899154663085938 27.1813945770263672 -27.4060802459716797
12.536717414855957 -23.0652999877929688 28.2402229309082031
-40.8593826293945312 22.8955268859863281 -19.2198829650878906
-2.14575648307800293 -2.87995719909667969 -35.6417465209960938
-43.5456886291503906 -25.2237033843994141 -11.0378580093383789
-15.6166257858276367 12.8558197021484375 41.19451904296875
-5.30696392059326172 -26.9694137573242188 2.8951408863067627
8.236480712890625 -12.6618022918701172 -36.0596733093261719
-33.818634033203125 14.6441421508789062 6.17867183685302734
52.8976287841796875 5.3224945068359375 3.72150158882141113
6.74612569808959961 -23.3138427734375 35.3525657653808594
36.9592857360839844 -19.0342292785644531 -25.0295295715332031
33.3661270141601562 23.8119888305664062 -17.4530544281005859
-44.0569610595703125 24.5208454132080078 1.30322515964508057
38.9207954406738281 -12.4022912979125977 -17.1248226165771484
-3.36899924278259277 8.65739250183105469 -41.2936134338378906
-22.1569709777832031 -6.53337192535400391 40.1652145385742188
-15.9673166275024414 -10.8785943984985352 46.8740158081054688
31.9891700744628906 -14.6471986770629883 -28.5878047943115234
0.459477752447128296 -28.1027202606201172 -10.2661581039428711
-6.13929319381713867 -24.8760948181152344 -33.0231666564941406
12.3819541931152344 -26.2171897888183594 6.19119024276733398
25.6388835906982422 -22.8422336578369141 43.0850028991699219
37.7355194091796875 17.1965827941894531 -24.2127056121826172
-23.9882049560546875 -27.3367366790771484 -17.4072475433349609
-18.0091972351074219 21.1212329864501953 46.468994140625
-11.0422172546386719 -7.64862918853759766 -32.3321342468261719
39.9202957153320312 -11.7269153594970703 15.9873561859130859
-17.0550041198730469 36.4997520446777344 27.1065750122070312
-23.8302040100097656 -13.2968873977661133 -25.5220432281494141
36.9226646423339844 -18.8361320495605469 -25.0578441619873047
-39.7872962951660156 25.1000118255615234 -17.2432174682617188
39.0769119262695312 -16.2176246643066406 -5.19480562210083008
-24.3065357208251953 0.139865577220916748 27.1896305084228516
33.4977493286132812 5.32706689834594727 37.3972282409667969
-29.4829063415527344 13.6610794067382812 26.3892154693603516
-18.0547103881835938 -12.0423307418823242 -33.4842453002929688
-21.9203853607177734 -26.9633064270019531 -3.95882630348205566
19.5850639343261719 -10.2024641036987305 -24.4599113464355469
-5.5003046989440918 29.5967216491699219 -3.36134099960327148
-40.6059188842773438 26.9189682006835938 -6.88347625732421875
-35.1355552673339844 -24.2240066528320312 -24.2976932525634766
40.9038276672363281 9.35140514373779297 34.4932136535644531
-25.1207695007324219 14.3084945678710938 -26.9914093017578125
-25.8368453979492188 30.1137809753417969 21.7501678466796875
2.86671853065490723 2.49617576599121094 -37.7620506286621094
13.136775016784668 -20.174652099609375 -42.7341690063476562
-17.9398727416992188 5.75356578826904297 -28.291046142578125
-14.3907127380371094 -27.4608993530273438 -2.49533915519714355
29.4273738861083984 -26.2625942230224609 -7.329620361328125
-45.3557853698730469 -21.804168701171875 -1.81841695308685303
24.5716304779052734 20.4085426330566406 -25.3893527984619141
-33.7001457214355469 15.1948394775390625 3.31066608428955078
-24.0598773956298828 1.18058681488037109 -23.2539920806884766
30.4931259155273438 21.9447116851806641 -14.0017328262329102
43.6228408813476562 14.900334358215332 -5.9333348274230957
2.70754241943359375 -23.3871021270751953 14.3204002380371094
-33.0282859802246094 6.42508792877197266 11.029423713684082
22.0309371948242188 -7.5498967170715332 40.7338333129882812
-15.751307487487793 15.903691291809082 46.6850395202636719
43.2739181518554688 -29.3947105407714844 0.595890641212463379
-50.2281990051269531 -15.7513828277587891 -9.98163795471191406
-37.9410285949707031 0.380580902099609375 10.1484556198120117
-37.4075813293457031 25.3538684844970703 18.5704898834228516
12.3946752548217773 23.666717529296875 -32.8321685791015625
0.435778766870498657 31.6656436920166016 46.1769676208496094
-28.27532958984375 -27.4987602233886719 -28.3683719635009766
49.1998748779296875 17.9170570373535156 22.4497623443603516
42.6890220642089844 -6.0193028450012207 -6.16024112701416016
16.1491832733154297 -27.2356395721435547 -33.1996917724609375
32.4502792358398438 -11.1695384979248047 30.7821140289306641
-38.9539413452148438 28.2999496459960938 -12.4194602966308594
-47.0582809448242188 -20.4420337677001953 -13.8105010986328125
29.6853313446044922 22.3549900054931641 45.9339752197265625
-30.1011219024658203 -14.4617385864257812 -31.2192268371582031
-49.0976829528808594 -18.7696132659912109 2.50526309013366699
-50.6002120971679688 -14.8649387359619141 1.86287200450897217
-13.1399641036987305 -18.0047855377197266 36.5363082885742188
-2.19959139823913574 22.6220531463623047 52.4430389404296875
19.9327754974365234 -8.87367630004882812 39.9151687622070312
19.2153568267822266 24.7643775939941406 -13.6385917663574219
-17.9822635650634766 28.9742031097412109 -6.74680376052856445
-20.2022819519042969 35.4492874145507812 22.9064369201660156
41.9503593444824219 5.48646450042724609 32.9433441162109375
33.2291030883789062 -0.160537064075469971 29.7100601196289062
-18.5674610137939453 -14.1286993026733398 41.3377037048339844
11.5156965255737305 25.5563220977783203 -17.4343528747558594
37.1685905456542969 -16.7088603973388672 -11.1530113220214844
22.0508327484130859 -11.73516845703125 -21.2584209442138672
50.3140335083007812 15.1394643783569336 22.4110317230224609
25.4164943695068359 0.5968741774559021 -35.1261253356933594
-42.1972007751464844 -26.1609020233154297 -14.6122579574584961
-39.6231117248535156 23.8683910369873047 -21.6060123443603516
13.3698024749755859 -12.4377880096435547 -44.2495193481445312
-18.0316162109375 29.0253009796142578 -4.55345058441162109
39.6986579895019531 -26.3232154846191406 25.6146945953369141
-44.6070785522460938 -8.66555976867675781 7.28312158584594727
-11.3283157348632812 -21.7580738067626953 30.0138912200927734
-16.0047512054443359 -22.37139892578125 22.7298583984375
-27.3717041015625 -1.30248153209686279 33.2615966796875
-23.9999980926513672 -14.3114233016967773 -35.5087318420410156
17.5640163421630859 -12.8350019454956055 -35.6716690063476562
31.568145751953125 -21.9194507598876953 37.2328529357910156
18.7529697418212891 4.1010899543762207 34.5130996704101562
-20.4244174957275391 -24.7744846343994141 -34.5180397033691406
-0.866652011871337891 5.0955662727355957 31.9503650665283203
4.55492639541625977 -8.47736454010009766 42.4249382019042969
41.1018943786621094 -14.3796586990356445 17.6324176788330078
-31.2983551025390625 -9.12291908264160156 -19.7705097198486328
-36.8463706970214844 30.0194931030273438 11.9959630966186523
-35.6460494995117188 14.1368741989135742 -17.2429580688476562
3.98250508308410645 -10.2344455718994141 49.6202049255371094
-28.2269172668457031 33.7840118408203125 21.2914943695068359
-38.5037765502929688 8.05030250549316406 -8.87452507019042969
42.067138671875 1.96142375469207764 23.8561420440673828
23.9216957092285156 -27.4240016937255859 -8.90018463134765625
13.763096809387207 15.7026786804199219 51.8512344360351562
-28.0085067749023438 -14.5377416610717773 35.9614791870117188
-20.1646919250488281 -26.3115711212158203 -38.587371826171875
-16.3556861877441406 -24.4860076904296875 -31.2985115051269531
30.6896018981933594 -26.8320999145507812 -3.42617416381835938
-30.9295730590820312 -27.4119358062744141 -10.9362583160400391
-11.5913591384887695 -7.69043540954589844 -31.6007347106933594
36.3845024108886719 13.2800655364990234 -28.3219280242919922
1.97176277637481689 -22.9356765747070312 28.4887828826904297
25.5136337280273438 17.8051834106445312 -27.3763904571533203
34.1072425842285156 21.5592365264892578 42.7246360778808594
37.9688606262207031 -3.04498004913330078 -25.2504711151123047
-19.4101104736328125 -10.597686767578125 45.2492218017578125
-32.1248550415039062 -25.316741943359375 -23.6358013153076172
-19.4655475616455078 -23.7448101043701172 18.9764251708984375
13.0725374221801758 -24.4421443939208984 29.9137763977050781
-27.3989143371582031 -5.90707206726074219 -23.3344192504882812
27.3772068023681641 -28.8888206481933594 24.2238636016845703
36.9672622680664062 22.3366165161132812 0.422611147165298462
3.09842061996459961 28.2556743621826172 5.29225063323974609
25.33056640625 28.1509990692138672 13.5811223983764648
42.4739799499511719 -13.4892263412475586 -0.944631516933441162
1.77043628692626953 -26.4172229766845703 -31.6335391998291016
15.0348300933837891 -10.7793903350830078 -44.7623329162597656
-15.6638069152832031 11.1635913848876953 35.8567924499511719
46.9597244262695312 21.3827533721923828 5.22655057907104492
27.2365188598632812 -28.9301948547363281 21.2367897033691406
-9.64267730712890625 29.3235187530517578 -15.6522712707519531
-23.4389801025390625 13.8740730285644531 -25.6386070251464844
-38.1075820922851562 26.8285465240478516 -0.387580811977386475
-28.4062290191650391 30.0998916625976562 28.6931724548339844
6.43102645874023438 27.7314987182617188 -11.0414714813232422
-12.4734392166137695 -13.7842950820922852 -30.8027057647705078
48.7502479553222656 10.3138647079467773 -14.4945859909057617
-11.8396492004394531 -4.27806425094604492 -31.8174324035644531
13.0233335494995117 -6.85474491119384766 45.3359489440917969
-46.2225990295410156 -22.7467136383056641 -2.22432708740234375
25.1509323120117188 17.4759368896484375 -33.9886932373046875
-11.8825712203979492 -15.5957098007202148 43.6770362854003906
-12.1152563095092773 -15.0937395095825195 -25.5742073059082031
4.04499912261962891 -23.700927734375 25.0122528076171875
43.8749885559082031 6.21579170227050781 31.62066650390625
37.45513916015625 27.9557971954345703 31.0172023773193359
44.7488822937011719 -29.4516963958740234 -2.40818548202514648
-1.83453547954559326 -24.5107517242431641 18.2078781127929688
-18.4168529510498047 26.9377956390380859 43.7329292297363281
14.3119468688964844 20.4831466674804688 -31.2030963897705078
13.0113058090209961 33.2578163146972656 42.7765464782714844
31.6552181243896484 -6.15127849578857422 -24.455291748046875
25.0577526092529297 19.0620822906494141 49.5071754455566406
27.7975101470947266 23.2203903198242188 1.46822786331176758
25.4371299743652344 30.0597114562988281 24.0961399078369141
31.9279499053955078 25.6024208068847656 4.86947250366210938
-19.2534542083740234 -10.0585508346557617 45.7184028625488281
8.64374923706054688 8.28830814361572266 -42.7638511657714844
-25.8233852386474609 30.2782421112060547 20.2276649475097656
-18.7962207794189453 31.8033809661865234 30.7954597473144531
10.8909034729003906 -12.987213134765625 43.7455329895019531
-25.1040019989013672 30.81365966796875 9.67603588104248047
4.41421318054199219 -25.6732997894287109 3.72714614868164062
51.2621879577636719 2.44583034515380859 11.4807558059692383
15.9889430999755859 -24.7419929504394531 17.9504623413085938
37.6291275024414062 -4.36337852478027344 14.6766777038574219
-24.0538043975830078 8.93202114105224609 11.9996862411499023
-32.0274620056152344 14.9260883331298828 -26.3038406372070312
29.6842269897460938 7.54509353637695312 37.3480415344238281
-29.5820579528808594 14.754420280456543 12.1003189086914062
16.2602748870849609 25.2950801849365234 -11.0122747421264648
-30.2564926147460938 -15.261042594909668 33.1524391174316406
-33.290557861328125 -2.92787671089172363 17.0905189514160156
-26.6853542327880859 31.7819557189941406 21.3601551055908203
-26.3959102630615234 14.9713811874389648 -34.8266258239746094
6.02453231811523438 21.2442474365234375 -38.5043067932128906
24.5107822418212891 4.42814350128173828 30.8298759460449219
22.5283260345458984 -28.4134082794189453 26.5984973907470703
41.0950202941894531 -20.8097190856933594 27.0130748748779297
-34.9880218505859375 12.8864498138427734 -17.1265373229980469
19.6526203155517578 -21.7289524078369141 45.4394950866699219
-12.1784648895263672 -19.2224273681640625 35.2509307861328125
-10.197291374206543 -4.61203813552856445 45.8337211608886719
-38.1807708740234375 -22.8451957702636719 -22.6963939666748047
7.23968267440795898 -7.59493923187255859 -39.4463844299316406
12.6106176376342773 -7.03705644607543945 45.2158050537109375
29.7227516174316406 -15.6182727813720703 37.1731300354003906
-10.5328187942504883 30.0340805053710938 -1.65576517581939697
4.51106405258178711 -11.1082830429077148 -35.4727439880371094
25.0372943878173828 17.6540355682373047 -33.8188438415527344
38.5760765075683594 -10.0394496917724609 18.9082679748535156
-23.1020870208740234 13.5941410064697266 37.3537940979003906
20.3961048126220703 -26.6793861389160156 -37.7971954345703125
-8.72465896606445312 30.9532356262207031 27.099151611328125
-6.92468070983886719 -18.2755031585693359 42.6782150268554688
39.308074951171875 14.4785652160644531 39.2170791625976562
-38.224761962890625 9.70469570159912109 -2.73960471153259277
-36.4523849487304688 12.4809036254882812 -15.44000244140625
2.00285196304321289 23.9376049041748047 -32.6132926940917969
46.12457275390625 13.0583562850952148 -17.6016178131103516
-25.4533042907714844 1.67743146419525146 14.5710849761962891
17.1589756011962891 -6.06062841415405273 -29.8015537261962891
39.4579620361328125 -17.0291175842285156 -6.64765024185180664
-35.0827217102050781 -12.4851274490356445 -15.930933952331543
35.066131591796875 -3.68120074272155762 21.5834789276123047
18.1972293853759766 23.8730869293212891 -24.4038944244384766
-44.4327545166015625 -14.8824806213378906 14.3659353256225586
11.9689435958862305 -19.0735511779785156 -43.1862869262695312
-17.7443370819091797 -14.8649396896362305 -38.2052040100097656
-11.8712882995605469 -12.0689020156860352 -26.7931022644042969
15.5532217025756836 16.6587314605712891 -38.4497261047363281
-17.8713150024414062 -24.821563720703125 -35.4378204345703125
-33.3702735900878906 -1.45182251930236816 -17.53582763671875
-22.3037376403808594 27.6181907653808594 -28.3095664978027344
-25.9678592681884766 12.6116456985473633 -25.0785446166992188
51.6922531127929688 13.4217796325683594 16.9821090698242188
15.1823606491088867 7.69734287261962891 35.4182586669921875
-16.4683742523193359 31.4684486389160156 11.6739997863769531
19.9621162414550781 -24.8006324768066406 17.7460117340087891
-10.1794834136962891 -23.3531608581542969 23.037750244140625
10.8804836273193359 26.6819515228271484 -6.18943548202514648
50.4869918823242188 0.897470414638519287 -7.48395061492919922
49.2312126159667969 17.7857398986816406 22.5674648284912109
-30.9118366241455078 -9.90769481658935547 -14.3198080062866211
22.8588886260986328 -6.67366647720336914 -19.4759330749511719
46.3088417053222656 4.06730365753173828 26.9935359954833984
13.765873908996582 8.82119941711425781 36.4641952514648438
-25.6457977294921875 -25.3174781799316406 -24.0821876525878906
-23.3178443908691406 -19.5435981750488281 -38.0889663696289062
1.39361286163330078 30.5276508331298828 31.2343502044677734
5.06287860870361328 34.1857681274414062 43.0461845397949219
-17.7988872528076172 -14.286290168762207 -26.4588222503662109
26.6765918731689453 7.82303285598754883 -37.2452964782714844
17.7923698425292969 -10.5116872787475586 -43.2445411682128906
-35.2062034606933594 -3.07698726654052734 19.1945438385009766
-37.0902061462402344 -12.1318492889404297 -20.384033203125
9.47143936157226562 12.1632194519042969 -42.7032318115234375
28.8684158325195312 -28.5797119140625 -26.7591209411621094
0.190704450011253357 13.6342353820800781 46.4491615295410156
24.8163166046142578 23.7694911956787109 -13.0887985229492188
-31.3865470886230469 17.50653076171875 32.5601158142089844
-36.8943672180175781 27.7705898284912109 -21.2833747863769531
-18.5874385833740234 -27.1560573577880859 0.743963181972503662
1.68061459064483643 -13.8705120086669922 -43.0009422302246094
-34.0433578491210938 15.424835205078125 -0.834874808788299561
37.3415298461914062 -12.2805099487304688 -22.4565067291259766
0.652184665203094482 18.7533607482910156 53.2731513977050781
32.8934822082519531 -25.5274276733398438 -16.5781440734863281
14.4018983840942383 3.47449374198913574 -40.6109771728515625
-12.7459983825683594 -4.84962272644042969 25.7165966033935547
-10.2967901229858398 7.77904272079467773 -34.017791748046875
-28.0293464660644531 28.7184200286865234 -11.7822656631469727
30.9366722106933594 9.28865718841552734 -34.3795394897460938
-17.8190631866455078 11.3659400939941406 -34.5159072875976562
2.84830355644226074 -27.4500102996826172 -41.0459251403808594
18.0780353546142578 -25.1006889343261719 23.9916496276855469
-23.7764835357666016 -4.32025051116943359 -24.1315708160400391
38.7922248840332031 -0.419737815856933594 13.7877588272094727
-4.3025965690612793 18.5184955596923828 -41.4785995483398438
7.35536575317382812 17.4908714294433594 -41.5971031188964844
-2.15743184089660645 -13.1232471466064453 48.7371063232421875
-49.9476661682128906 -16.7822017669677734 -10.7244462966918945
-43.5618247985839844 3.7343907356262207 5.99625396728515625
0.207072094082832336 -2.64907288551330566 -37.8107986450195312
-46.5211219787597656 -9.81138896942138672 6.32377195358276367
-11.0341415405273438 -17.4012584686279297 37.8306007385253906
-31.1694660186767578 23.5857830047607422 31.7608680725097656
-39.3920440673828125 -26.0410709381103516 -3.92453479766845703
-33.0275802612304688 15.3087835311889648 -22.4946727752685547
20.8438968658447266 -6.34816217422485352 34.924896240234375
-26.0979061126708984 33.0559616088867188 14.7151327133178711
4.03834962844848633 29.8829288482666016 21.6684379577636719
0.702694296836853027 -13.9383840560913086 -33.507293701171875
45.5371208190917969 20.7964992523193359 28.4440937042236328
42.9716911315917969 8.64871788024902344 33.5217781066894531
-31.4749622344970703 6.8948054313659668 -17.3705120086669922
-29.5334587097167969 29.5534763336181641 15.8440790176391602
-36.9713630676269531 16.299468994140625 -16.3544826507568359
6.64481878280639648 0.624275386333465576 -36.5965347290039062
-9.06559658050537109 -16.2405319213867188 39.9448814392089844
-13.5392913818359375 33.5488815307617188 38.5796890258789062
34.8762702941894531 -17.6746635437011719 -26.6780414581298828
-25.7871971130371094 29.8354625701904297 -4.54383182525634766
-21.2158718109130859 22.8810253143310547 43.6279945373535156
-42.6261444091796875 -19.1818904876708984 -19.5259895324707031
46.448150634765625 23.8229503631591797 13.2088747024536133
38.1273841857910156 -8.79015922546386719 18.3997116088867188
23.598358154296875 -12.4346218109130859 -29.9652767181396484
-5.56995010375976562 -23.6234474182128906 -44.4707069396972656
14.7112970352172852 -13.1374521255493164 -24.9370346069335938
-4.01522254943847656 15.2011747360229492 51.2618598937988281
4.82021522521972656 12.1792745590209961 -42.61297607421875
-23.8066596984863281 4.34774541854858398 -24.2859134674072266
19.3843765258789062 -13.3606901168823242 43.5486259460449219
0.676556885242462158 17.3123321533203125 -41.579254150390625
-11.3930912017822266 -14.4885616302490234 -26.1067447662353516
11.5023965835571289 -26.7507534027099609 -33.8798980712890625
-6.43945026397705078 26.1128463745117188 49.9220161437988281
-29.8992767333984375 -10.33648681640625 -20.4433460235595703
20.957427978515625 11.1529865264892578 43.4032363891601562
-21.3730297088623047 -2.10614728927612305 39.1911430358886719
1.21776294708251953 29.0689811706542969 -6.85594749450683594
34.6222877502441406 -7.67276859283447266 21.5398235321044922
2.52247285842895508 -26.7698917388916016 -38.5804557800292969
23.5583305358886719 -25.3335113525390625 13.8001184463500977
-0.864770948886871338 30.3195343017578125 47.4805183410644531
-3.4700164794921875 30.9826736450195312 32.6711158752441406
-3.29964613914489746 -27.0730571746826172 2.07461428642272949
-11.1047515869140625 -10.77728271484375 -28.097442626953125
-21.4177684783935547 13.2805032730102539 -25.4074172973632812
-0.162187084555625916 -21.4145851135253906 32.2664222717285156
39.90985107421875 -14.3397006988525391 18.8553676605224609
35.33526611328125 -1.56965291500091553 24.0865383148193359
-12.7081584930419922 -1.47551941871643066 -30.5489654541015625
-25.6061038970947266 -0.245239302515983582 26.7717742919921875
-36.1420326232910156 -15.751469612121582 -22.1835308074951172
-20.6409263610839844 -23.9200916290283203 17.0009136199951172
2.29080009460449219 28.6187686920166016 -8.88743114471435547
-15.8187646865844727 31.1494235992431641 6.48491621017456055
-19.6288261413574219 0.2490072101354599 31.1589488983154297
-38.8341522216796875 19.8374176025390625 -22.6215648651123047
28.4006996154785156 -18.7933883666992188 -34.2583885192871094
-38.3056907653808594 15.0114374160766602 -4.35173559188842773
43.8656959533691406 21.1674385070800781 31.4804611206054688
-18.4314041137695312 -28.1149024963378906 -12.5915651321411133
40.8787841796875 -18.1405487060546875 -11.8122920989990234
16.0436000823974609 8.47260761260986328 -41.5974617004394531
34.3027725219726562 -5.1998906135559082 22.5479679107666016
-28.9029541015625 4.16588258743286133 -22.492767333984375
-24.4676551818847656 -23.7355136871337891 15.9276084899902344
-46.853729248046875 -7.94619655609130859 -0.522541522979736328
46.7946815490722656 -20.5178012847900391 -2.1624906063079834
-21.4693489074707031 23.1852226257324219 -36.3753662109375
-11.4970798492431641 28.7565937042236328 -21.3748741149902344
28.9138202667236328 21.9799518585205078 -24.1972999572753906
19.4091091156005859 -26.8073921203613281 3.17762136459350586
42.936187744140625 -15.6628398895263672 -5.89638519287109375
16.812835693359375 22.6771583557128906 -33.9553794860839844
-38.4898834228515625 27.3540210723876953 13.6679792404174805
40.597625732421875 25.2606830596923828 31.6754150390625
16.0655269622802734 -27.2621040344238281 -33.3256759643554688
-32.5166206359863281 5.79263973236083984 -19.0907249450683594
12.3998279571533203 25.2956581115722656 51.2128791809082031
-42.5223617553710938 -23.0494518280029297 10.3218011856079102
-14.6914539337158203 1.54610335826873779 15.0687427520751953
-22.3646335601806641 -27.4606685638427734 -7.61754798889160156
-6.01862335205078125 31.4075183868408203 45.20135498046875
43.3344078063964844 25.9245281219482422 7.22556591033935547
31.7535743713378906 0.201501965522766113 29.891845703125
-12.2445411682128906 30.7935657501220703 23.2283077239990234
12.332951545715332 11.0433931350708008 39.1851158142089844
-45.8544883728027344 -1.316841721534729 -2.70688581466674805
-41.9485931396484375 -4.84433794021606445 -13.1485776901245117
26.7923297882080078 -26.5997982025146484 11.3731422424316406
-20.0501823425292969 -18.3022956848144531 33.6098556518554688
23.1936302185058594 -2.50254940986633301 32.9003448486328125
3.68273687362670898 -26.572540283203125 -38.6057586669921875
6.82333755493164062 15.9350099563598633 -41.982177734375
17.4340152740478516 13.6350851058959961 -40.55499267578125
15.23309326171875 3.66084432601928711 37.2779884338378906
11.737147331237793 21.1323223114013672 -36.453125
33.3233985900878906 22.9067096710205078 -21.1190948486328125
-35.589202880859375 11.7534189224243164 1.38715708255767822
22.4799671173095703 24.5454959869384766 -2.90980434417724609
28.2333621978759766 -26.8321895599365234 -29.5308151245117188
-19.7059040069580078 29.9675922393798828 39.8769187927246094
-35.5074615478515625 15.1207828521728516 7.55102682113647461
16.1199054718017578 23.5453262329101562 51.186859130859375
-13.019007682800293 -5.83097457885742188 31.8760604858398438
22.7899017333984375 32.308990478515625 39.1580467224121094
-32.1779327392578125 -24.2571334838867188 -20.2803401947021484
-8.82461071014404297 -27.5181159973144531 -19.9239940643310547
-9.27894115447998047 -16.7960720062255859 38.8285331726074219
35.9977951049804688 11.1949081420898438 -29.8659076690673828
-13.254058837890625 7.96651554107666016 27.7930831909179688
-28.8042621612548828 -24.6420917510986328 -27.9323310852050781
-2.10963654518127441 -4.84836864471435547 46.900238037109375
22.207977294921875 20.0806503295898438 -33.0236663818359375
39.2161521911621094 12.1243352890014648 37.3399925231933594
14.3793725967407227 28.0971603393554688 -0.651606976985931396
5.9091191291809082 -22.8830814361572266 28.6779937744140625
22.7229442596435547 -27.2707042694091797 -6.96344423294067383
34.5580596923828125 -10.147557258605957 20.7110767364501953
-36.0926666259765625 -4.34856891632080078 8.98167324066162109
-16.1556186676025391 30.977935791015625 23.9309959411621094
50.0635566711425781 17.1951465606689453 20.1800212860107422
-15.06048583984375 9.60655784606933594 -25.2121295928955078
15.5253639221191406 20.3146400451660156 -29.5965766906738281
-28.9494647979736328 -4.87404823303222656 -22.3584041595458984
39.2516136169433594 3.5980064868927002 -27.8642368316650391
12.0967283248901367 -24.8499565124511719 46.0270500183105469
42.0285301208496094 19.8793697357177734 3.38924789428710938
13.3296575546264648 2.06628561019897461 38.1120758056640625
18.60357666015625 -8.91354656219482422 -26.7828750610351562
-29.3164997100830078 -14.3846502304077148 34.9909782409667969
-19.736083984375 10.4096536636352539 22.3069629669189453
-10.7522134780883789 -27.2534542083740234 -1.75509095191955566
-49.4387054443359375 -10.6664257049560547 -9.36935043334960938
-8.07200145721435547 -3.53786110877990723 41.9110908508300781
-32.7662582397460938 -3.06555318832397461 7.51532745361328125
49.1909332275390625 17.9313735961914062 8.75321769714355469
46.2299613952636719 1.47678959369659424 22.3678092956542969
-48.3244361877441406 -14.9487724304199219 -13.078740119934082
-34.2017288208007812 12.8676109313964844 1.0081946849822998
41.989501953125 19.1427650451660156 -7.68506240844726562
-43.1357688903808594 25.5564785003662109 -4.08776235580444336
-14.2432384490966797 -26.8589134216308594 -0.923564434051513672
46.4765892028808594 -16.3758602142333984 10.1177253723144531
-0.265706032514572144 -11.9114980697631836 48.4057846069335938
-23.6080799102783203 -25.8166694641113281 -23.9535751342773438
-48.0549964904785156 -12.5546960830688477 -3.0383903980255127
-21.5746021270751953 29.2849445343017578 38.8145103454589844
-12.9413785934448242 -28.5866565704345703 -9.36461448669433594
-6.04841470718383789 3.6805722713470459 -37.92022705078125
29.0737285614013672 -25.7989578247070312 -20.5507545471191406
-41.1986160278320312 -12.3893108367919922 -17.3696365356445312
36.3696937561035156 -14.6000938415527344 31.2217063903808594
-1.28882181644439697 -26.3390159606933594 -28.8366413116455078
-13.1295089721679688 34.751617431640625 31.2654056549072266
14.7049388885498047 -15.7543277740478516 -40.9832038879394531
19.8954353332519531 -26.7252101898193359 2.81078338623046875
11.6640958786010742 26.5412940979003906 -19.1753940582275391
-43.5126228332519531 25.88739013671875 -8.40735912322998047
-19.0112552642822266 -25.392974853515625 -39.9231834411621094
21.9723777770996094 32.8725395202636719 38.2053413391113281
43.1212997436523438 3.90326285362243652 29.4294052124023438
-2.33052682876586914 30.8998985290527344 34.8817520141601562
-19.3470840454101562 -6.77443456649780273 16.9865608215332031
45.4567337036132812 -8.30988788604736328 7.37067508697509766
-41.4166297912597656 5.33432960510253906 -10.4754152297973633
-28.2216606140136719 9.18084716796875 12.1159324645996094
-12.0183572769165039 -13.2826938629150391 -32.5145339965820312
24.0789413452148438 10.5361013412475586 -38.55841064453125
-7.54415035247802734 2.95006823539733887 24.3742523193359375
7.69062423706054688 25.0386867523193359 -35.5111465454101562
0.375666946172714233 15.4984540939331055 -42.3474082946777344
29.3177967071533203 -27.6931552886962891 -28.3313980102539062
37.0206947326660156 -29.30462646484375 -6.24726295471191406
-31.2368736267089844 13.7351055145263672 -18.7443466186523438
24.8759784698486328 22.6698646545410156 48.7835121154785156
39.5659332275390625 -17.8548641204833984 -18.2137851715087891
5.0329890251159668 13.4206514358520508 47.1989250183105469
46.2232513427734375 23.8297100067138672 14.134251594543457
10.1787834167480469 -19.4393882751464844 -43.7508964538574219
18.1527919769287109 -26.7988796234130859 4.01775455474853516
24.0753650665283203 24.3036594390869141 -4.44631481170654297
-8.97484111785888672 -26.1646995544433594 -26.936431884765625
35.2160263061523438 -12.7003316879272461 26.2311630249023438
16.3002452850341797 -26.6144065856933594 6.29030942916870117
29.3408641815185547 -28.7638339996337891 34.3832931518554688
-19.7797946929931641 -15.367854118347168 -23.5824527740478516
42.4086456298828125 22.4598674774169922 4.90124940872192383
32.3567276000976562 -13.9010515213012695 -27.5108966827392578
41.687713623046875 22.5321292877197266 9.85741424560546875
5.51005268096923828 22.1565933227539062 -36.7557830810546875
34.05316162109375 -19.3299045562744141 -28.7175865173339844
30.8620243072509766 -28.8864803314208984 11.7459659576416016
-41.2759246826171875 14.1932353973388672 -14.3852596282958984
50.1762466430664062 13.6042680740356445 4.73004484176635742
2.37869977951049805 -23.6001262664794922 -44.5122909545898438
47.9716148376464844 17.6120834350585938 26.6893272399902344
-25.5385227203369141 -5.07420444488525391 37.0300865173339844
38.7742080688476562 -25.3725509643554688 -23.2961597442626953
-18.5981826782226562 21.6112117767333984 45.9551849365234375
21.6286735534667969 17.6259326934814453 -34.1725959777832031
48.1422920227050781 -24.1191387176513672 2.74788641929626465
21.9751682281494141 24.0561161041259766 -10.3920745849609375
19.3535060882568359 -5.98070096969604492 -35.4264450073242188
2.16600847244262695 20.7946243286132812 -40.6315994262695312
-32.8712959289550781 14.2218255996704102 1.5843358039855957
9.36593532562255859 7.95771598815917969 -42.4057121276855469
19.0306129455566406 -13.8282451629638672 -28.4231147766113281
16.5587997436523438 -18.9041061401367188 47.5596961975097656
13.2467269897460938 -0.441244751214981079 41.2141036987304688
-9.33100414276123047 0.856285333633422852 26.7450084686279297
-1.03053152561187744 19.4023971557617188 -41.1758689880371094
-23.2101573944091797 -4.16165256500244141 -24.4610767364501953
-30.6721591949462891 33.6593856811523438 15.4699811935424805
-36.3555450439453125 3.48708343505859375 -15.9281034469604492
48.7775154113769531 12.9107847213745117 27.8348941802978516
10.9833908081054688 -25.7692108154296875 5.33659982681274414
13.65570068359375 -10.9271974563598633 -46.248291015625
2.58298492431640625 26.4261016845703125 -28.650115966796875
52.3546485900878906 9.25198745727539062 15.0787124633789062
-47.2296371459960938 -22.662017822265625 0.88855135440826416
14.0072660446166992 -11.2140522003173828 -45.9985427856445312
28.4107494354248047 9.59867191314697266 41.86932373046875
34.6244850158691406 9.65821266174316406 38.9378929138183594
-33.4336090087890625 -10.7968950271606445 -18.2373905181884766
39.7715187072753906 9.09655952453613281 -26.2507648468017578
7.71361732482910156 -25.41619873046875 4.38807868957519531
3.39342522621154785 -22.5242824554443359 39.0063285827636719
40.196075439453125 19.3702774047851562 -11.5394182205200195
-13.1500558853149414 29.3879985809326172 -5.06236791610717773
43.4489250183105469 -24.2489604949951172 -14.3017444610595703
26.7658576965332031 27.5134391784667969 10.3907880783081055
-11.6429376602172852 -19.5814990997314453 34.5706291198730469
-28.7483882904052734 33.1394844055175781 20.8122081756591797
41.3938674926757812 20.2064189910888672 -7.74723005294799805
-4.33553695678710938 -15.4737558364868164 -42.6660041809082031
-22.9512443542480469 -26.5363559722900391 -22.4382743835449219
45.6913032531738281 24.0581588745117188 18.4227199554443359
-0.120263852179050446 -27.5344982147216797 -21.2769317626953125
36.5521316528320312 -21.1407585144042969 -26.5020027160644531
8.88179111480712891 -10.6274824142456055 48.5429306030273438
13.5596723556518555 11.0476274490356445 39.19219970703125
18.4988880157470703 20.6803359985351562 -35.0389518737792969
51.6002922058105469 6.24477148056030273 17.1425075531005859
-38.5808563232421875 -18.8502826690673828 21.5572891235351562
6.69055461883544922 25.4853420257568359 -27.1414566040039062
21.2286624908447266 -27.2181587219238281 25.4020614624023438
-40.9327430725097656 24.0519237518310547 -14.9792652130126953
-39.6049690246582031 -13.2908267974853516 -15.0271034240722656
49.581878662109375 9.99342823028564453 -12.4197931289672852
19.4494476318359375 -22.9443149566650391 45.2539939880371094
-6.77545309066772461 29.7887763977050781 -6.39475917816162109
-3.4059441089630127 5.0258479118347168 30.7249488830566406
35.8027725219726562 -26.3376884460449219 -9.64055538177490234
36.6255722045898438 11.4046087265014648 38.6886825561523438
-4.2328033447265625 0.018581584095954895 -49.6824455261230469
-39.8729209899902344 24.151519775390625 14.7630434036254883
-3.65077590942382812 14.3895998001098633 49.9507637023925781
8.40948677062988281 -25.0581398010253906 42.1233139038085938
-33.2612800598144531 -26.4813156127929688 3.96868276596069336
33.8759346008300781 4.48759698867797852 32.5023269653320312
-10.2325801849365234 29.59637451171875 -11.5501041412353516
23.5707759857177734 -24.909881591796875 -37.7125091552734375
34.8790779113769531 -28.5180892944335938 -3.61189961433410645
-41.8975410461425781 25.7134380340576172 -6.54502391815185547
8.00084590911865234 24.5163860321044922 52.0393447875976562
36.6287956237792969 -28.2082633972167969 -22.4682674407958984
-11.018773078918457 8.31235599517822266 -33.3601493835449219
-41.7346992492675781 24.7003459930419922 -13.5720443725585938
-39.2079010009765625 16.6568317413330078 -10.7811279296875
36.8833961486816406 -10.9242982864379883 22.8973388671875
-13.0961408615112305 -28.0676708221435547 -4.30668544769287109
-32.3455123901367188 20.7970752716064453 30.9216060638427734
-35.9804420471191406 27.3319015502929688 18.991912841796875
-25.7775363922119141 27.9966697692871094 -25.5544795989990234
-36.8625907897949219 -26.4886341094970703 0.990517020225524902
1.75043570995330811 -26.9067592620849609 -28.4510383605957031
-3.95198535919189453 -7.80633831024169922 48.5521240234375
-36.0988082885742188 26.2712554931640625 -21.3214988708496094
52.6759490966796875 6.04043865203857422 12.1652050018310547
-23.1818714141845703 2.35796737670898438 25.0731277465820312
-45.0446929931640625 -22.8689727783203125 0.194037333130836487
29.6565055847167969 22.9435272216796875 45.6414680480957031
37.8516921997070312 -27.5737171173095703 -13.8139505386352539
-38.9084091186523438 21.1396846771240234 17.7727985382080078
15.7108554840087891 -8.62609577178955078 -32.736083984375
-1.73653078079223633 -15.3125467300415039 -43.7222251892089844
27.0617141723632812 17.0534305572509766 -28.623321533203125
43.7649650573730469 21.2964057922363281 -11.8107376098632812
-23.0162200927734375 5.47640514373779297 22.7459449768066406
21.6323642730712891 -26.6630630493164062 6.42170429229736328
47.2149162292480469 17.2425365447998047 -10.2181062698364258
51.8692741394042969 12.6751108169555664 14.5431032180786133
-16.9210395812988281 -0.70003587007522583 16.2421245574951172
-20.0182991027832031 -18.7280197143554688 32.7945327758789062
-4.59357023239135742 -25.5556697845458984 14.0620193481445312
42.2291679382324219 19.7031040191650391 2.81412959098815918
-17.1151161193847656 4.41347455978393555 -29.8972034454345703
41.6564559936523438 23.7061920166015625 -8.36689567565917969
35.2612419128417969 30.8202686309814453 18.6613082885742188
31.0147247314453125 -26.2983245849609375 2.68637394905090332
-5.02043342590332031 28.0092201232910156 -21.6642875671386719
20.9018993377685547 2.8613893985748291 33.1254234313964844
-0.368210494518280029 30.8147087097167969 33.0244293212890625
46.4860191345214844 -27.4117488861083984 9.64287567138671875
-3.19668889045715332 -27.1937427520751953 -19.2611083984375
35.4745216369628906 -24.2662181854248047 34.3594703674316406
44.1155281066894531 -5.1025996208190918 7.28375911712646484
-24.5295219421386719 -14.8127279281616211 37.3102874755859375
15.4948396682739258 3.17889785766601562 -40.2853050231933594
37.8086318969726562 20.3766231536865234 -2.5688176155090332
4.63710689544677734 31.2267932891845703 35.2886466979980469
46.2364349365234375 20.9267807006835938 26.6335086822509766
2.15097737312316895 20.5215206146240234 53.2237396240234375
33.8221855163574219 -26.8114414215087891 -7.79644155502319336
12.5761137008666992 25.0497188568115234 -18.0462646484375
24.7649402618408203 32.456268310546875 32.5369644165039062
-30.1334571838378906 -25.6631679534912109 9.01974010467529297
-4.32068347930908203 -6.78901529312133789 47.8785858154296875
41.1638526916503906 -9.12816238403320312 14.9035816192626953
-33.1027984619140625 -6.61137771606445312 30.6599960327148438
-15.5124540328979492 -13.2023687362670898 -24.0241413116455078
-0.270152062177658081 28.9395122528076172 13.1889925003051758
7.74996805191040039 13.9941806793212891 50.9854583740234375
14.2711143493652344 -9.19810962677001953 44.3797721862792969
36.4275779724121094 -0.70503467321395874 18.3337535858154297
-42.0763397216796875 6.50818681716918945 -6.14623165130615234
16.4068698883056641 -13.793492317199707 -43.634185791015625
51.1668548583984375 1.41911530494689941 12.2877902984619141
18.5530567169189453 -12.711669921875 -42.7407379150390625
7.25147247314453125 -10.1851663589477539 42.4459991455078125
8.01772975921630859 -10.348358154296875 46.9364395141601562
-24.3842811584472656 -26.7424449920654297 -34.1445579528808594
25.0239543914794922 15.2106866836547852 48.8928031921386719
35.831695556640625 8.98780250549316406 -30.335601806640625
33.304779052734375 10.2791051864624023 42.0651054382324219
-45.9409561157226562 -25.5139884948730469 -12.0114545822143555
28.6877765655517578 22.2209033966064453 -20.5027484893798828
-24.2019882202148438 8.68190956115722656 13.0229177474975586
28.4732913970947266 21.9810123443603516 -7.428466796875
-22.3208637237548828 -3.0831754207611084 38.8134536743164062
4.19429445266723633 -23.5322952270507812 46.2608070373535156
23.8234710693359375 9.52562427520751953 -38.8033027648925781
12.6970396041870117 17.459686279296875 -39.2800712585449219
-1.51999843120574951 -23.5936546325683594 -44.5279464721679688
22.7113780975341797 -26.939239501953125 -35.5643997192382812
-24.3588981628417969 -25.4707679748535156 -24.589630126953125
7.26389884948730469 -27.26806640625 -27.12615966796875
-26.3024635314941406 14.0704565048217773 -33.9167900085449219
25.5628509521484375 -0.637141585350036621 -34.0676193237304688
4.13647270202636719 11.4401206970214844 -43.0453681945800781
26.3147220611572266 29.3428058624267578 42.3194046020507812
-44.8060073852539062 20.8194980621337891 -1.19669437408447266
4.95328092575073242 -26.8124351501464844 -42.1600227355957031
33.5771026611328125 16.3448333740234375 44.5310173034667969
-29.3287525177001953 34.2792282104492188 15.8361473083496094
23.1561965942382812 32.5508308410644531 32.5516395568847656
-11.1098651885986328 -13.3972406387329102 -39.4991569519042969
-20.7833690643310547 29.7433948516845703 -4.17311286926269531
16.6025314331054688 -12.2414255142211914 -37.4221115112304688
-38.6110153198242188 19.1975574493408203 -5.28014421463012695
19.0704288482666016 0.692869663238525391 -37.7075004577636719
