ply
format ascii 1.0
element vertex 781
comment vertices
property float x
property float y
property float z
end_header
15.3195943832397461 -9.39405632019042969 34.2117729187011719
-13.1000967025756836 22.6047248840332031 -28.688995361328125
-12.9800500869750977 19.4582786560058594 -24.2656459808349609
-15.4073581695556641 5.2007598876953125 -3.84469008445739746
17.3713970184326172 3.50098347663879395 -4.64653825759887695
-6.62584018707275391 -26.0410194396972656 22.8355293273925781
-3.08552980422973633 -1.93796086311340332 -44.8323631286621094
8.51880264282226562 20.1391639709472656 7.0563654899597168
-12.5962839126586914 17.8044261932373047 12.9899358749389648
-16.1198616027832031 -7.44022274017333984 -35.0586280822753906
-16.7725906372070312 -8.76939773559570312 2.30331826210021973
-15.1135797500610352 -19.9539909362792969 8.65264034271240234
-11.3751592636108398 21.2281436920166016 21.8309249877929688
-8.27120494842529297 19.5246257781982422 14.1346979141235352
15.8512697219848633 -5.55624532699584961 30.1729850769042969
-6.26278018951416016 23.4480857849121094 19.3167343139648438
-13.8530101776123047 16.9552650451660156 12.1225709915161133
-4.13520526885986328 -26.0200519561767578 13.5006437301635742
15.3428382873535156 5.77496719360351562 -18.1274433135986328
-9.97394275665283203 20.8019180297851562 -12.5810880661010742
8.22133255004882812 -17.5161895751953125 -26.2741718292236328
-13.3741006851196289 -21.4744853973388672 4.4817352294921875
9.35404491424560547 13.1700477600097656 33.0384979248046875
10.9661474227905273 -6.88413572311401367 -39.7939109802246094
0.0403901562094688416 26.0868377685546875 -19.6086082458496094
7.99857997894287109 21.8133068084716797 -20.5059394836425781
16.8648681640625 3.44756555557250977 2.95037508010864258
-2.99712657928466797 -25.9984912872314453 12.9667119979858398
-6.20470190048217773 21.0649833679199219 38.1370811462402344
7.10094642639160156 4.58407115936279297 39.0266342163085938
-9.73729324340820312 6.89825868606567383 -42.7871856689453125
3.03844547271728516 -22.6025314331054688 -35.1767349243164062
-15.6092166900634766 -4.61547136306762695 9.82359981536865234
-0.821356296539306641 -13.4825277328491211 44.8760261535644531
-13.7615756988525391 -18.6327362060546875 32.7290992736816406
18.1855621337890625 -3.6903998851776123 -25.9971351623535156
11.0624914169311523 -9.16495704650878906 38.5990180969238281
-13.5457735061645508 -21.2145290374755859 -6.28978586196899414
-13.7354278564453125 17.36114501953125 31.6107025146484375
9.4132080078125 2.35033535957336426 -41.4722900390625
-9.02487754821777344 -10.4887981414794922 -41.3425064086914062
12.0434799194335938 -4.59032154083251953 -29.2389469146728516
12.6092023849487305 -0.4217548668384552 -29.3949337005615234
-9.14610958099365234 -15.7598304748535156 43.3316764831542969
-13.5765151977539062 18.8899250030517578 -1.15498447418212891
15.4951114654541016 4.09991025924682617 19.2749595642089844
-16.1455345153808594 -6.83919382095336914 0.437839716672897339
-4.31210136413574219 -16.2604560852050781 -38.6939811706542969
-13.6627254486083984 16.7180519104003906 -15.8518581390380859
-14.8911323547363281 10.6240215301513672 -3.44205808639526367
3.87595868110656738 0.429592162370681763 43.5162811279296875
-14.2846307754516602 -13.6112051010131836 -35.2682991027832031
12.0767440795898438 15.1394233703613281 -29.1015205383300781
-14.9234170913696289 9.10291481018066406 -33.7475051879882812
14.2032451629638672 -10.0321464538574219 -12.4149131774902344
9.40439510345458984 16.4742298126220703 22.8073177337646484
-12.9141359329223633 17.2598285675048828 27.0767097473144531
-6.61067962646484375 -22.6648483276367188 -22.4900016784667969
-13.9212150573730469 17.3317070007324219 -0.430827558040618896
17.6220779418945312 -3.73510289192199707 -18.1913337707519531
4.20220947265625 -22.6163063049316406 -9.46400260925292969
-16.6002159118652344 -9.08464336395263672 4.70013427734375
-0.24901987612247467 20.9546070098876953 -28.2557182312011719
-6.68077373504638672 -6.47230339050292969 48.840789794921875
-4.55401182174682617 -25.7843494415283203 30.0724220275878906
-16.6303062438964844 -11.2213945388793945 7.74795341491699219
-5.76671886444091797 7.99523067474365234 45.1913795471191406
11.5372676849365234 7.14703464508056641 36.0490303039550781
15.4604549407958984 7.07602882385253906 0.849458754062652588
10.4724931716918945 -10.3687772750854492 38.2611274719238281
4.25656795501708984 -8.97420501708984375 43.6775360107421875
-5.54553556442260742 -20.6138248443603516 38.0254898071289062
-0.448300421237945557 -25.7022743225097656 30.2794475555419922
-1.34207427501678467 21.9888935089111328 36.5057334899902344
11.8112325668334961 -15.567692756652832 19.0541019439697266
11.2257041931152344 12.8514404296875 24.8043537139892578
-0.937395274639129639 -25.7361888885498047 12.1206455230712891
-14.7549457550048828 1.60861515998840332 -12.2818088531494141
-14.4999399185180664 12.9479341506958008 -27.7746219635009766
-7.74935674667358398 -25.5975208282470703 12.8554983139038086
-15.8608264923095703 -0.621928811073303223 -18.957977294921875
15.8372173309326172 -1.70833742618560791 -15.8048696517944336
-3.165557861328125 -25.8536586761474609 30.0554313659667969
-14.4963493347167969 12.8025054931640625 -27.9478912353515625
-9.52751541137695312 -24.7500209808349609 8.72655963897705078
15.8171138763427734 -8.96098232269287109 5.152923583984375
7.82848882675170898 -20.4383773803710938 -7.14966106414794922
-15.1822834014892578 8.02911949157714844 -0.991680264472961426
6.20569705963134766 -11.510075569152832 -42.7449455261230469
15.4918613433837891 -9.38986873626708984 32.1404380798339844
14.1891603469848633 -12.0344867706298828 -4.06725978851318359
-4.08866262435913086 -3.23917222023010254 48.1328201293945312
-3.47911620140075684 22.7035484313964844 -14.17327880859375
-1.243233323097229 22.2701530456542969 -12.4698562622070312
13.7674484252929688 6.97133636474609375 -1.35118114948272705
3.78969073295593262 2.90432429313659668 41.5916213989257812
6.69008064270019531 13.7405538558959961 -31.4786949157714844
11.8566865921020508 10.5036497116088867 -1.19182264804840088
-11.6948108673095703 7.96296072006225586 -40.3696708679199219
10.3383703231811523 -15.3620634078979492 37.0317802429199219
9.69443893432617188 0.584705889225006104 39.5936660766601562
1.76161313056945801 18.0381755828857422 27.3600673675537109
-9.8821563720703125 22.7034358978271484 -5.17506551742553711
11.9801120758056641 15.9539098739624023 -6.910980224609375
-17.7230281829833984 -12.8627901077270508 -14.9923229217529297
-13.4166164398193359 5.60250377655029297 -37.1321449279785156
12.5042428970336914 -14.4447641372680664 13.5310878753662109
-16.6197471618652344 -6.92673730850219727 -27.4181270599365234
-0.56931757926940918 12.4860439300537109 39.968109130859375
8.61607074737548828 -16.7095146179199219 -28.47406005859375
-6.03778219223022461 26.3913917541503906 -28.7052631378173828
9.25508403778076172 8.15826606750488281 -34.8321571350097656
-0.12164604663848877 -9.17923736572265625 -42.9302902221679688
16.8924827575683594 7.22154569625854492 -20.2325019836425781
-5.7446284294128418 -26.1568737030029297 20.3558406829833984
17.7628383636474609 3.41208910942077637 -24.7113819122314453
-4.76874399185180664 -17.2719383239746094 -37.8210258483886719
-4.94471645355224609 -26.2230491638183594 22.1666831970214844
-8.57800197601318359 8.57034683227539062 -43.1575546264648438
1.97792911529541016 16.6157321929931641 28.6150283813476562
7.05175590515136719 0.860431492328643799 38.8189048767089844
-7.11021041870117188 5.45303201675415039 47.6337852478027344
-13.0885848999023438 -20.1392936706542969 32.8982429504394531
6.93391799926757812 18.7805557250976562 -13.8538427352905273
-16.7222709655761719 -11.5749578475952148 13.958888053894043
-10.6891775131225586 1.55790066719055176 -42.3992118835449219
-13.5564393997192383 -11.300236701965332 44.1205902099609375
7.88104248046875 2.09053373336791992 38.7042617797851562
8.48582744598388672 19.7221088409423828 -4.04058456420898438
14.6781816482543945 -11.1216754913330078 -23.2478237152099609
3.39687442779541016 20.7453498840332031 -2.10468626022338867
10.6310157775878906 18.1138057708740234 -27.7789745330810547
7.28789472579956055 15.3326492309570312 35.8101997375488281
16.0874767303466797 -2.12707662582397461 29.3094825744628906
-7.72145986557006836 7.29851913452148438 45.7740325927734375
-8.50983333587646484 -22.9097003936767578 -27.4941158294677734
4.57972431182861328 -21.5902614593505859 34.0022926330566406
-11.6682319641113281 -22.8939990997314453 -2.92079830169677734
-2.44310235977172852 24.447784423828125 -36.4825286865234375
-12.8926382064819336 1.33061444759368896 45.4253616333007812
5.14623308181762695 16.4989032745361328 -30.4725704193115234
-16.4829883575439453 -7.66220569610595703 6.83741140365600586
5.19031381607055664 19.2332210540771484 34.7495841979980469
-10.1922769546508789 20.3866462707519531 28.7251148223876953
16.1584072113037109 1.34516704082489014 20.6578636169433594
17.0404586791992188 6.10497903823852539 -7.40689706802368164
-17.5858917236328125 -13.8786077499389648 -15.9122400283813477
-1.4195549488067627 -0.200615480542182922 47.373931884765625
-7.97272920608520508 16.2839717864990234 -33.895477294921875
2.65805363655090332 -21.8950710296630859 -18.0374813079833984
-11.7780084609985352 5.09372901916503906 -41.3480224609375
3.37236142158508301 -16.6414604187011719 37.5935630798339844
9.05573081970214844 10.2751588821411133 28.2489681243896484
14.9178304672241211 0.303673058748245239 13.0873746871948242
7.52655649185180664 -15.9050178527832031 35.8708381652832031
-14.9192876815795898 8.55021095275878906 -34.2097625732421875
1.33932554721832275 18.2729549407958984 15.2532224655151367
-1.35849571228027344 -24.5498752593994141 -11.9078903198242188
0.629785299301147461 23.6034221649169922 5.54524326324462891
-10.0386867523193359 -23.7402248382568359 31.6735916137695312
6.54688262939453125 -13.2462320327758789 -42.2851600646972656
-8.94429206848144531 -25.4153556823730469 20.7527141571044922
10.6831369400024414 -7.27257776260375977 -31.4267768859863281
-10.2451276779174805 22.708099365234375 -6.64588356018066406
-15.6766271591186523 -0.183258786797523499 -12.9321002960205078
-17.0345401763916016 -15.3202266693115234 20.0874843597412109
17.6429634094238281 3.59075284004211426 -9.49280929565429688
-12.4867029190063477 -22.2662696838378906 -3.99453544616699219
6.68482732772827148 22.2427959442138672 3.11344099044799805
-15.6558408737182617 -18.0034370422363281 3.18848276138305664
-17.2856712341308594 -15.5456609725952148 -16.7533321380615234
-14.5869483947753906 10.0181989669799805 -18.0877742767333984
-5.67716646194458008 -24.8307456970214844 -12.3499660491943359
-8.45763778686523438 15.2470073699951172 -33.830841064453125
13.2047319412231445 -12.7384567260742188 -21.2334709167480469
-15.0086936950683594 6.92731904983520508 -28.3542537689208984
-14.8849992752075195 11.9396991729736328 5.01745796203613281
-3.6906280517578125 6.02665424346923828 46.9908447265625
-9.084564208984375 8.26222038269042969 43.9356040954589844
-14.8472709655761719 4.32202911376953125 21.9109973907470703
1.63925480842590332 -23.5312271118164062 -16.2418022155761719
-13.5376911163330078 19.6023330688476562 4.4380030632019043
-12.1349163055419922 -23.1272068023681641 9.76209068298339844
-16.2325611114501953 -0.643186032772064209 26.7742805480957031
3.92575502395629883 23.1727218627929688 2.90957760810852051
2.80111527442932129 20.3253879547119141 30.5636043548583984
-14.3969802856445312 -7.53915929794311523 45.0727272033691406
7.0000152587890625 20.2099514007568359 -18.0994453430175781
11.0781688690185547 -16.4159450531005859 -5.38993644714355469
-16.5088691711425781 -3.97878813743591309 -19.900146484375
-1.99799430370330811 23.4841041564941406 24.1718540191650391
-0.73898547887802124 19.5213108062744141 39.2181282043457031
-8.28757190704345703 22.9945755004882812 9.78053379058837891
10.4691991806030273 -10.7078227996826172 38.2007255554199219
-14.7980403900146484 9.77903842926025391 18.0108718872070312
-15.7120370864868164 -3.66877961158752441 9.05165386199951172
-14.9999074935913086 5.48820781707763672 -21.1112003326416016
14.8923063278198242 -8.73990440368652344 21.3535442352294922
-1.80342376232147217 8.94012069702148438 42.4080581665039062
3.35145139694213867 -23.2868976593017578 -7.77626228332519531
-12.3550090789794922 -21.1655235290527344 -15.9161691665649414
-1.55565810203552246 -12.8828706741333008 45.4561347961425781
-11.7200403213500977 -15.9311370849609375 -36.0220947265625
-16.8611030578613281 -11.3730859756469727 15.704777717590332
-16.2561817169189453 -2.2121729850769043 2.31630587577819824
-12.6004018783569336 18.9595947265625 -19.7796745300292969
15.340723991394043 -6.59864711761474609 17.8939094543457031
-15.8819465637207031 -3.95221114158630371 3.33061337471008301
5.80073928833007812 -22.2583694458007812 -35.9670639038085938
-10.2317361831665039 15.9340314865112305 37.945343017578125
-14.5114755630493164 7.4900507926940918 13.1795425415039062
8.34592056274414062 14.0519628524780273 34.868133544921875
12.4839382171630859 12.163203239440918 20.1270885467529297
-10.2924022674560547 21.0903072357177734 30.5157699584960938
15.5635147094726562 -8.99613666534423828 -27.6635818481445312
-2.65928983688354492 12.9568567276000977 40.1331558227539062
-10.095123291015625 22.4195709228515625 -2.8949887752532959
16.4174137115478516 3.82488679885864258 5.21905279159545898
-1.92961716651916504 17.9568405151367188 -40.9382362365722656
7.83872175216674805 -18.0904960632324219 35.7831611633300781
-16.0255279541015625 0.0936789140105247498 27.0903091430664062
-14.242548942565918 2.76691031455993652 43.37652587890625
15.9479131698608398 -9.66408824920654297 -22.7452125549316406
-13.3379087448120117 -22.583038330078125 14.8953657150268555
-14.9310998916625977 11.1786689758300781 6.89223623275756836
15.2177333831787109 6.8917078971862793 -18.2707328796386719
15.5918254852294922 -8.61517906188964844 29.7130813598632812
-5.11349582672119141 -18.8307304382324219 40.4995269775390625
-14.9791879653930664 11.4233970642089844 18.8179798126220703
-15.7310075759887695 3.63208937644958496 2.43069100379943848
7.80062103271484375 -21.4538116455078125 31.5988674163818359
-16.6472835540771484 -15.9399986267089844 11.2020101547241211
-14.6806316375732422 10.7497930526733398 -21.0956039428710938
-2.53779411315917969 21.9169158935546875 -14.3188190460205078
10.4033517837524414 -17.1812000274658203 -35.9434013366699219
9.82351112365722656 -3.59623837471008301 -41.4597396850585938
6.80799198150634766 17.8295536041259766 12.4722690582275391
1.35492169857025146 19.7469825744628906 15.7242336273193359
-2.32561206817626953 23.7125892639160156 -15.1719532012939453
8.22859573364257812 2.68970632553100586 39.1923751831054688
5.30435752868652344 8.37580776214599609 -42.8940162658691406
15.6751928329467773 3.8315279483795166 -17.8422012329101562
-16.6244029998779297 -4.27655410766601562 -17.7939929962158203
-13.071537971496582 17.1396903991699219 2.63826274871826172
-14.0945940017700195 6.11651611328125 29.8589954376220703
-14.0695743560791016 -13.5396251678466797 38.5765228271484375
5.79785823822021484 -23.4480361938476562 29.3462982177734375
-10.2263622283935547 12.3890113830566406 38.9801597595214844
-1.22952866554260254 2.32087111473083496 46.7286491394042969
-14.7089700698852539 10.4997835159301758 -16.6373386383056641
-9.87914466857910156 -23.5142364501953125 -12.9613962173461914
0.252061009407043457 26.0958538055419922 -19.9780654907226562
8.94368457794189453 9.70992279052734375 -31.9518966674804688
9.88541984558105469 19.6115360260009766 -21.4961128234863281
-7.83662891387939453 -15.3819379806518555 -38.1062355041503906
13.4591693878173828 -9.89400386810302734 -14.965235710144043
-16.4695110321044922 -8.06893539428710938 16.3302440643310547
17.1725177764892578 -3.2249302864074707 6.0957341194152832
11.2650871276855469 13.0388784408569336 -2.49655652046203613
-14.5771579742431641 -20.8318080902099609 11.9541530609130859
-10.0031681060791016 20.0174674987792969 -34.1528205871582031
-10.8676815032958984 21.9585323333740234 -2.20155215263366699
-16.6464767456054688 -9.13897514343261719 5.57916975021362305
-9.33051776885986328 -11.2425699234008789 -40.4072074890136719
-16.3167514801025391 -5.59759235382080078 -24.5087547302246094
15.1057024002075195 -1.42806053161621094 36.0197181701660156
14.4121198654174805 12.2235422134399414 -27.8006381988525391
-1.47146177291870117 -26.1489677429199219 19.5006332397460938
-9.58723258972167969 20.3001289367675781 25.9523639678955078
11.8466567993164062 11.9552240371704102 10.0992832183837891
-14.4180984497070312 -19.5365638732910156 -14.2235898971557617
11.5124301910400391 -4.41284465789794922 -36.1215972900390625
-15.3091793060302734 7.07558679580688477 -1.18364846706390381
15.6744890213012695 -6.12846946716308594 10.0732622146606445
-9.83507442474365234 -20.3460178375244141 -33.0605545043945312
-8.88584232330322266 22.316162109375 3.62250900268554688
-1.6264420747756958 -14.5001668930053711 44.4242668151855469
14.8693828582763672 10.5288972854614258 -5.78438949584960938
-7.70970773696899414 -18.4480323791503906 -35.9937820434570312
-11.474156379699707 -20.4685535430908203 -31.4705657958984375
2.308685302734375 -23.9566326141357422 1.14328277111053467
-14.2900495529174805 14.0706949234008789 -27.4986076354980469
13.0441141128540039 6.56984281539916992 13.6099014282226562
-15.8497018814086914 2.81212711334228516 -0.587229549884796143
-4.16220808029174805 -25.8592376708984375 11.042180061340332
6.14316272735595703 17.1671276092529297 29.6327629089355469
5.58154678344726562 -23.4807491302490234 17.0921497344970703
18.1018199920654297 -3.9105980396270752 -23.5886268615722656
9.87779712677001953 4.07753276824951172 -40.2482032775878906
17.8901538848876953 -4.17572593688964844 -20.2128067016601562
-0.346097260713577271 23.833251953125 9.62720298767089844
5.62992668151855469 19.1780891418457031 31.5499992370605469
-14.7620296478271484 13.6341972351074219 5.33427953720092773
3.28097367286682129 -25.1745033264160156 24.4423236846923828
-15.1568508148193359 -14.4505023956298828 33.3087730407714844
17.1900005340576172 -6.11836004257202148 -19.0314102172851562
-7.9599456787109375 5.84780502319335938 47.1274833679199219
17.6940517425537109 3.01145839691162109 -7.81888818740844727
-13.1027698516845703 -3.78612160682678223 -38.6416282653808594
7.91237306594848633 11.371424674987793 -32.1917572021484375
7.05183887481689453 14.2902545928955078 27.0732917785644531
12.7189197540283203 -10.737396240234375 -13.8914194107055664
6.46384048461914062 -22.563690185546875 11.6948633193969727
2.97064661979675293 20.1713905334472656 13.1230030059814453
4.91832542419433594 -3.01041054725646973 -43.2069816589355469
2.18744421005249023 13.2897024154663086 -42.710052490234375
9.29106712341308594 17.6267185211181641 18.8019065856933594
-14.6310596466064453 11.7120676040649414 33.0576744079589844
-15.2377300262451172 -11.8677997589111328 33.4790573120117188
-3.20764923095703125 17.9441108703613281 39.8037147521972656
-15.3056821823120117 -6.42232656478881836 35.9549179077148438
13.0423545837402344 -13.2283859252929688 36.5732955932617188
-14.2477941513061523 9.26552391052246094 11.0998163223266602
-17.1323966979980469 -12.3718118667602539 0.0209539327770471573
4.91817712783813477 19.8763351440429688 32.5676803588867188
-17.0689868927001953 -15.0019216537475586 -0.878022730350494385
-15.6334095001220703 -5.09939956665039062 -3.08035063743591309
-12.3396997451782227 -20.2326393127441406 -25.6690807342529297
-14.7729272842407227 9.10441112518310547 24.4574813842773438
0.0267684012651443481 21.5184059143066406 30.7396202087402344
-7.60865497589111328 -12.368901252746582 -40.5378646850585938
6.22847223281860352 -22.9854755401611328 30.1144580841064453
15.7784061431884766 10.1340312957763672 -24.7258434295654297
-16.9929065704345703 -6.69813966751098633 -8.10284805297851562
-14.8371257781982422 14.1295337677001953 7.86717462539672852
-15.0617036819458008 6.80493450164794922 5.51723432540893555
12.780787467956543 9.14902114868164062 14.0587253570556641
2.18311548233032227 18.7513027191162109 -39.5980644226074219
2.20609593391418457 -24.0297641754150391 -4.54160022735595703
-6.78662347793579102 2.22230100631713867 -44.5755500793457031
-11.6301851272583008 19.8308010101318359 33.649383544921875
9.87667942047119141 8.68583393096923828 28.1237468719482422
-9.68850994110107422 -25.1419239044189453 26.9231777191162109
-14.4248952865600586 13.1479043960571289 -31.8438968658447266
8.75961971282958984 18.7660274505615234 -29.1257190704345703
-1.20531547069549561 25.7474937438964844 -17.6857662200927734
15.3992271423339844 10.1594686508178711 -27.9137020111083984
-13.1175603866577148 -18.5019474029541016 -32.4694900512695312
5.41098690032958984 23.2370986938476562 -7.25650501251220703
-16.1702938079833984 -7.30060195922851562 15.1712236404418945
11.8255119323730469 -1.34593439102172852 -29.8521881103515625
3.17127490043640137 18.2977581024169922 -33.2208099365234375
5.31179141998291016 -22.27069091796875 -23.6312465667724609
8.15052509307861328 21.1628952026367188 -5.68903017044067383
-0.212333738803863525 -25.8750476837158203 17.3883895874023438
12.3037662506103516 9.32448577880859375 -16.6240863800048828
-14.5108470916748047 8.36702919006347656 20.2234992980957031
0.780194878578186035 -25.8387489318847656 29.7944679260253906
-9.65041065216064453 15.4426984786987305 38.512237548828125
14.8229455947875977 -3.59524035453796387 12.9964609146118164
-2.04951262474060059 -25.5938529968261719 30.8780612945556641
2.37724542617797852 -19.3463211059570312 35.3361091613769531
12.3141937255859375 2.453033447265625 39.0634574890136719
5.58832073211669922 -14.9397764205932617 -41.7640724182128906
-14.5514335632324219 12.4721822738647461 -5.58719730377197266
-16.1010570526123047 -1.55294990539550781 5.78904581069946289
-3.04749393463134766 -23.4515342712402344 -18.4855384826660156
17.7880687713623047 2.74929046630859375 -21.25848388671875
15.9953804016113281 2.20749402046203613 18.8186893463134766
12.5263347625732422 -5.39270877838134766 -28.4189720153808594
7.8264312744140625 16.3967132568359375 30.484161376953125
3.38594412803649902 20.1797885894775391 -14.5849008560180664
9.7098388671875 6.94610881805419922 -35.8908920288085938
9.18926715850830078 20.5398502349853516 -11.8706808090209961
6.66226100921630859 9.70399284362792969 -41.60302734375
3.25136303901672363 -23.1854343414306641 -21.1541461944580078
-11.7336111068725586 -23.5879116058349609 12.1798524856567383
7.30177545547485352 19.2534008026123047 -29.4146919250488281
6.23864126205444336 -22.8565845489501953 13.6459903717041016
-16.8145694732666016 -4.02231836318969727 -29.5192928314208984
15.4802541732788086 -9.98645496368408203 3.10807418823242188
-14.7555475234985352 10.5505084991455078 0.113144725561141968
1.97993814945220947 -16.8822040557861328 40.14813232421875
-13.1658487319946289 18.3643913269042969 -14.74188232421875
-0.0522626042366027832 -7.25803613662719727 -43.5881996154785156
-13.599609375 15.4854755401611328 15.6115999221801758
17.8114891052246094 -2.63648796081542969 -10.2508745193481445
-6.62067461013793945 20.8350200653076172 0.398079961538314819
10.3249359130859375 14.7307395935058594 -2.60317826271057129
-11.8973264694213867 16.9199047088623047 13.9918050765991211
3.35382962226867676 -15.7977056503295898 38.9328727722167969
-2.51682877540588379 -26.3453006744384766 25.7995548248291016
14.1543073654174805 -10.6364078521728516 17.5148258209228516
-14.5970535278320312 12.1835479736328125 -28.830169677734375
9.46456336975097656 20.23724365234375 -24.139556884765625
-12.8261632919311523 15.1074972152709961 25.2167873382568359
11.8948450088500977 16.4347705841064453 -11.1653146743774414
-14.3055229187011719 14.7879543304443359 -28.2676563262939453
2.81708908081054688 18.3243236541748047 29.0725746154785156
10.9139223098754883 -7.2783050537109375 -33.097625732421875
-17.7128582000732422 -13.2209768295288086 -17.9111766815185547
-15.8447666168212891 1.2360767126083374 -24.4510211944580078
-0.521107673645019531 24.4716110229492188 -32.8417205810546875
16.2292575836181641 -8.49530506134033203 -4.74266529083251953
0.927157938480377197 20.4022369384765625 -28.1853046417236328
-4.5494685173034668 -25.5858879089355469 30.5153522491455078
-9.93556404113769531 7.76135015487670898 -42.4119453430175781
3.53400683403015137 23.7112331390380859 8.53907585144042969
-0.879057824611663818 -23.6649627685546875 -21.5183753967285156
13.9765405654907227 -11.6180820465087891 14.3141918182373047
7.86649179458618164 -21.4661521911621094 23.8673152923583984
5.41510534286499023 6.57999324798583984 -43.2649688720703125
12.717254638671875 -13.2330312728881836 -18.3780136108398438
7.86095714569091797 -21.1389026641845703 15.2807960510253906
-10.6578130722045898 21.7339649200439453 21.4942741394042969
-12.3912620544433594 18.7025318145751953 16.4236106872558594
-3.04273891448974609 -17.3904342651367188 -37.9631538391113281
-15.4252710342407227 -5.39948225021362305 13.9788150787353516
-10.3260211944580078 -23.8267765045166016 -1.71169757843017578
5.48810100555419922 -23.4146137237548828 12.696040153503418
3.69989466667175293 23.2561359405517578 -27.6490345001220703
16.826171875 2.18579649925231934 -29.0502510070800781
-16.5807933807373047 -12.0622968673706055 5.39614486694335938
3.00270390510559082 -23.2892971038818359 -33.983612060546875
-9.09893798828125 13.2254457473754883 -36.9520797729492188
9.49331855773925781 -17.4733772277832031 -38.2927513122558594
-0.688791036605834961 25.9918670654296875 -18.6085453033447266
-13.2363433837890625 -4.75159692764282227 -37.7952117919921875
10.8904743194580078 2.13642454147338867 -32.3067169189453125
-0.386076241731643677 23.3846340179443359 -11.3402910232543945
15.6811647415161133 3.98160839080810547 8.96629905700683594
-16.4542407989501953 -10.5694389343261719 26.4829521179199219
3.01130557060241699 -23.8362693786621094 -30.0638198852539062
-12.5433940887451172 23.5512256622314453 -29.3148441314697266
9.77064704895019531 10.6682538986206055 35.9350242614746094
-14.4438486099243164 11.7698659896850586 -25.4847774505615234
15.7791519165039062 -5.94168806076049805 29.1255016326904297
-12.8418350219726562 15.720393180847168 26.2435646057128906
6.27927827835083008 -20.3050785064697266 -19.7870674133300781
-7.73725652694702148 -21.0330371856689453 36.4213066101074219
-3.16175127029418945 25.9338722229003906 -29.9798069000244141
8.6086883544921875 -18.3679180145263672 -24.6561336517333984
9.61046886444091797 -19.3303279876708984 32.7788200378417969
7.31295967102050781 -22.1423892974853516 26.7983875274658203
-16.92340087890625 -12.4058065414428711 22.9221057891845703
5.29380655288696289 15.7657032012939453 39.036407470703125
18.0852737426757812 -3.80531907081604004 -26.7404022216796875
15.1596145629882812 -9.68630409240722656 -18.4930744171142578
-10.0515422821044922 -24.9302577972412109 27.3531074523925781
-15.3082752227783203 5.07165813446044922 -9.70756340026855469
-13.6292753219604492 6.81436967849731445 33.7213249206542969
-14.0395269393920898 -12.1491947174072266 42.722503662109375
15.8334245681762695 -5.48648977279663086 29.5445308685302734
-14.9921865463256836 9.58949661254882812 1.55471563339233398
-13.9867048263549805 5.61061429977416992 30.5116615295410156
9.61785888671875 18.3305301666259766 -3.80881476402282715
4.09445095062255859 -22.4818859100341797 33.6401596069335938
-2.0094907283782959 18.4274520874023438 39.8849372863769531
-13.348358154296875 -20.7272319793701172 -14.1631784439086914
11.7192087173461914 -14.665766716003418 -10.8842782974243164
9.13566112518310547 16.6873111724853516 11.8482942581176758
-1.31820201873779297 23.4932327270507812 -10.6710710525512695
-16.3144855499267578 -15.019251823425293 28.8406028747558594
12.9145145416259766 -14.8464822769165039 28.4970073699951172
-10.0389719009399414 22.4412117004394531 -14.6786823272705078
-3.0149235725402832 25.0395145416259766 -16.0004940032958984
1.95598423480987549 21.2812004089355469 -28.1170787811279297
8.99010753631591797 17.779998779296875 -14.2896203994750977
-16.2594852447509766 -15.9246711730957031 27.7976036071777344
4.38249969482421875 18.4241123199462891 37.9078903198242188
-14.7964878082275391 0.526054978370666504 43.7726898193359375
13.6142187118530273 -2.99136853218078613 38.84344482421875
-13.4483661651611328 10.7030916213989258 -34.8921928405761719
6.33751916885375977 14.0549793243408203 -33.2960357666015625
12.2783489227294922 -13.8953819274902344 -24.4108600616455078
-15.8093957901000977 1.66225135326385498 -13.3483915328979492
-16.7619686126708984 -10.8933925628662109 21.5034217834472656
-11.6347579956054688 -12.2561321258544922 45.1067085266113281
12.8583993911743164 -13.7805109024047852 16.3919429779052734
7.40828847885131836 -19.1382083892822266 -18.5947837829589844
1.69199299812316895 20.3745594024658203 -28.1309108734130859
5.35806035995483398 15.0491018295288086 -39.1148147583007812
-17.2095222473144531 -15.0238409042358398 -26.5443382263183594
-12.2587966918945312 -18.0971755981445312 35.8570365905761719
-10.2311210632324219 22.5225334167480469 8.46553707122802734
-14.5947847366333008 11.8940153121948242 -20.3919258117675781
11.5637178421020508 -16.6692619323730469 25.8051815032958984
5.2960209846496582 14.7338485717773438 -39.5783920288085938
0.954223990440368652 23.4137859344482422 22.8277645111083984
-14.2442750930786133 15.2220592498779297 -24.8865489959716797
-10.9281301498413086 14.8902196884155273 38.2069358825683594
16.0979957580566406 5.1943049430847168 3.4733726978302002
-2.89355826377868652 -25.2636966705322266 -4.13755702972412109
10.6229972839355469 -15.538792610168457 -26.2360038757324219
16.2042198181152344 -2.84025335311889648 17.1672706604003906
-14.4485054016113281 -20.5687694549560547 5.63501405715942383
10.1729545593261719 -18.6859111785888672 28.5820045471191406
-2.73774313926696777 25.8088016510009766 -30.4007015228271484
-4.76780891418457031 22.8949069976806641 25.2818584442138672
2.17978715896606445 -23.6315956115722656 -14.7446918487548828
8.24586963653564453 -19.7823905944824219 -9.98338603973388672
-17.2167758941650391 -8.95495510101318359 -7.84194707870483398
6.62502765655517578 17.7786941528320312 -29.7031021118164062
2.72801733016967773 -1.53271210193634033 -44.184112548828125
-15.0785608291625977 5.55706787109375 -28.7473716735839844
-16.9053783416748047 -13.9937543869018555 -30.7026405334472656
-13.9376182556152344 12.0047082901000977 -21.34368896484375
-16.3407268524169922 -15.5286121368408203 28.0591411590576172
-14.2619819641113281 -19.3917350769042969 -22.7580776214599609
-10.5455131530761719 -18.5205078125 -34.6320915222167969
4.65488338470458984 2.56870341300964355 -43.5677719116210938
-7.35856962203979492 -22.4247169494628906 -23.0620632171630859
-0.737400412559509277 23.4792098999023438 11.6516904830932617
-0.845719814300537109 -24.4283485412597656 -11.3445606231689453
7.40272188186645508 3.61564826965332031 -43.026153564453125
4.43709182739257812 8.57695960998535156 -43.1251678466796875
0.0836952030658721924 -14.6913928985595703 -39.8862228393554688
-8.42162704467773438 -18.1366310119628906 -35.9669151306152344
-14.7817306518554688 10.0428037643432617 20.6606273651123047
-12.6723003387451172 -20.4366950988769531 -28.7931385040283203
-16.5468978881835938 -16.1953792572021484 9.19832992553710938
-4.08286714553833008 23.6770820617675781 18.3395938873291016
17.6139564514160156 3.64572811126708984 -8.96724605560302734
-16.6155681610107422 -16.5754470825195312 14.1463279724121094
-17.5027790069580078 -11.8247346878051758 -30.759307861328125
-0.928452432155609131 -8.16127967834472656 47.5443305969238281
-15.9151124954223633 -0.894076347351074219 -8.2949676513671875
-9.91837406158447266 25.4373149871826172 -33.2810325622558594
6.09079504013061523 -6.74273061752319336 40.8331680297851562
-16.2469940185546875 0.655325710773468018 10.3323812484741211
-10.1612138748168945 20.8313884735107422 -0.166928604245185852
1.87523794174194336 -15.5705900192260742 -37.6508903503417969
14.0382270812988281 5.1111602783203125 -14.8598747253417969
0.353629827499389648 21.6606178283691406 -30.5576877593994141
11.8169364929199219 13.2627782821655273 20.3906669616699219
-8.10187149047851562 -22.9281406402587891 -25.5466842651367188
14.517669677734375 -9.18395900726318359 15.1961565017700195
-17.1167984008789062 -4.6323246955871582 -33.2459335327148438
6.52742719650268555 -19.5561161041259766 -39.0085220336914062
-5.29018402099609375 -25.2841892242431641 0.774187445640563965
-3.54465866088867188 22.6517372131347656 -4.10217380523681641
-11.5070362091064453 7.65903377532958984 -37.5400466918945312
-16.0618000030517578 1.10250997543334961 5.82025861740112305
-13.4330835342407227 17.3959197998046875 -8.96743106842041016
1.38611042499542236 18.0306415557861328 39.7557716369628906
17.1429195404052734 -4.73400115966796875 4.53514623641967773
-17.269287109375 -9.08270645141601562 -33.1983489990234375
8.04040431976318359 -8.10631465911865234 -42.8245162963867188
-9.0839691162109375 -16.8622856140136719 41.880615234375
7.92655324935913086 -20.2992687225341797 -7.45505857467651367
14.5439071655273438 -8.88372516632080078 26.7368011474609375
12.5370922088623047 -12.8986854553222656 -11.9389533996582031
10.5331802368164062 -3.2312171459197998 39.0599441528320312
14.4397268295288086 -4.96694850921630859 26.1561927795410156
11.485112190246582 -2.18881130218505859 -36.6117172241210938
-3.76403212547302246 -16.8302173614501953 -38.4020423889160156
-14.6757011413574219 11.6780929565429688 -4.96562385559082031
8.13776302337646484 17.1445121765136719 -2.56625676155090332
-14.335667610168457 17.0238208770751953 -2.52825784683227539
18.1283512115478516 -1.04785633087158203 -20.5142555236816406
-15.5844306945800781 3.57765436172485352 7.72282743453979492
6.28532314300537109 8.97476100921630859 -42.2999420166015625
3.96623444557189941 -22.9436454772949219 33.2895545959472656
-3.60691380500793457 10.0696277618408203 -43.8533172607421875
-5.15559101104736328 9.16473674774169922 43.5816802978515625
-8.94353294372558594 19.8677444458007812 28.0210914611816406
1.21231746673583984 3.5107276439666748 45.0615615844726562
-4.96774196624755859 4.97201347351074219 -45.0563774108886719
14.3651933670043945 6.81154155731201172 23.3245639801025391
9.11120986938476562 -8.41317844390869141 37.915740966796875
-3.10256862640380859 7.86368799209594727 44.841217041015625
17.7358322143554688 -2.46623992919921875 -5.5920867919921875
13.4623737335205078 -12.4068536758422852 17.0269088745117188
14.3072443008422852 -11.9036846160888672 3.63878297805786133
9.74674224853515625 -18.8542041778564453 17.6968345642089844
-2.04803943634033203 -10.6114702224731445 -42.4730796813964844
-16.1846981048583984 0.854726076126098633 14.985076904296875
5.83930397033691406 -21.6966266632080078 -25.4723930358886719
-1.07355260848999023 7.8107762336730957 -44.4576835632324219
-14.4295110702514648 12.1821308135986328 9.93967533111572266
-9.659210205078125 22.2252521514892578 11.6857976913452148
-14.5736904144287109 3.95224809646606445 32.5883636474609375
7.16549873352050781 -8.94994068145751953 38.8424415588378906
-16.9584026336669922 -14.1405858993530273 24.4097900390625
2.92016434669494629 -23.7045459747314453 -29.4293766021728516
-3.33464336395263672 -17.3302268981933594 42.233367919921875
2.93760132789611816 13.9360189437866211 40.6281242370605469
-6.32747650146484375 24.336883544921875 -14.9871749877929688
18.0899257659912109 -4.18937015533447266 -24.0827617645263672
0.350637137889862061 -26.0795726776123047 27.6554660797119141
-11.0673971176147461 20.1985397338867188 -21.5581855773925781
8.00970363616943359 -19.2931499481201172 -23.1669216156005859
13.1664514541625977 10.1508274078369141 -18.4773769378662109
-17.4449863433837891 -15.0988597869873047 -17.2299537658691406
0.104973480105400085 21.3274593353271484 -38.7181968688964844
5.60800838470458984 21.8811206817626953 20.4874553680419922
-17.4362907409667969 -7.8029789924621582 -23.2501850128173828
15.8284225463867188 -9.18617057800292969 -8.17221832275390625
-5.18658876419067383 -17.9342193603515625 -37.2079887390136719
6.12415456771850586 3.12990617752075195 39.2360267639160156
-7.66180324554443359 -4.23081636428833008 48.8528289794921875
-7.60163354873657227 20.7870273590087891 13.8346834182739258
13.7102985382080078 -13.5417499542236328 28.5092124938964844
-10.7052202224731445 -21.8339138031005859 -18.6706295013427734
1.0091712474822998 -24.5845184326171875 -1.2285149097442627
-17.6353988647460938 -12.738957405090332 -12.0300216674804688
-15.4248065948486328 -18.6701412200927734 3.2616732120513916
-16.1865787506103516 -0.424826830625534058 -0.37862434983253479
-11.615077018737793 20.2726039886474609 24.0895462036132812
-14.23828125 12.0274658203125 -12.3785209655761719
1.15066874027252197 -25.8342399597167969 24.3877639770507812
7.22959327697753906 -19.4391021728515625 -17.2457466125488281
-13.2123270034790039 -4.18911266326904297 -39.3069572448730469
-15.6912240982055664 -1.3693087100982666 -10.1693754196166992
-16.0275974273681641 -4.01575183868408203 -11.4398269653320312
-13.8236875534057617 -20.8255119323730469 -9.51867198944091797
13.8091068267822266 -11.0314416885375977 -0.798225641250610352
7.56576919555664062 3.99626064300537109 -42.9090194702148438
-7.72710514068603516 15.6822872161865234 -34.3198699951171875
-11.4484834671020508 -23.7996082305908203 12.4306201934814453
-12.3832111358642578 -23.3594074249267578 28.7485141754150391
-14.4587345123291016 13.2837924957275391 -29.1022224426269531
-15.8055057525634766 -1.83660078048706055 -20.6756401062011719
17.3052825927734375 -4.08630228042602539 3.73519372940063477
0.262601852416992188 -23.7148799896240234 -29.7638263702392578
-0.427623450756072998 16.2622642517089844 40.5401535034179688
-7.25051355361938477 26.0184688568115234 -34.3906478881835938
-13.8085126876831055 17.1620731353759766 -8.66869831085205078
-5.33984756469726562 -25.7040290832519531 10.0344486236572266
17.4489936828613281 -2.87681818008422852 3.69723010063171387
3.83103799819946289 -10.0316581726074219 43.9206581115722656
-16.7512226104736328 -10.7272005081176758 18.9247455596923828
2.26697850227355957 -21.3458709716796875 34.0666732788085938
-14.3305234909057617 5.98198938369750977 21.7068843841552734
2.60284042358398438 9.58774375915527344 -43.1775360107421875
-4.85443544387817383 5.09139823913574219 47.86871337890625
-13.4594812393188477 13.6856327056884766 24.5938529968261719
-10.6841716766357422 22.2318496704101562 -34.51715087890625
-3.47377300262451172 -25.8381366729736328 11.3398571014404297
-12.6414804458618164 -16.4916553497314453 -34.9493446350097656
11.3562259674072266 6.64896345138549805 37.0896530151367188
-14.6758222579956055 -18.5186481475830078 -28.5391979217529297
13.7047872543334961 -12.2580327987670898 14.0290908813476562
-16.1338329315185547 0.890690505504608154 2.05809378623962402
14.7856893539428711 -8.77753543853759766 19.6098957061767578
-2.32637810707092285 12.2293787002563477 -42.618377685546875
14.1577444076538086 -12.4388427734375 34.185333251953125
-16.0360507965087891 -16.3067855834960938 29.2527217864990234
-6.17330503463745117 21.9204654693603516 30.7381038665771484
7.21988248825073242 22.0095996856689453 7.19950580596923828
4.78773641586303711 20.0729846954345703 15.4354143142700195
-11.1070194244384766 -23.4297294616699219 1.1898338794708252
16.2762069702148438 -9.23437213897705078 -23.5637702941894531
17.7627925872802734 2.53079533576965332 -8.85013484954833984
16.1500511169433594 -1.69238054752349854 15.2114353179931641
14.7866363525390625 -9.97760581970214844 35.862152099609375
-14.6651649475097656 9.35530567169189453 -22.1433486938476562
-11.7754478454589844 -7.26000118255615234 -40.8973236083984375
17.6251296997070312 -3.71797990798950195 -28.0017375946044922
12.1666135787963867 -14.0732841491699219 -20.0463199615478516
4.56640911102294922 21.9065284729003906 16.3163433074951172
-3.96473383903503418 14.9118757247924805 -38.7096710205078125
-10.2447118759155273 -21.31158447265625 -31.2449092864990234
5.19026613235473633 -14.789219856262207 36.9547500610351562
-15.5079174041748047 -5.45763301849365234 6.25327110290527344
-16.5231819152832031 -9.97477054595947266 14.1961908340454102
8.22140121459960938 -20.3179111480712891 -3.2693021297454834
-3.21731829643249512 -18.826141357421875 -36.3098106384277344
7.49567747116088867 -20.6456222534179688 -27.1046390533447266
12.8384151458740234 3.74741911888122559 36.7780075073242188
-15.1496610641479492 4.42508649826049805 -29.0602455139160156
5.87713336944580078 23.1046295166015625 -7.41363143920898438
2.42134928703308105 23.1144847869873047 17.7548694610595703
-12.8121919631958008 -23.2182464599609375 22.2790184020996094
-17.0914382934570312 -13.6692104339599609 -29.7594547271728516
-5.60230493545532227 3.1780855655670166 -44.906829833984375
-15.4335918426513672 -4.07450675964355469 34.7230491638183594
9.35761833190917969 -16.7103176116943359 -39.1808891296386719
-12.3052597045898438 19.1184635162353516 -16.4706077575683594
-3.53783798217773438 -25.5512561798095703 7.25072574615478516
-17.4976711273193359 -6.34258651733398438 -31.4011478424072266
-4.43570470809936523 -22.6264896392822266 -31.7562503814697266
15.3088493347167969 -10.4099311828613281 -23.4485073089599609
16.78448486328125 -6.86472749710083008 -2.97857141494750977
4.53926944732666016 22.0055961608886719 1.81413137912750244
0.994235515594482422 -25.6331920623779297 17.1384983062744141
-15.0060138702392578 0.82166522741317749 -36.5252494812011719
-14.5776071548461914 9.3969573974609375 -18.1073169708251953
-3.64332294464111328 1.08162987232208252 47.9597854614257812
-14.7391223907470703 5.95070981979370117 16.3985385894775391
4.45187950134277344 17.3154850006103516 -30.4029045104980469
7.98993349075317383 -7.99122524261474609 -42.8357696533203125
-6.17377805709838867 5.83586215972900391 -44.6678962707519531
-6.12535715103149414 -26.0916576385498047 26.1012344360351562
14.6503696441650391 -9.22214031219482422 20.2308616638183594
-8.69101333618164062 18.2623958587646484 14.5572090148925781
13.6715221405029297 -11.983738899230957 22.9208354949951172
5.06722402572631836 23.4628620147705078 6.39095783233642578
16.6344451904296875 7.97017335891723633 -23.0841464996337891
7.26455402374267578 -18.3383998870849609 35.5629234313964844
-11.2048559188842773 22.1770133972167969 -3.68486237525939941
17.7042827606201172 -2.76831412315368652 -12.6700553894042969
-1.61136794090270996 17.4441280364990234 -41.1584968566894531
17.0695075988769531 2.70370268821716309 0.837939023971557617
3.16056180000305176 15.6107769012451172 -41.4764251708984375
-6.52799081802368164 -23.4940738677978516 -20.9161109924316406
-7.19495534896850586 -19.1260108947753906 38.380615234375
11.9315004348754883 -0.816942036151885986 39.5983924865722656
2.18007445335388184 -24.0822010040283203 -1.18232429027557373
-3.60203027725219727 10.0172910690307617 43.08074951171875
-14.8294000625610352 6.29120111465454102 -36.1873512268066406
-16.3980636596679688 -17.2537021636962891 25.3967971801757812
15.7918643951416016 -6.28967714309692383 29.4065189361572266
-2.19642806053161621 23.9611320495605469 21.4002952575683594
1.97276484966278076 13.7966337203979492 40.2966079711914062
-14.5330791473388672 1.94039809703826904 39.0176925659179688
-14.8556509017944336 0.763122081756591797 34.5526771545410156
-2.98488521575927734 22.4785938262939453 16.5772304534912109
13.6237058639526367 -13.850799560546875 30.5289173126220703
5.65112018585205078 21.9238548278808594 16.9372653961181641
-11.6140661239624023 9.06380176544189453 -38.2737274169921875
-17.5152778625488281 -6.31973123550415039 -31.6487865447998047
-12.6076564788818359 18.0926322937011719 0.498939782381057739
-0.472638487815856934 18.1949024200439453 39.8855514526367188
14.0020208358764648 5.34510898590087891 29.4424953460693359
-2.74345493316650391 7.42765045166015625 45.0577011108398438
7.2450408935546875 -19.4263343811035156 -25.2038860321044922
-13.3375644683837891 21.2163257598876953 -30.7834262847900391
-15.7711248397827148 -3.18715405464172363 7.76492691040039062
2.43528223037719727 -24.4951419830322266 11.7824087142944336
7.91542482376098633 0.105291366577148438 38.3668937683105469
8.09767436981201172 -17.0949573516845703 36.166473388671875
13.7021245956420898 4.52850961685180664 11.9139957427978516
-15.9989604949951172 -9.76658821105957031 25.5667972564697266
-8.55340385437011719 13.0990695953369141 39.3644027709960938
-5.0985417366027832 22.5782413482666016 32.7737159729003906
14.1914186477661133 -6.52715969085693359 -28.7295055389404297
10.8114509582519531 -15.1058664321899414 -34.9618606567382812
6.40205812454223633 22.8288192749023438 -10.5188274383544922
-17.7514381408691406 -12.628840446472168 -14.8259248733520508
-14.0988445281982422 14.4068698883056641 11.6582441329956055
16.0891742706298828 -6.78539562225341797 -0.426941066980361938
-16.7974300384521484 -6.74933242797851562 -5.32647037506103516
14.2313270568847656 -2.50783276557922363 -29.1192340850830078
16.3861351013183594 -0.618297278881072998 -0.900867164134979248
-14.8729715347290039 10.0460224151611328 -3.16387128829956055
10.5414295196533203 15.829132080078125 15.4327201843261719
15.5713987350463867 3.34413456916809082 22.3310146331787109
-15.9926776885986328 -2.74034261703491211 28.2652912139892578
-9.53534126281738281 -25.2497100830078125 22.1368255615234375
-16.0951213836669922 -7.72790193557739258 22.9027023315429688
-7.48108434677124023 23.0993862152099609 -9.71021175384521484
-8.96353054046630859 20.9723949432373047 35.9762420654296875
-3.4756472110748291 25.6505794525146484 -28.9884967803955078
-14.5782203674316406 9.46031570434570312 -19.18707275390625
-6.70139884948730469 -26.0268173217773438 22.8552913665771484
15.4236030578613281 -10.0202875137329102 -5.76887702941894531
-7.39460849761962891 23.0251083374023438 -13.8513984680175781
17.4680328369140625 -4.77127790451049805 -6.60883569717407227
-7.00239419937133789 0.778726398944854736 49.0296630859375
-9.69269657135009766 8.02997303009033203 43.8859024047851562
-16.2393093109130859 -7.8770899772644043 17.4535465240478516
8.52324867248535156 -19.5477981567382812 -9.81172943115234375
-15.3043355941772461 -1.46963047981262207 38.0094566345214844
2.79991388320922852 -25.2633457183837891 22.0213127136230469
14.0109243392944336 7.66033697128295898 23.6105213165283203
-12.745326042175293 19.6837062835693359 11.8387660980224609
16.5580463409423828 7.0356287956237793 -4.81075525283813477
9.17156410217285156 -19.1168537139892578 7.98400211334228516
-15.7761812210083008 1.22685563564300537 -22.7817325592041016
14.5259265899658203 11.4073867797851562 -12.229121208190918
10.7482624053955078 3.17074847221374512 -36.0412101745605469
13.027949333190918 -12.7249479293823242 -10.5563821792602539
-13.0469551086425781 19.7354927062988281 20.2154941558837891
0.473388582468032837 21.8901443481445312 -1.7863774299621582
-16.7922611236572266 -5.56187677383422852 -8.77188014984130859
-1.78417670726776123 -23.3600711822509766 -22.8012351989746094
-17.4269180297851562 -8.28650760650634766 -21.9721832275390625
-16.0517082214355469 0.949893653392791748 -3.4517979621887207
-0.123574830591678619 15.1285676956176758 40.19000244140625
1.20173430442810059 -7.69904232025146484 -43.2752418518066406
2.26185488700866699 -24.3474788665771484 4.03430271148681641
6.71474266052246094 -19.1779899597167969 -15.7541913986206055
17.89178466796875 -5.3670496940612793 -24.6012153625488281
1.82195210456848145 21.3857231140136719 -35.3314933776855469
13.4943819046020508 -13.0736417770385742 5.33966779708862305
-10.6825180053710938 22.0242214202880859 10.8181705474853516
-15.2776727676391602 -4.94383478164672852 -0.178080037236213684
14.6302576065063477 -11.9729280471801758 30.8111667633056641
-9.71509456634521484 -21.9740810394287109 -26.8850612640380859
16.6751956939697266 -7.04471921920776367 2.23136377334594727
