ply
format ascii 1.0
element vertex 783
comment vertices
property float x
property float y
property float z
end_header
16.5470771789550781 -7.25959014892578125 -25.9004974365234375
5.32706832885742188 15.5139656066894531 -56.9864997863769531
9.73247146606445312 -15.7832269668579102 -1.89188671112060547
5.35221767425537109 8.80732154846191406 61.1773796081542969
-4.75809192657470703 17.5656318664550781 25.3478183746337891
21.4565010070800781 -3.922637939453125 27.9650211334228516
1.50207901000976562 17.1595344543457031 39.087921142578125
-15.6459178924560547 8.25726222991943359 49.9710502624511719
19.9080314636230469 -7.36358547210693359 33.9951133728027344
16.6629562377929688 -11.2291812896728516 22.5408592224121094
22.6241931915283203 1.31571531295776367 50.20843505859375
11.7709875106811523 -12.7640218734741211 -43.2727279663085938
-19.01031494140625 -5.74968385696411133 36.8988227844238281
20.7662544250488281 -4.58516502380371094 -41.93804931640625
21.3576335906982422 6.8126068115234375 15.5826559066772461
4.33831977844238281 -17.6352081298828125 31.5958232879638672
1.04804337024688721 -17.6088752746582031 14.1202783584594727
16.6205406188964844 12.6762580871582031 8.566070556640625
-15.8312854766845703 11.0918083190917969 16.7647914886474609
13.7892885208129883 -12.9347324371337891 -36.1339340209960938
-16.8802146911621094 -4.29624271392822266 -56.800262451171875
-11.0229511260986328 -0.350055307149887085 -62.0513687133789062
-15.5488481521606445 -10.7517681121826172 1.38409566879272461
-4.37534570693969727 -16.6633205413818359 2.26023745536804199
-13.2973260879516602 13.1236057281494141 -4.82198190689086914
-9.62086963653564453 15.6048984527587891 12.3445854187011719
-19.0496959686279297 -0.0284937173128128052 -23.8699798583984375
20.2472248077392578 9.62287044525146484 11.1792736053466797
19.5321025848388672 -7.30253028869628906 23.9865303039550781
-17.9616909027099609 5.72244882583618164 -47.2494621276855469
13.9290809631347656 -10.3643951416015625 -27.7974929809570312
19.4178142547607422 -9.1721343994140625 30.0651512145996094
18.4322662353515625 7.88392448425292969 49.1818962097167969
21.6131877899169922 -2.23388195037841797 -24.2155494689941406
13.2236366271972656 12.8975009918212891 50.6086044311523438
11.5862216949462891 -14.0680780410766602 -12.2464971542358398
4.36513137817382812 16.8531818389892578 -27.7267436981201172
8.97519397735595703 -16.3731899261474609 -13.2798337936401367
-3.35664534568786621 17.5782299041748047 28.6020965576171875
-14.6622838973999023 11.7600250244140625 -37.1059455871582031
18.8497905731201172 5.32272005081176758 33.1823921203613281
12.3280658721923828 17.1894588470458984 -37.4185256958007812
-17.5721282958984375 -5.96682214736938477 28.619384765625
19.1387367248535156 -2.7337033748626709 59.5234413146972656
-3.20722556114196777 18.5143604278564453 -49.8164443969726562
-12.1782464981079102 -14.9692869186401367 10.6606330871582031
18.1784019470214844 4.42606210708618164 21.3473320007324219
-2.81014251708984375 18.9968338012695312 -24.8392848968505859
4.87200498580932617 17.5437583923339844 13.6489582061767578
-17.6327018737792969 -4.74196910858154297 22.7267875671386719
-16.8619709014892578 -8.57586479187011719 -25.7360076904296875
-6.21393489837646484 -8.82262229919433594 59.7461814880371094
0.705222189426422119 16.5423774719238281 10.9185791015625
16.4313697814941406 10.2132692337036133 41.6831741333007812
4.80592536926269531 -18.1566982269287109 40.9396896362304688
-3.71324253082275391 -16.6923160552978516 -16.0945568084716797
-6.18165922164916992 -17.4603519439697266 41.0059013366699219
-5.30607843399047852 17.96990966796875 -44.0336189270019531
19.6357898712158203 11.988245964050293 -33.9379310607910156
-18.6304168701171875 4.52035427093505859 25.2277374267578125
-17.6109485626220703 5.84406709671020508 37.5226173400878906
-13.923945426940918 -10.8331003189086914 -17.9634113311767578
-18.9741191864013672 0.353198021650314331 -24.4337043762207031
-14.4968471527099609 -11.7507820129394531 19.1656570434570312
-19.2155933380126953 0.262420028448104858 -5.49536371231079102
-16.2261810302734375 -7.23331260681152344 -46.6720237731933594
2.14087581634521484 -15.9983491897583008 -35.2556610107421875
16.8949871063232422 13.7624645233154297 -9.42261791229248047
-15.5580301284790039 10.5983295440673828 19.0814132690429688
-1.68832457065582275 15.3480234146118164 50.18878173828125
-14.143193244934082 -6.78741931915283203 55.6700325012207031
-2.61551761627197266 -18.8601951599121094 30.6217899322509766
13.8829612731933594 -15.5657587051391602 50.0286445617675781
8.66968631744384766 18.1123886108398438 -42.8386764526367188
13.7914113998413086 14.0235671997070312 23.6205806732177734
-12.2767124176025391 12.6607370376586914 24.3358440399169922
-11.7197685241699219 -13.7218265533447266 -2.34541583061218262
18.5487632751464844 6.59337806701660156 22.007843017578125
14.6703577041625977 -15.2241144180297852 50.9299087524414062
-3.61396646499633789 1.73122560977935791 61.5730628967285156
23.1255970001220703 5.90592050552368164 -46.2123794555664062
3.50120067596435547 17.4398651123046875 22.9791622161865234
11.8879375457763672 -15.7613353729248047 15.274200439453125
3.94133543968200684 -15.8726787567138672 -19.8572559356689453
-17.5559043884277344 -6.00409030914306641 44.5510482788085938
3.63006281852722168 -17.2951850891113281 -6.76727056503295898
-13.4049272537231445 -9.85573768615722656 -35.5987205505371094
1.34878230094909668 18.9135074615478516 -30.1919593811035156
11.2977361679077148 -15.2518672943115234 -14.5292501449584961
7.10866403579711914 -9.48488521575927734 -60.1006584167480469
-17.7814617156982422 -6.24566888809204102 -37.3550872802734375
1.19597899913787842 17.2133865356445312 -27.4650497436523438
-15.304473876953125 10.883244514465332 -15.9947013854980469
4.4431605339050293 16.3249340057373047 26.5406761169433594
17.4145088195800781 -8.65683937072753906 -4.97134876251220703
20.6429843902587891 -4.56243133544921875 -28.9573650360107422
-1.66464388370513916 2.54096579551696777 -65.2328033447265625
16.5800323486328125 -12.8309564590454102 1.88856339454650879
-15.9387540817260742 -8.13385105133056641 -46.43927001953125
2.42423748970031738 16.8781452178955078 -7.81875038146972656
15.2124948501586914 16.4884872436523438 -50.5284309387207031
-2.96398782730102539 -17.1223888397216797 22.8616371154785156
-9.12410831451416016 -17.3928546905517578 47.7000656127929688
14.7240753173828125 -13.5933237075805664 -2.07809758186340332
-18.9593181610107422 1.17709314823150635 46.6252365112304688
-18.4761810302734375 -7.43776512145996094 35.434295654296875
4.20718145370483398 -18.5326519012451172 34.5963249206542969
-14.7507781982421875 12.1013803482055664 18.2436103820800781
1.48213315010070801 17.9660053253173828 21.6490020751953125
-17.8722019195556641 3.2246098518371582 -40.00830078125
21.3702011108398438 10.0326967239379883 -46.8236236572265625
8.46383190155029297 -15.1515874862670898 -27.7318553924560547
-16.9258327484130859 -10.0151958465576172 9.15521144866943359
-15.9816751480102539 9.92396450042724609 35.6074752807617188
11.0510177612304688 15.8841419219970703 14.4649190902709961
-0.593715667724609375 -10.8219671249389648 60.2819366455078125
-16.7731838226318359 -10.185521125793457 5.60684680938720703
-18.594451904296875 -0.393553197383880615 -19.4809894561767578
-16.6538848876953125 -5.01814174652099609 -49.4323043823242188
-11.7031288146972656 14.0707511901855469 -36.4258842468261719
23.6136455535888672 7.34056377410888672 -34.0081863403320312
-1.98170983791351318 -0.378075599670410156 61.8754844665527344
-1.93831825256347656 19.1979637145996094 -19.4034481048583984
-7.32041025161743164 -15.3909206390380859 -14.6184196472167969
-1.82983338832855225 -3.22795557975769043 61.6273078918457031
13.1893844604492188 13.7711896896362305 -57.8673782348632812
-5.11270570755004883 -16.9542064666748047 27.9836139678955078
-18.5988140106201172 4.08397150039672852 7.58795022964477539
-18.8409576416015625 0.678128898143768311 42.4265899658203125
-17.7231597900390625 0.471307277679443359 -54.8464546203613281
11.9382038116455078 -16.0777187347412109 14.6281070709228516
6.37938594818115234 -17.27337646484375 13.5030498504638672
-17.8600482940673828 -3.04139924049377441 -53.7314033508300781
10.4415922164916992 -17.6837940216064453 31.9661102294921875
-13.3371715545654297 12.55889892578125 37.3666572570800781
21.1984634399414062 1.22480213642120361 -19.9935512542724609
7.86818790435791016 18.1321125030517578 -43.0421028137207031
16.7641696929931641 14.8256616592407227 -29.8229961395263672
-13.29351806640625 -12.6508598327636719 49.2169418334960938
0.525336086750030518 15.5799064636230469 49.1722450256347656
5.82554531097412109 -15.3361759185791016 -36.3625068664550781
0.0644622594118118286 -16.4195652008056641 -20.4226207733154297
-5.29740715026855469 18.1849212646484375 -9.67978191375732422
8.6335906982421875 -9.74864006042480469 -58.0783157348632812
21.8546390533447266 2.07717275619506836 9.99405956268310547
17.5430889129638672 -7.95025968551635742 -22.5702533721923828
-9.08065032958984375 -15.7858076095581055 24.5182037353515625
17.9511737823486328 7.07488012313842773 -6.42204141616821289
-19.5954265594482422 -3.67771697044372559 -2.6005091667175293
-19.3820858001708984 -1.83436679840087891 38.2054710388183594
3.02292680740356445 -16.3419227600097656 6.75722455978393555
1.45701682567596436 -16.4952449798583984 -1.49908995628356934
5.69272899627685547 18.0523567199707031 -13.5005207061767578
21.7868862152099609 -1.85698270797729492 -49.7110099792480469
-4.34061717987060547 18.4913749694824219 -46.4792060852050781
-19.0852699279785156 -0.135916084051132202 5.74959325790405273
-18.2057743072509766 -7.24298286437988281 50.93609619140625
20.7392024993896484 12.078709602355957 -29.3338603973388672
13.7986822128295898 16.9080600738525391 -37.7577095031738281
21.5854892730712891 11.1971359252929688 -34.602325439453125
-2.62726044654846191 19.1653270721435547 -37.755584716796875
17.0276145935058594 9.5491180419921875 -1.19628381729125977
-15.5265216827392578 -9.86205768585205078 -31.7960891723632812
5.32467412948608398 13.0542736053466797 -61.4769935607910156
-2.58886218070983887 18.1242275238037109 0.667490005493164062
19.9045982360839844 13.6252641677856445 -41.4879951477050781
7.79102659225463867 -4.46909427642822266 -64.0638427734375
15.9958171844482422 11.4286432266235352 -3.49916911125183105
21.8778362274169922 -2.85564470291137695 -36.3619270324707031
-9.74533843994140625 13.5435285568237305 45.1656417846679688
10.3327236175537109 14.5584506988525391 11.5418157577514648
-8.31451892852783203 16.783935546875 -3.83843469619750977
-5.8751378059387207 17.7109413146972656 -10.4017400741577148
6.95911884307861328 -17.6917533874511719 32.5213890075683594
17.1632099151611328 -10.133880615234375 5.2758641242980957
14.6783151626586914 -13.4986457824707031 -2.6989133358001709
18.2696475982666016 -9.18358516693115234 11.3520221710205078
13.559849739074707 14.1772918701171875 23.6308383941650391
15.6279153823852539 -9.49959468841552734 57.0245933532714844
1.14628899097442627 -16.77764892578125 25.3256130218505859
14.3143653869628906 14.717289924621582 -25.6046009063720703
2.77511119842529297 -16.1532402038574219 -8.51794242858886719
21.824493408203125 9.35167026519775391 -39.9526405334472656
-19.1176223754882812 0.446417808532714844 6.53885030746459961
10.6746606826782227 11.6173896789550781 56.6189193725585938
-18.9922847747802734 0.298679590225219727 -25.0214500427246094
2.49223804473876953 16.8328437805175781 -5.68999814987182617
-4.88815736770629883 -16.0073604583740234 -22.78387451171875
3.50601077079772949 16.7476921081542969 -6.87553501129150391
21.6768150329589844 11.9767894744873047 -35.8489418029785156
-11.3978176116943359 13.3478279113769531 34.8177299499511719
15.3735437393188477 -15.2982711791992188 39.1911849975585938
-18.1876354217529297 -4.29285955429077148 -10.1414318084716797
-13.9393749237060547 9.84076499938964844 47.0022239685058594
-7.98691797256469727 -15.112666130065918 -11.3720302581787109
-18.4523830413818359 0.608407855033874512 -20.4627037048339844
-11.0861139297485352 -16.1826953887939453 20.1946334838867188
16.0185756683349609 13.0179014205932617 11.255615234375
3.38084793090820312 -17.27392578125 -7.0263361930847168
-1.36869132518768311 4.27039003372192383 62.3785476684570312
-1.71725177764892578 18.7907581329345703 -12.8096237182617188
4.94204568862915039 -16.9641647338867188 15.1641845703125
16.5047092437744141 -9.40242481231689453 -22.3085842132568359
6.50709390640258789 17.6892547607421875 2.10090017318725586
2.34623503684997559 18.7631301879882812 -48.5594139099121094
-14.3850688934326172 10.8607254028320312 -47.4917678833007812
1.58142209053039551 -0.211045846343040466 -65.8064498901367188
8.01739215850830078 14.9286317825317383 48.9074134826660156
19.2927207946777344 -3.32439804077148438 36.11767578125
22.4335346221923828 1.21275663375854492 51.552734375
15.2300024032592773 0.0528535880148410797 60.63970947265625
13.9284629821777344 -10.9860343933105469 56.577789306640625
18.3790283203125 -0.640466809272766113 32.5921287536621094
4.79985857009887695 17.5731468200683594 16.6474590301513672
-0.84424746036529541 18.9085617065429688 -41.7191658020019531
-3.52532839775085449 -18.7650127410888672 30.1561775207519531
1.6882857084274292 10.7909584045410156 59.0584526062011719
-11.3784761428833008 14.9088821411132812 0.57191091775894165
13.9791927337646484 -10.3104925155639648 -9.20709896087646484
-0.951650559902191162 18.6625328063964844 -14.1854887008666992
-16.9584693908691406 6.67141962051391602 24.1302547454833984
20.3230533599853516 12.2036628723144531 -45.3048782348632812
-18.7993240356445312 3.16767311096191406 5.8718266487121582
18.0872116088867188 -9.35037994384765625 55.0739288330078125
20.2324924468994141 -0.499745458364486694 -54.4534683227539062
-6.42081403732299805 -12.1640253067016602 -55.3397369384765625
-17.8195247650146484 6.97677898406982422 -21.9372673034667969
18.7976322174072266 9.85691070556640625 7.08138704299926758
-10.1471481323242188 12.6918458938598633 52.3543434143066406
23.2077903747558594 3.79654645919799805 -39.3588142395019531
15.2443246841430664 13.0798921585083008 -57.9200057983398438
-13.6752004623413086 1.27892172336578369 57.1413764953613281
15.2187509536743164 2.56385040283203125 -61.0339241027832031
-7.34337902069091797 17.0927314758300781 -17.2590732574462891
-7.49811649322509766 -16.3077373504638672 -2.15589737892150879
7.53719282150268555 -15.7628612518310547 53.9161491394042969
22.0452537536621094 6.10198831558227539 16.6280441284179688
-10.7335472106933594 -15.3193912506103516 23.4664840698242188
-16.3603935241699219 -7.75524091720581055 -41.9822463989257812
-13.8556671142578125 10.3484029769897461 26.6977138519287109
10.6262798309326172 -15.3675928115844727 54.6781578063964844
17.0103950500488281 11.3182697296142578 -16.3400382995605469
-4.69118976593017578 17.932586669921875 19.8869075775146484
-11.9157228469848633 -14.4965457916259766 34.5041122436523438
9.27834606170654297 14.2388381958007812 8.67092323303222656
-13.626591682434082 13.2170877456665039 16.8471488952636719
-18.6295509338378906 -3.02634000778198242 50.25811767578125
1.11208760738372803 5.43789148330688477 -66.2604598999023438
-18.9522647857666016 -6.65492105484008789 -1.20373415946960449
-17.8355636596679688 6.85301971435546875 -17.3438396453857422
-6.77086067199707031 17.3760852813720703 4.28415203094482422
14.7014484405517578 0.870660126209259033 60.8411026000976562
-16.3551902770996094 -10.5910778045654297 -9.12326908111572266
-5.08816003799438477 15.9970569610595703 43.901092529296875
-10.8738651275634766 -14.4924755096435547 -17.959503173828125
6.6892399787902832 17.4646263122558594 -2.03181648254394531
12.6316089630126953 9.06705856323242188 60.0247306823730469
8.71557331085205078 7.42222452163696289 62.4613380432128906
2.03269481658935547 9.02962303161621094 60.953704833984375
-9.67392730712890625 -12.5611581802368164 -44.7079200744628906
-5.36631584167480469 -11.9768009185791016 58.1844596862792969
-10.1604375839233398 15.5074262619018555 -2.90842938423156738
-0.152533337473869324 -16.1582908630371094 -33.4515228271484375
-13.4765233993530273 5.99992942810058594 53.9258499145507812
19.6763591766357422 -6.69509220123291016 -20.3122081756591797
-7.06632518768310547 16.6159610748291016 4.95383739471435547
10.9237232208251953 -16.2279300689697266 12.0646638870239258
-9.90035343170166016 14.4846048355102539 36.5175132751464844
3.14938926696777344 3.3293612003326416 -65.8700180053710938
18.2318572998046875 8.80217647552490234 0.726555824279785156
-10.9019927978515625 -14.6498270034790039 -13.3842124938964844
6.75936079025268555 -5.68491792678833008 -64.7323989868164062
15.657689094543457 14.5265741348266602 -13.0348539352416992
-13.9898996353149414 -13.7984800338745117 45.736663818359375
21.0767135620117188 0.242483615875244141 -3.87779021263122559
-1.45176410675048828 17.9948558807373047 -26.8549880981445312
7.31284141540527344 16.7871665954589844 -12.0784235000610352
20.6623497009277344 -2.69798493385314941 -14.6271839141845703
22.6320400238037109 8.54881191253662109 -28.5757713317871094
11.4628562927246094 -14.0901269912719727 -5.99708652496337891
-19.01141357421875 -1.73921442031860352 -23.5371856689453125
-12.3367910385131836 13.646397590637207 -23.172271728515625
-2.33634042739868164 -16.8652191162109375 -6.95011711120605469
-18.6837081909179688 4.32590293884277344 -30.1711597442626953
22.0071868896484375 -0.219155639410018921 -8.68980789184570312
-14.0695714950561523 4.79379987716674805 -59.6177597045898438
-16.9871711730957031 7.97610092163085938 -39.9936599731445312
7.73948955535888672 -14.9353961944580078 -48.8526725769042969
14.7516059875488281 10.9115514755249023 19.7146530151367188
-18.2711334228515625 -7.67951822280883789 35.3268661499023438
0.482021212577819824 -5.07871294021606445 61.3701362609863281
15.704594612121582 10.9222965240478516 51.3818778991699219
22.4488925933837891 7.37926912307739258 -49.10015869140625
-6.59542560577392578 15.5569858551025391 42.4221076965332031
-4.11517333984375 -13.8023614883422852 55.7728347778320312
17.0744571685791016 3.14560151100158691 -60.2014541625976562
-9.33074855804443359 5.54616641998291016 -64.0805587768554688
1.57590067386627197 18.2401924133300781 -40.6036720275878906
-18.0358486175537109 -7.21216344833374023 20.9272994995117188
12.7341794967651367 -16.0446224212646484 50.1024436950683594
5.96981239318847656 -16.2101154327392578 -33.7937355041503906
12.2620229721069336 8.48581886291503906 -61.1340370178222656
-17.6897449493408203 5.93903636932373047 -27.5818443298339844
-11.6029624938964844 -11.8890628814697266 -42.498046875
17.0446529388427734 11.7860441207885742 -57.9723396301269531
-3.49828219413757324 19.2573204040527344 -30.5968685150146484
20.6962547302246094 6.14864206314086914 9.41617774963378906
-1.3344275951385498 -15.3397998809814453 -42.0222587585449219
11.4171724319458008 -17.6570568084716797 37.23382568359375
18.2080974578857422 -13.1178512573242188 49.5076522827148438
-15.8880443572998047 11.2700099945068359 -2.90001940727233887
-18.8305873870849609 3.26484417915344238 8.26513099670410156
-2.28811383247375488 -17.2412643432617188 2.5074002742767334
-4.13630342483520508 -12.661351203918457 57.0625381469726562
-6.16528511047363281 -17.4820556640625 39.8848686218261719
-14.6402549743652344 -3.76999807357788086 56.4365348815917969
17.9237632751464844 9.32381534576416016 -8.16446590423583984
7.26859188079833984 15.1829509735107422 11.4626235961914062
-6.79193639755249023 -16.3108386993408203 -18.1223106384277344
20.0988655090332031 -7.28416013717651367 29.2453022003173828
-12.782475471496582 12.5970745086669922 -8.60526275634765625
-6.81979846954345703 11.7386493682861328 54.9361190795898438
-2.14190483093261719 19.2613754272460938 -45.6346549987792969
21.0541038513183594 7.21079206466674805 -16.6992053985595703
-0.0619486235082149506 -15.565556526184082 -42.2719650268554688
1.91232550144195557 -1.1996767520904541 -65.6700363159179688
-6.52973318099975586 -14.1142663955688477 54.000640869140625
-1.9899526834487915 -0.257762402296066284 -65.0239181518554688
4.65604066848754883 17.3559932708740234 0.318373918533325195
-17.8353137969970703 -3.97409605979919434 -24.2695045471191406
12.6672277450561523 4.0472407341003418 61.14263916015625
11.6246337890625 -6.04055643081665039 -58.6145553588867188
11.5407094955444336 13.2138462066650391 50.8554000854492188
16.4958686828613281 -9.06290817260742188 -46.611724853515625
19.4541511535644531 -9.40874004364013672 1.22595512866973877
16.1078071594238281 -10.1481237411499023 -43.101898193359375
21.7738380432128906 -2.48301315307617188 -36.2774162292480469
-12.3363037109375 12.5441312789916992 26.1244430541992188
5.88759756088256836 18.4789028167724609 -34.7109375
-3.68546867370605469 -18.8717079162597656 31.4757595062255859
19.4370861053466797 -2.33583903312683105 -54.6015625
-13.6731681823730469 10.4933128356933594 27.6803569793701172
6.35429716110229492 -11.2330293655395508 60.2024421691894531
-1.17645883560180664 -17.7980442047119141 15.8580465316772461
1.6794663667678833 -10.0651321411132812 -59.2536239624023438
-15.2558364868164062 8.89895153045654297 48.2554969787597656
-4.33652973175048828 16.5273551940917969 42.18121337890625
-9.76667976379394531 -16.5775642395019531 18.5549449920654297
-13.2041635513305664 12.2986268997192383 5.15898418426513672
23.2785015106201172 0.204388365149497986 -45.1109848022460938
12.0455961227416992 -11.9005508422851562 -54.4512939453125
-9.30470943450927734 -13.8721542358398438 -31.8476409912109375
18.5526542663574219 8.57326507568359375 4.69125986099243164
-17.8898334503173828 -6.52789688110351562 47.0530624389648438
3.88533425331115723 17.1397209167480469 12.7893791198730469
-18.4851799011230469 0.986534476280212402 15.9977054595947266
-8.34671306610107422 -17.6428871154785156 47.1276512145996094
-14.3806791305541992 4.08872842788696289 -60.7735939025878906
-17.2716388702392578 -6.78046941757202148 -21.9587173461914062
-0.361614495515823364 -18.442047119140625 48.427398681640625
-10.6329717636108398 -12.2382421493530273 -43.8033599853515625
6.85830831527709961 -16.6223564147949219 -20.5457878112792969
-5.21885490417480469 17.4325981140136719 -36.2524299621582031
-18.65606689453125 1.9518742561340332 -34.1128273010253906
-8.41658496856689453 -15.9671182632446289 -5.47293424606323242
8.14015960693359375 16.2345142364501953 -55.2912750244140625
18.9219379425048828 5.34100008010864258 38.0288314819335938
20.5238590240478516 -5.31884670257568359 -18.4991893768310547
17.4180278778076172 7.90489101409912109 38.8600234985351562
-17.4567661285400391 6.87676429748535156 -9.1722259521484375
-5.01442623138427734 -1.95725297927856445 61.0536460876464844
-14.073028564453125 12.479461669921875 -4.7735133171081543
20.1557254791259766 3.02980613708496094 56.5517120361328125
14.0608043670654297 12.4342851638793945 -60.0854530334472656
-7.64005517959594727 13.8207683563232422 51.7953033447265625
-6.50243520736694336 7.07433128356933594 -64.7568206787109375
-0.613655209541320801 -18.5372695922851562 44.9152145385742188
13.2745342254638672 14.5619964599609375 22.3820419311523438
-10.8685998916625977 14.9168243408203125 -48.7575721740722656
-14.7120866775512695 -12.705042839050293 10.762751579284668
-6.14660263061523438 17.4414196014404297 -10.8112735748291016
21.2463359832763672 10.4925127029418945 -22.8298225402832031
2.38450956344604492 18.3578872680664062 -18.5898933410644531
11.2081260681152344 -14.4599781036376953 0.371235519647598267
-15.1296110153198242 -12.2906627655029297 21.2437801361083984
21.0894660949707031 -3.18572425842285156 -14.0070323944091797
1.71633815765380859 14.0440139770507812 55.9156265258789062
-18.5448074340820312 3.46464991569519043 -44.0554237365722656
-17.1685256958007812 -6.51264142990112305 -43.2196006774902344
-2.59044504165649414 -3.86530494689941406 61.3638763427734375
16.3550186157226562 -10.228424072265625 -13.6667985916137695
21.5813674926757812 -1.36167049407958984 -12.0591402053833008
7.74811649322509766 17.9256629943847656 -39.942535400390625
10.6506519317626953 11.1614065170288086 57.2975540161132812
12.7663383483886719 -13.2258005142211914 7.27819108963012695
12.5493230819702148 -15.9350852966308594 52.1189727783203125
22.8316574096679688 7.92356300354003906 -29.5409393310546875
20.4923992156982422 2.29939746856689453 37.2836380004882812
2.10778617858886719 18.87969970703125 -30.3672504425048828
-16.5248527526855469 7.54720258712768555 -27.7304573059082031
-14.4677009582519531 9.20580577850341797 51.9544258117675781
-19.4927845001220703 -0.206409111618995667 27.4698982238769531
-15.1259307861328125 2.36276340484619141 53.8876724243164062
-6.03211593627929688 9.18962955474853516 -63.96099853515625
-15.2072830200195312 -4.8371129035949707 -59.1256752014160156
-19.1947689056396484 -4.34314870834350586 39.6032333374023438
10.1248788833618164 15.0598688125610352 40.270355224609375
-18.0716018676757812 -4.78540611267089844 -9.00372314453125
-7.40245676040649414 -15.5547027587890625 -15.4265003204345703
-8.47959709167480469 14.6874628067016602 39.9944381713867188
-17.4707164764404297 -3.23412227630615234 -54.7274589538574219
-0.282304376363754272 -15.7071666717529297 -12.0296354293823242
10.7324705123901367 -13.2057704925537109 -42.6224861145019531
-2.2435767650604248 18.3728961944580078 5.34967613220214844
5.49066781997680664 0.0308480001986026764 -64.450775146484375
20.6262187957763672 8.13892173767089844 11.499598503112793
4.13178586959838867 7.77876043319702148 -63.414764404296875
-18.2898502349853516 -0.537907242774963379 -49.1990242004394531
13.8102645874023438 -13.7488498687744141 25.7717266082763672
-14.7660160064697266 9.97727012634277344 -46.7190399169921875
-18.817474365234375 -0.135831519961357117 30.5034637451171875
-2.37242364883422852 -1.71228682994842529 61.7954635620117188
20.1888751983642578 2.06479120254516602 41.3273277282714844
-18.5646514892578125 1.23551082611083984 30.6244544982910156
23.0572242736816406 2.67012381553649902 -40.1148262023925781
23.7069587707519531 4.61221742630004883 -36.9146652221679688
9.56337165832519531 -14.8870887756347656 -34.2791252136230469
-18.7858486175537109 3.59438157081604004 12.1356315612792969
9.53335952758789062 4.25250625610351562 61.8746452331542969
20.7655181884765625 -6.17385005950927734 30.4910526275634766
11.7594127655029297 16.4625186920166016 -0.765665590763092041
-18.3734188079833984 1.81276977062225342 14.0836210250854492
14.1752948760986328 15.3000688552856445 -14.9771919250488281
-10.9708395004272461 2.20196294784545898 59.7724838256835938
20.0945663452148438 6.61253976821899414 3.18123030662536621
7.78138637542724609 16.7207736968994141 -2.45829486846923828
17.851165771484375 8.76644992828369141 48.2437095642089844
12.9503707885742188 16.6447410583496094 -39.4462776184082031
18.9517688751220703 -3.1511986255645752 -54.9615402221679688
-17.5462856292724609 8.11119461059570312 20.3589687347412109
-19.3415584564208984 -5.09769678115844727 -4.02169656753540039
7.45229482650756836 -17.7577438354492188 47.2154579162597656
3.8728630542755127 -15.759791374206543 -38.902801513671875
-10.3003950119018555 2.00031161308288574 60.2780189514160156
-11.8628273010253906 13.4656133651733398 33.2867050170898438
20.2138099670410156 -3.39053845405578613 -25.1255111694335938
-2.82983088493347168 18.1400966644287109 8.87009620666503906
-18.3830718994140625 0.539886653423309326 33.3581924438476562
-1.30592906475067139 -17.1721305847167969 -6.84795904159545898
19.9076862335205078 -8.80455970764160156 19.9266147613525391
-9.87939357757568359 15.5849447250366211 -23.3282890319824219
-9.00344467163085938 15.2851505279541016 10.5754156112670898
11.0311107635498047 17.5184078216552734 -41.3454399108886719
-19.5925369262695312 -2.92842698097229004 20.4543552398681641
16.8533535003662109 14.4052505493164062 -36.1904869079589844
-15.4710788726806641 -6.62875509262084961 55.0411033630371094
15.5734453201293945 16.6206836700439453 -46.7170219421386719
-6.22183847427368164 -7.95597124099731445 -61.8851242065429688
-10.2396717071533203 14.2683086395263672 17.0041618347167969
-13.7822294235229492 -11.8850507736206055 -4.12490081787109375
14.9505300521850586 -12.6982622146606445 -32.5653076171875
-4.25124454498291016 -0.259327948093414307 -64.580718994140625
-13.2034626007080078 -13.2596187591552734 -7.0413517951965332
18.5399627685546875 -8.14363288879394531 6.80413961410522461
20.8039379119873047 10.127894401550293 -51.6403579711914062
-4.53190422058105469 -4.38989686965942383 60.9435958862304688
2.22697830200195312 16.7934799194335938 29.4781875610351562
-8.98410606384277344 -15.7830266952514648 24.7478313446044922
-12.2931251525878906 -10.7088298797607422 -50.95831298828125
-5.85188961029052734 17.7601528167724609 -9.82354259490966797
9.05301570892333984 -14.7971305847167969 -7.92923641204833984
16.8187465667724609 13.8856382369995117 -31.5950393676757812
1.47663283348083496 18.3268833160400391 -18.5262470245361328
-7.71803522109985352 -8.91425800323486328 -59.4036865234375
11.7937088012695312 -14.0201883316040039 10.0672264099121094
8.95873260498046875 -15.7681512832641602 -19.0866909027099609
13.1102199554443359 -14.4192056655883789 -2.15139245986938477
3.33651924133300781 2.58773422241210938 64.5540008544921875
22.3007240295410156 1.98214554786682129 -49.0122337341308594
-0.400374233722686768 18.0245590209960938 -33.54278564453125
-13.5044765472412109 7.82557916641235352 -58.1438865661621094
12.8825769424438477 -13.732447624206543 5.04084253311157227
6.00578165054321289 -6.06580924987792969 63.3547706604003906
12.5460882186889648 15.2131509780883789 -5.70218944549560547
12.26275634765625 -17.4440574645996094 38.1860198974609375
2.4204251766204834 -16.8482131958007812 14.7913570404052734
19.3189563751220703 0.74281775951385498 29.6051750183105469
15.3957252502441406 2.61468124389648438 60.0968475341796875
-17.9591045379638672 6.42642927169799805 31.3260211944580078
-16.6252651214599609 7.04043865203857422 -45.1798744201660156
2.13697624206542969 4.70866727828979492 63.8760566711425781
-7.7044835090637207 -17.6196060180664062 37.3244476318359375
5.62008523941040039 -15.0881071090698242 -49.0482826232910156
-18.7568378448486328 4.04151153564453125 9.95633506774902344
-2.65093469619750977 -15.7786922454833984 -37.0255889892578125
7.73645401000976562 -10.3067026138305664 -59.1632232666015625
15.9092874526977539 14.2354068756103516 -12.7610101699829102
10.5602569580078125 15.470026969909668 5.14608860015869141
10.4454021453857422 14.8201894760131836 44.4860801696777344
-10.9639778137207031 -8.46336746215820312 -57.2157402038574219
11.599644660949707 -16.2890720367431641 13.4231681823730469
20.336212158203125 5.52490139007568359 55.788543701171875
20.7251319885253906 -4.57133150100708008 -10.8775730133056641
-12.9581108093261719 -11.7035694122314453 -22.4941272735595703
18.2528190612792969 -6.14136648178100586 57.7952499389648438
16.7577991485595703 -12.8778743743896484 0.443805187940597534
2.44165802001953125 17.8121986389160156 -33.6154747009277344
-2.86728811264038086 -18.2202682495117188 43.4649391174316406
0.0900905653834342957 -18.8211479187011719 29.7056102752685547
-11.6113433837890625 -14.4467744827270508 -8.30783939361572266
5.39931678771972656 -17.2526340484619141 6.84253263473510742
22.8769130706787109 1.05417442321777344 50.3038787841796875
13.1581830978393555 15.9708919525146484 -10.6911478042602539
5.29905796051025391 -16.5382099151611328 -18.6379871368408203
20.3261623382568359 -9.63267612457275391 43.9483680725097656
20.6456432342529297 7.33728933334350586 17.6154346466064453
19.3627090454101562 5.99136209487915039 20.9988059997558594
11.7721843719482422 17.3560543060302734 -51.1071243286132812
-18.4545803070068359 4.68530845642089844 25.5158119201660156
17.2387313842773438 8.54945087432861328 29.5149497985839844
-2.93648123741149902 -0.273474693298339844 61.5368156433105469
-4.47143983840942383 -16.4383716583251953 23.3995952606201172
-14.2684125900268555 12.763397216796875 16.4875698089599609
14.634913444519043 -12.1290264129638672 55.5255317687988281
-17.4087295532226562 7.2493739128112793 -11.9872531890869141
15.7662010192871094 3.60125327110290527 59.6046485900878906
13.871455192565918 16.1136131286621094 -22.0813159942626953
-0.926092803478240967 7.20335912704467773 -65.8193511962890625
-9.69147586822509766 8.23955917358398438 56.2244644165039062
13.6576986312866211 14.1979818344116211 36.3689193725585938
-13.4631853103637695 12.7764682769775391 -22.7061233520507812
-7.44067668914794922 15.8519077301025391 6.60004138946533203
-15.877528190612793 -11.7347259521484375 37.9799461364746094
-18.1002159118652344 -5.26259994506835938 20.7625923156738281
-4.91189956665039062 -6.6281285285949707 -64.0335540771484375
20.5114650726318359 -4.10641050338745117 54.9832801818847656
3.03503084182739258 16.8558464050292969 12.1908769607543945
-19.3206691741943359 -4.30763721466064453 14.8179798126220703
-14.7945127487182617 10.6680631637573242 4.21370506286621094
-17.795867919921875 -4.25337934494018555 -42.9446640014648438
23.0154342651367188 9.26768112182617188 -35.8151435852050781
8.73907852172851562 -15.9081306457519531 54.1635971069335938
-18.5624904632568359 -0.294207781553268433 -47.9001579284667969
-0.873289048671722412 19.0031585693359375 -39.4353408813476562
-12.0900850296020508 -11.4604215621948242 -47.3065872192382812
22.4003334045410156 0.633338451385498047 10.6993398666381836
-19.4724884033203125 -3.05281996726989746 -16.4213943481445312
16.3149585723876953 10.094024658203125 -1.58839917182922363
7.6778874397277832 18.3380947113037109 -49.3926467895507812
-10.4997787475585938 14.4951353073120117 17.3324928283691406
-0.834892034530639648 17.5861568450927734 30.6413364410400391
8.36729812622070312 -18.0041923522949219 30.3921699523925781
12.4036931991577148 -2.06883144378662109 61.4690017700195312
13.9759979248046875 9.49932765960693359 -60.3768882751464844
21.9456386566162109 -1.55558574199676514 50.9586448669433594
-19.5110950469970703 -1.38815271854400635 -8.99987888336181641
13.6338834762573242 12.6474590301513672 3.13691449165344238
-0.959532260894775391 -15.9348058700561523 -32.4200401306152344
1.45454788208007812 -0.433256238698959351 -65.763427734375
22.1075344085693359 -9.02711296081542969 47.5412330627441406
8.83502674102783203 -16.0490741729736328 -3.12494063377380371
20.2132797241210938 12.2485113143920898 -28.2409400939941406
18.0546951293945312 12.8160867691040039 -53.7049293518066406
20.7829036712646484 1.17456412315368652 40.3927116394042969
18.736480712890625 8.24348545074462891 -1.4059523344039917
-12.396815299987793 10.396052360534668 52.8416404724121094
12.3766546249389648 6.2588658332824707 -61.3677024841308594
-13.3483943939208984 -14.1936531066894531 40.7754287719726562
-18.7751693725585938 -0.0427235811948776245 37.9517974853515625
-16.3287754058837891 5.78218698501586914 -55.0508003234863281
11.3906002044677734 -14.2043876647949219 -1.09512579441070557
-0.620718240737915039 17.6804714202880859 23.1390972137451172
-12.9018402099609375 12.9563179016113281 -47.2598724365234375
-10.4307804107666016 14.2711019515991211 6.06780290603637695
0.988051891326904297 -18.1466541290283203 43.0302467346191406
-9.23226737976074219 16.0711040496826172 -47.5544013977050781
-5.68106174468994141 -17.7775650024414062 44.4237327575683594
7.99300670623779297 -3.11925482749938965 -64.1953353881835938
15.3364467620849609 8.92503643035888672 57.8730392456054688
3.16583943367004395 16.4116840362548828 43.3433990478515625
13.5275192260742188 -11.6250839233398438 -53.4528160095214844
13.0134410858154297 -11.2648983001708984 -26.5512657165527344
14.581995964050293 11.4162626266479492 -1.0779036283493042
-3.92462491989135742 5.55909824371337891 -64.51226806640625
-14.0303840637207031 -10.1073122024536133 -46.8974342346191406
7.35283613204956055 -17.9951591491699219 36.3682708740234375
14.5426397323608398 -13.102447509765625 25.9067802429199219
-5.77028703689575195 11.7893152236938477 -61.310943603515625
22.0943622589111328 -0.607062220573425293 50.3397178649902344
-2.55281162261962891 17.9420738220214844 10.1673908233642578
-6.589141845703125 -17.3033580780029297 41.2208786010742188
-5.82950782775878906 17.3361644744873047 -26.3040561676025391
-8.52374935150146484 -15.6066608428955078 4.72592782974243164
7.39670801162719727 15.0316381454467773 10.6800003051757812
-14.5335197448730469 10.2810821533203125 38.3984298706054688
2.76968646049499512 -17.0867252349853516 -16.123931884765625
-15.2013330459594727 9.2780303955078125 27.7377243041992188
-0.265692979097366333 -17.2165412902832031 -17.4822940826416016
21.1600494384765625 0.668676257133483887 -53.465789794921875
-11.2492656707763672 14.5575160980224609 18.0697040557861328
-17.5814666748046875 -0.642850935459136963 -50.5173072814941406
19.0787239074707031 4.23618555068969727 -6.73624563217163086
-19.4521827697753906 -0.239779293537139893 28.3834857940673828
5.43244838714599609 17.3539180755615234 -3.66060733795166016
-1.54457628726959229 15.5921869277954102 -60.0171775817871094
-11.0531244277954102 -16.1344280242919922 21.3405170440673828
16.1673336029052734 5.73823785781860352 -59.43133544921875
3.2604987621307373 18.7677745819091797 -43.2279815673828125
1.13057851791381836 12.9248666763305664 -62.795135498046875
-5.81934261322021484 15.2942981719970703 45.3679962158203125
-3.31705284118652344 18.068756103515625 16.4657402038574219
2.17891049385070801 -15.9944629669189453 -35.0890388488769531
-16.8902378082275391 -7.95213699340820312 -30.7088127136230469
-16.46417236328125 8.19555950164794922 5.97149324417114258
-16.0333843231201172 -5.53329229354858398 54.9419403076171875
6.86865234375 -13.9055213928222656 -55.7882423400878906
15.4889392852783203 -14.665400505065918 52.5143051147460938
-19.1345653533935547 -2.59433507919311523 46.6604385375976562
-0.755005180835723877 18.2285041809082031 5.00605106353759766
-11.07269287109375 -15.2254047393798828 13.0998296737670898
-11.8923749923706055 14.3122549057006836 -37.7070121765136719
-12.719273567199707 12.8871021270751953 34.1505508422851562
-10.1043224334716797 14.9457635879516602 17.8016605377197266
-14.2927751541137695 10.1663780212402344 39.7588653564453125
-15.2303867340087891 10.5216388702392578 -50.7883377075195312
18.2663440704345703 8.58444118499755859 -1.52080953121185303
21.7511386871337891 3.86535263061523438 -16.860595703125
4.32573604583740234 -16.8133964538574219 -0.906612694263458252
13.8006868362426758 3.56835365295410156 -61.2365646362304688
8.99737071990966797 -14.7109041213989258 -46.1270217895507812
-14.7019109725952148 11.5923709869384766 32.8452110290527344
21.5927600860595703 4.78856992721557617 53.2328224182128906
-4.42848110198974609 9.96887874603271484 57.5592193603515625
-12.9045000076293945 11.3149957656860352 -42.3108749389648438
11.5649738311767578 4.02884721755981445 61.3877830505371094
-13.4983911514282227 11.6425018310546875 -8.18667888641357422
18.6330585479736328 7.02448844909667969 20.6132354736328125
1.16895580291748047 -15.8030261993408203 -25.5052261352539062
6.35635805130004883 15.5147504806518555 -56.9232864379882812
-16.8892936706542969 -9.46311187744140625 12.8386507034301758
-15.6108636856079102 -4.29316329956054688 55.5681343078613281
5.04267787933349609 -15.0637197494506836 -48.4631309509277344
-11.3581447601318359 12.9534873962402344 26.7091045379638672
-12.863347053527832 -7.02818012237548828 -58.5427818298339844
-11.4353656768798828 13.5418195724487305 -43.7729263305664062
0.168777346611022949 8.37976837158203125 61.4700546264648438
23.1728668212890625 0.321932286024093628 -46.2632293701171875
-3.33548307418823242 -18.2092800140380859 45.57501220703125
-5.61725521087646484 17.8585033416748047 -34.7015266418457031
11.3524065017700195 -17.4902153015136719 31.2854995727539062
-13.4876918792724609 -11.0941734313964844 -21.41107177734375
19.2194004058837891 -7.94510078430175781 -48.1896286010742188
-11.8298559188842773 -13.1001310348510742 -18.1636257171630859
-0.565467715263366699 -18.5683956146240234 45.2056350708007812
-3.69563436508178711 -16.5486106872558594 -15.8776941299438477
-7.96126604080200195 -14.433293342590332 -33.3721389770507812
10.0128517150878906 -14.0527286529541016 -10.5569362640380859
-18.9945144653320312 0.784242987632751465 -28.3229713439941406
12.9500179290771484 -15.6478662490844727 18.3774681091308594
22.2914505004882812 9.77991771697998047 -29.6149883270263672
-18.4613227844238281 2.00723361968994141 18.1230316162109375
-3.47462344169616699 -18.9400463104248047 35.5005760192871094
-7.09409618377685547 -16.1114063262939453 10.1149988174438477
-10.0254783630371094 14.488337516784668 6.89307022094726562
22.7511177062988281 2.54514646530151367 -30.2069244384765625
20.1743144989013672 12.1757469177246094 -27.5672721862792969
-12.984065055847168 -2.65518379211425781 58.0946922302246094
4.15598440170288086 12.977107048034668 -61.5730819702148438
22.6488819122314453 -3.64255642890930176 42.8427848815917969
13.1792526245117188 1.05280423164367676 61.1384315490722656
-4.94320583343505859 11.8707637786865234 -61.7867202758789062
20.46038818359375 7.76097440719604492 -54.71038818359375
3.83541417121887207 15.4297399520874023 48.2458381652832031
-18.7161693572998047 4.31782436370849609 10.9002313613891602
10.2365608215332031 -16.6645870208740234 27.6007137298583984
8.67879199981689453 15.882415771484375 31.36004638671875
19.4117717742919922 6.12657594680786133 -1.76724040508270264
19.6772842407226562 0.120803229510784149 -57.1884040832519531
15.8068428039550781 -11.4250812530517578 55.3673629760742188
-9.77130603790283203 -15.2794399261474609 5.13969659805297852
-18.3735485076904297 -4.06873798370361328 9.39242839813232422
23.0410957336425781 -2.4862217903137207 46.2375030517578125
0.428533852100372314 -17.2308483123779297 26.1398792266845703
-15.0081462860107422 -11.0911283493041992 18.9902458190917969
-7.01653623580932617 13.5178756713867188 48.4200477600097656
12.8600015640258789 17.1281280517578125 -34.3340415954589844
20.7137737274169922 11.7304182052612305 -35.8902473449707031
-5.67351436614990234 18.3047866821289062 1.46790707111358643
19.5951786041259766 -11.2371768951416016 46.2063636779785156
-14.7261772155761719 -5.86225223541259766 -50.4385490417480469
16.4401168823242188 8.79518413543701172 26.5481147766113281
-8.72517204284667969 -6.74490261077880859 -62.9397392272949219
-16.6004962921142578 -5.42665672302246094 54.3710746765136719
18.9184360504150391 -7.47109079360961914 -38.4751358032226562
-13.4076433181762695 -13.9272985458374023 46.9908065795898438
1.18932831287384033 -16.5510139465332031 -23.1858367919921875
-14.8110485076904297 3.33788108825683594 53.5048789978027344
18.3123531341552734 5.86640787124633789 33.2546882629394531
15.8826665878295898 13.6451501846313477 -53.9802932739257812
21.6248397827148438 -4.51220989227294922 11.5589761734008789
-14.4370088577270508 -9.13879299163818359 53.9642143249511719
18.8849811553955078 -10.3314943313598633 53.4027290344238281
-19.3240222930908203 -2.88338661193847656 18.2255325317382812
0.694023251533508301 13.9515514373779297 -61.8629226684570312
16.4894771575927734 15.6141281127929688 -49.2069091796875
-19.7315444946289062 0.638092875480651855 -10.2364568710327148
4.10814714431762695 18.1036262512207031 -17.7513084411621094
1.84473252296447754 18.1284828186035156 -12.899907112121582
-9.48372936248779297 15.7467079162597656 0.250209957361221313
-8.51664447784423828 -15.6020212173461914 4.94457149505615234
-5.97379684448242188 -16.3143882751464844 10.1529788970947266
17.5731887817382812 -14.4454183578491211 35.4386749267578125
8.92570972442626953 -9.34227943420410156 60.7563362121582031
6.55996513366699219 17.0013504028320312 31.4948539733886719
-18.2209224700927734 0.678477346897125244 -42.9484062194824219
-9.93496417999267578 -16.9777488708496094 47.9838790893554688
6.4675145149230957 -16.7278804779052734 -5.96333599090576172
15.8487110137939453 3.69574594497680664 27.5727634429931641
-8.60706996917724609 1.41961371898651123 60.5707206726074219
-4.33869695663452148 19.0843048095703125 -19.5403118133544922
22.7128314971923828 9.55827617645263672 -31.6074466705322266
-0.129872038960456848 4.17715740203857422 63.370025634765625
15.1951894760131836 12.2989921569824219 28.2914829254150391
3.41589522361755371 16.8034515380859375 12.2894515991210938
-15.6070013046264648 -11.3831691741943359 -9.94920921325683594
0.807000577449798584 0.0525681786239147186 62.9960212707519531
9.54419898986816406 15.914067268371582 38.3037223815917969
19.8809356689453125 6.09744405746459961 47.2712249755859375
-12.1524133682250977 -11.672271728515625 -42.5596733093261719
20.8765907287597656 -6.69668340682983398 20.8254680633544922
16.6984672546386719 9.71205425262451172 43.2621574401855469
14.4489936828613281 14.6262950897216797 -14.8249111175537109
10.2781982421875 -17.2091827392578125 34.6314277648925781
-16.9273509979248047 -7.11781930923461914 -22.8376178741455078
4.023834228515625 -18.26434326171875 29.8830051422119141
-15.8377094268798828 -7.77500057220458984 -43.0532608032226562
0.812346279621124268 18.6005840301513672 -19.3664531707763672
-13.7946033477783203 11.7765588760375977 9.42033481597900391
1.61312651634216309 17.040374755859375 -55.0406303405761719
-17.9538097381591797 -7.13796377182006836 21.5384731292724609
21.7950515747070312 -8.03420066833496094 44.9492645263671875
10.1450767517089844 14.8099508285522461 22.5765514373779297
-12.7286806106567383 14.5257663726806641 -54.368438720703125
17.9596424102783203 5.29775714874267578 -5.97122526168823242
17.3408851623535156 -8.53245925903320312 -13.8678379058837891
20.214752197265625 8.34848213195800781 9.00914764404296875
4.43809175491333008 -14.9190950393676758 -26.8174381256103516
-14.0973539352416992 9.91575717926025391 46.0267906188964844
21.6158237457275391 2.04120945930480957 -13.9430856704711914
-10.0086565017700195 -9.68446159362792969 57.5049209594726562
5.65044927597045898 15.023442268371582 52.122589111328125
11.3169364929199219 -12.7627058029174805 -51.63330078125
20.6147003173828125 12.1918888092041016 -29.7350826263427734
-17.3863773345947266 -9.35999679565429688 2.16977095603942871
-10.4303407669067383 -11.5145168304443359 53.9167900085449219
19.7967777252197266 -2.55387091636657715 20.625213623046875
8.21230125427246094 -15.9085674285888672 -23.8237686157226562
11.2984867095947266 15.2598628997802734 -8.66536426544189453
-0.159217461943626404 17.9088077545166016 13.2859258651733398
-8.68713188171386719 -3.03816485404968262 59.7368202209472656
-14.9111366271972656 -8.85669994354248047 54.3246421813964844
-2.77941322326660156 -16.0108585357666016 -36.4474334716796875
7.722198486328125 16.8277511596679688 -2.38884258270263672
-8.45157241821289062 -7.16381454467773438 58.7942352294921875
-6.53070783615112305 16.9388008117675781 7.58452320098876953
13.728480339050293 13.6472845077514648 35.8376235961914062
-13.4013137817382812 10.9265232086181641 27.1571235656738281
13.7625331878662109 4.3197636604309082 -61.15118408203125
-12.4737682342529297 12.9057683944702148 -56.7203292846679688
14.2626848220825195 14.8116779327392578 -24.6611156463623047
-10.0585289001464844 15.8325281143188477 -50.821136474609375
-1.85526561737060547 15.4853458404541016 46.6026268005371094
5.46619176864624023 -16.7075233459472656 -11.4904928207397461
3.74869894981384277 -17.6182918548583984 2.35337281227111816
10.6178884506225586 -13.8829240798950195 -46.6253662109375
-8.88598060607910156 13.2507810592651367 -58.6399765014648438
-0.706567883491516113 16.5638980865478516 27.4168949127197266
-14.2119226455688477 11.1947154998779297 -23.9255580902099609
16.3425922393798828 14.0838336944580078 -7.85088253021240234
19.5403995513916016 4.37136936187744141 34.5248374938964844
15.8728199005126953 14.4815874099731445 -10.5937442779541016
11.724125862121582 15.6755609512329102 -4.88902902603149414
19.4309616088867188 12.5242443084716797 -48.7325706481933594
