ply
format ascii 1.0
element vertex 783
comment vertices
property float x
property float y
property float z
end_header
35.2596817016601562 -20.6681404113769531 -3.7300269603729248
55.6796073913574219 20.5724906921386719 -3.42276287078857422
-6.95114564895629883 -21.2392234802246094 11.1896333694458008
25.6041831970214844 19.8929996490478516 -54.8548660278320312
50.4972114562988281 7.08700990676879883 26.3476505279541016
-22.8174419403076172 -20.3238468170166016 -4.98251628875732422
41.8912010192871094 12.3994636535644531 32.1698837280273438
-28.3769760131835938 -11.1048259735107422 38.3053665161132812
0.877000987529754639 -28.5373878479003906 30.3273582458496094
2.11949586868286133 24.7227420806884766 -55.6365127563476562
44.4898109436035156 -11.2334928512573242 -13.1502466201782227
-3.38675093650817871 -17.4421920776367188 37.9437408447265625
11.4956226348876953 -28.9556636810302734 26.9471702575683594
41.1100959777832031 -15.6641731262207031 9.83519935607910156
-47.626129150390625 8.96111202239990234 18.3446750640869141
-5.28133106231689453 -17.6953010559082031 37.2774314880371094
41.0605926513671875 19.4609355926513672 -37.5910377502441406
-51.710418701171875 -0.765522003173828125 -7.37742424011230469
25.9275379180908203 -19.8640708923339844 -26.3989315032958984
-33.2288093566894531 32.1032943725585938 48.4879035949707031
10.7589778900146484 -22.4040260314941406 22.0928440093994141
-46.7621192932128906 -10.4537429809570312 11.1286687850952148
-28.2098846435546875 16.3963527679443359 51.6541709899902344
20.4225254058837891 -14.6924428939819336 42.8187294006347656
5.22832822799682617 -27.2382564544677734 -28.6675338745117188
-24.5285186767578125 7.81018304824829102 -45.4525642395019531
23.6304512023925781 14.1021709442138672 -55.2371482849121094
-42.912841796875 27.8742771148681641 -41.0159072875976562
-35.3568840026855469 5.27043628692626953 -36.77862548828125
53.5478286743164062 19.2156620025634766 -14.8756484985351562
34.6001091003417969 22.8354721069335938 -50.1749649047851562
35.0899276733398438 12.2066555023193359 48.3505592346191406
55.7259483337402344 23.4025173187255859 8.57036113739013672
49.8700637817382812 -11.7921028137207031 4.46579265594482422
-34.2522125244140625 -4.84488773345947266 33.5788154602050781
44.6276359558105469 26.6137924194335938 -41.9600601196289062
-14.9185800552368164 -26.6176929473876953 -21.8356456756591797
-29.1117763519287109 3.07140016555786133 45.469268798828125
51.264434814453125 12.4945383071899414 -16.9201087951660156
-23.7738742828369141 -17.4094047546386719 -29.9214496612548828
-34.628662109375 27.881103515625 -48.6803970336914062
-42.6805534362792969 -11.718409538269043 -11.0442628860473633
-18.0109653472900391 24.0786705017089844 50.7933120727539062
16.6469650268554688 24.6419620513916016 52.4449920654296875
-14.8822832107543945 -21.3165645599365234 -35.4092788696289062
29.005126953125 -19.8600788116455078 -29.3539619445800781
44.3552894592285156 -13.683903694152832 -1.78368806838989258
-32.3085517883300781 6.93980550765991211 -39.9123306274414062
27.0635643005371094 -17.7408370971679688 28.2214565277099609
6.09154081344604492 -22.2519359588623047 -23.670562744140625
-11.3692159652709961 -27.8080673217773438 -31.0842685699462891
13.7014350891113281 -21.5838794708251953 28.2872219085693359
-37.7576103210449219 7.7639622688293457 -40.8263969421386719
-2.70941543579101562 -19.5354099273681641 -41.4846458435058594
-49.8559074401855469 0.966349899768829346 2.53979229927062988
-40.5648231506347656 -5.70157527923583984 -32.0195999145507812
13.4202861785888672 22.4494342803955078 52.6895332336425781
-48.293609619140625 4.31074094772338867 14.4719161987304688
43.2927780151367188 2.17268466949462891 -33.9759368896484375
29.3146953582763672 22.8307819366455078 53.0623512268066406
54.955535888671875 0.499960005283355713 -0.194856494665145874
-55.5079269409179688 33.3231315612792969 -17.3144149780273438
-51.6712722778320312 27.4996433258056641 15.4356193542480469
-18.2167186737060547 -4.13082265853881836 -50.1065254211425781
-50.2019424438476562 13.1049795150756836 -12.4571981430053711
3.18500542640686035 -24.5515995025634766 4.42017030715942383
-50.0102462768554688 2.68306279182434082 -19.1809959411621094
60.1592636108398438 26.1256809234619141 -10.6891059875488281
-47.9454383850097656 28.9245758056640625 25.4247398376464844
-44.6855850219726562 -2.28372621536254883 -20.8576831817626953
-23.8450641632080078 32.5861549377441406 53.5566673278808594
-18.5987758636474609 17.0737400054931641 -50.0933914184570312
-10.872589111328125 -21.0643463134765625 17.5699100494384766
-9.15839862823486328 6.17735385894775391 -50.8326225280761719
-37.6160430908203125 33.7157707214355469 43.7063636779785156
4.12851285934448242 30.9029197692871094 56.7783164978027344
-29.7291278839111328 -17.7487392425537109 -22.1990604400634766
53.9094009399414062 -2.89562296867370605 4.64563179016113281
37.4083175659179688 9.92984962463378906 -37.9054985046386719
9.98623085021972656 -5.1590728759765625 47.0794677734375
-16.2924022674560547 -23.9584312438964844 28.4897937774658203
20.9170703887939453 -25.4244365692138672 -28.6164398193359375
4.03420495986938477 19.7041778564453125 -60.2287864685058594
20.5874614715576172 -25.6024169921875 12.757908821105957
56.7891349792480469 25.2439002990722656 22.3821735382080078
-30.8252525329589844 -0.935918629169464111 38.3752670288085938
8.94390487670898438 21.3506374359130859 53.2427711486816406
-11.2255535125732422 0.536615908145904541 -53.7019119262695312
42.5582466125488281 -5.17006874084472656 -31.1909465789794922
51.2034416198730469 16.2224178314208984 17.3058662414550781
39.082611083984375 -16.9677162170410156 -22.6171112060546875
55.7188529968261719 22.5966567993164062 7.08652639389038086
-47.9250679016113281 -5.8239893913269043 -17.360321044921875
43.7872848510742188 20.4405155181884766 33.0403594970703125
-24.3986167907714844 -20.3727226257324219 -15.1351327896118164
11.3990478515625 5.99565553665161133 54.8746337890625
53.9780998229980469 -1.93093132972717285 6.66043806076049805
8.82918167114257812 -22.2793979644775391 25.6801338195800781
30.0173358917236328 -3.88295555114746094 -44.7788009643554688
49.3836593627929688 8.90338802337646484 17.1658229827880859
31.1576156616210938 21.8654632568359375 45.0873260498046875
-3.12448954582214355 -7.29238367080688477 -52.3545265197753906
-51.9043540954589844 21.3289966583251953 9.51556301116943359
-20.6042728424072266 -20.4630718231201172 3.71709942817687988
-23.8043422698974609 4.31597566604614258 44.4315376281738281
-58.4445838928222656 25.9692192077636719 1.7031557559967041
8.05918598175048828 -21.9854621887207031 -6.08021879196166992
24.7029151916503906 3.02112531661987305 44.1184425354003906
30.3091201782226562 -22.5232772827148438 4.09470748901367188
34.29449462890625 -8.0916900634765625 -34.1132431030273438
-30.6067333221435547 31.7124538421630859 -51.3890724182128906
-36.1135597229003906 -0.97550201416015625 -34.3766593933105469
13.6083192825317383 17.2337627410888672 58.4081764221191406
16.4868087768554688 -2.40454626083374023 -47.4604148864746094
0.594782531261444092 -21.8990345001220703 -25.7472152709960938
-42.3465156555175781 6.56007194519042969 -35.3075790405273438
-22.4656391143798828 -16.3184623718261719 31.9935302734375
10.5992488861083984 -22.2443008422851562 19.1516952514648438
52.7534027099609375 10.1457977294921875 -6.32664966583251953
-14.3395137786865234 18.6464977264404297 50.8804130554199219
17.0351123809814453 22.2510662078857422 51.6785163879394531
-26.5991687774658203 3.33839154243469238 -43.3462867736816406
-46.502471923828125 -7.92394638061523438 3.70932340621948242
52.1363372802734375 -4.29902172088623047 13.3025150299072266
19.6159877777099609 -22.4146976470947266 -23.8829326629638672
-23.0697422027587891 -20.3809528350830078 -11.1552438735961914
-5.56956672668457031 -0.577803075313568115 -54.3611068725585938
43.7124176025390625 11.44915771484375 39.656982421875
6.42738723754882812 26.9589614868164062 59.9541053771972656
34.6439285278320312 1.77976846694946289 43.4669036865234375
32.0480232238769531 -3.56392741203308105 36.9586372375488281
-45.9277229309082031 -8.16530132293701172 7.04159164428710938
-25.7496395111083984 18.4075565338134766 45.8292007446289062
-16.5458126068115234 -9.35364055633544922 42.7280311584472656
-7.12748193740844727 18.2496547698974609 -53.4345130920410156
-28.4850864410400391 15.2962236404418945 -44.4340705871582031
-26.8622035980224609 -20.2008075714111328 -12.601161003112793
-34.8911933898925781 -4.45135307312011719 -39.2998008728027344
-3.2275090217590332 -9.06020069122314453 46.0660934448242188
-32.7699661254882812 21.6906356811523438 48.9128036499023438
-15.8296995162963867 -5.98964118957519531 -45.7810783386230469
40.9481773376464844 18.8315334320068359 44.5328369140625
27.7620563507080078 -23.1083259582519531 0.699484169483184814
-32.0359420776367188 -22.2122249603271484 14.7823781967163086
-40.9763565063476562 -14.1721925735473633 5.74414396286010742
31.1527137756347656 -25.0776271820068359 15.8977556228637695
-0.0664849579334259033 -7.24094009399414062 47.1461334228515625
-8.96333026885986328 -12.1320247650146484 -44.1612815856933594
-5.06693840026855469 -21.3344841003417969 -21.6880683898925781
41.2229843139648438 21.3260345458984375 36.48638916015625
-37.3154754638671875 -9.30016136169433594 -27.2023372650146484
-8.40378570556640625 -18.7159004211425781 -35.9956130981445312
-52.2749176025390625 24.6883525848388672 24.3943290710449219
-42.1029815673828125 -3.83457684516906738 23.7824649810791016
25.0086154937744141 -19.6016769409179688 -27.8086929321289062
-9.42254734039306641 -1.22023499011993408 -53.6042404174804688
-40.4063949584960938 -14.9968862533569336 -1.76178824901580811
-23.1833305358886719 18.9603061676025391 47.3562698364257812
0.282531023025512695 -16.4471206665039062 44.6418266296386719
-47.8672943115234375 -10.9148998260498047 2.63426518440246582
-34.1483840942382812 -15.5321893692016602 20.4596195220947266
52.6100082397460938 9.62116622924804688 -6.72649097442626953
-48.3515396118164062 -4.33939123153686523 -2.07118415832519531
33.4513587951660156 5.64914512634277344 45.4394493103027344
28.6439704895019531 -16.3871688842773438 35.7265892028808594
34.2279930114746094 3.19242739677429199 37.4643402099609375
23.2624073028564453 23.8144550323486328 -56.1545486450195312
-39.2168998718261719 -0.446339130401611328 29.9720516204833984
-31.3977088928222656 21.737335205078125 49.8884620666503906
7.86180353164672852 -28.3091964721679688 25.6592350006103516
-28.8872890472412109 26.6350479125976562 51.6830825805664062
37.4527473449707031 -18.6408805847167969 -10.734187126159668
-32.4156150817871094 27.8279800415039062 49.53863525390625
16.4115180969238281 -24.6408290863037109 7.89582920074462891
21.7528018951416016 9.00216579437255859 -47.8965950012207031
-50.6815719604492188 11.6017770767211914 24.0654201507568359
-48.7977981567382812 -2.91317582130432129 2.65202426910400391
5.92784500122070312 -19.7489147186279297 -35.8159103393554688
54.5487098693847656 27.2463874816894531 18.0116767883300781
-39.8976211547851562 -11.5074901580810547 -19.4980964660644531
11.2307939529418945 -14.790501594543457 40.4417610168457031
-23.7202510833740234 29.8097000122070312 -50.9303169250488281
-4.56048154830932617 -24.4222812652587891 -5.96972990036010742
5.39018440246582031 -21.969146728515625 21.1740493774414062
-10.5409765243530273 31.8424625396728516 55.8570785522460938
-58.1233406066894531 28.2122001647949219 6.411529541015625
42.778900146484375 -18.8170452117919922 2.64849019050598145
-37.2928733825683594 16.7497653961181641 36.34771728515625
48.2904472351074219 11.7190999984741211 -23.8809566497802734
-23.2275829315185547 27.1448535919189453 54.74456787109375
32.6544151306152344 23.0749053955078125 -45.8477630615234375
-14.9169635772705078 27.8493137359619141 -54.0002212524414062
-35.9261245727539062 -15.8599834442138672 -16.5593757629394531
27.3571758270263672 11.1374301910400391 51.7196197509765625
-14.0656909942626953 -17.6347942352294922 39.9161033630371094
-52.6230354309082031 24.6503868103027344 -9.16572189331054688
-32.1460762023925781 -16.5048198699951172 21.0441970825195312
36.1774749755859375 -10.3259572982788086 28.4944534301757812
-7.78524875640869141 -21.1725959777832031 13.6852407455444336
-52.3426628112792969 30.1916561126708984 -26.6856021881103516
4.48587942123413086 -24.7095184326171875 13.7616815567016602
-15.3038177490234375 9.99085235595703125 -54.7924270629882812
6.93301963806152344 -19.3309440612792969 34.865692138671875
-23.7941665649414062 -20.292205810546875 20.0057830810546875
46.8363876342773438 1.01626574993133545 -28.2841758728027344
50.9496536254882812 10.5759344100952148 13.6005678176879883
-37.7433433532714844 7.19008922576904297 -40.6913871765136719
30.4355983734130859 -27.745391845703125 -16.0604343414306641
-39.7676925659179688 33.2510147094726562 42.4296913146972656
8.08463859558105469 -27.9155769348144531 -32.8051567077636719
7.93209457397460938 -11.1569385528564453 49.4656105041503906
39.9999771118164062 -13.2057886123657227 -20.8473281860351562
-56.1551284790039062 34.6173171997070312 10.6256752014160156
32.875823974609375 -8.74043941497802734 33.3493194580078125
-25.9209575653076172 -23.2441425323486328 21.5872859954833984
43.7856712341308594 13.889988899230957 41.2895774841308594
15.1374330520629883 -21.7858295440673828 -35.4654121398925781
9.02167129516601562 -15.1893110275268555 -41.9298057556152344
38.5377120971679688 11.5633382797241211 -37.3291206359863281
24.0390300750732422 -9.77946281433105469 -40.7568283081054688
-36.8457374572753906 0.160045400261878967 -34.0513458251953125
-49.0035438537597656 26.3160228729248047 21.9363269805908203
5.31189203262329102 18.6057071685791016 -60.0733833312988281
-50.7200775146484375 31.4365787506103516 -21.1778125762939453
49.0298614501953125 -11.7044925689697266 11.1950778961181641
-43.3811759948730469 10.0525894165039062 33.1242599487304688
-51.8017349243164062 14.5509834289550781 0.260249733924865723
7.59794950485229492 -22.4486579895019531 -25.4908714294433594
10.8395414352416992 -5.83432912826538086 -47.7899055480957031
-14.8856048583984375 -3.40216922760009766 -51.5853958129882812
-13.4689779281616211 7.22136878967285156 -54.6361732482910156
52.84930419921875 17.3364429473876953 -15.5966453552246094
18.5419635772705078 12.111353874206543 56.36114501953125
-36.7527046203613281 -15.3743867874145508 15.4036693572998047
31.6582546234130859 7.31103324890136719 47.1256561279296875
3.07949185371398926 -21.7315025329589844 18.2898731231689453
41.8034286499023438 -3.47160720825195312 -27.8537750244140625
32.3266830444335938 19.9350662231445312 -51.3089256286621094
-51.9266471862792969 11.8590774536132812 -21.9990520477294922
-14.1027050018310547 10.2709417343139648 -55.2041168212890625
21.9219264984130859 -17.5545768737792969 38.685760498046875
-5.72542905807495117 5.70441722869873047 -51.2493324279785156
-51.2631950378417969 10.1396141052246094 1.33595192432403564
-36.369140625 -14.6456356048583984 -28.3880729675292969
-28.7150592803955078 -15.8354740142822266 27.1386547088623047
49.7475013732910156 -3.68228840827941895 -19.4677181243896484
-19.5290851593017578 24.3014602661132812 -51.3335609436035156
-51.4964141845703125 15.5738382339477539 6.19078874588012695
50.8717041015625 16.5122165679931641 32.4959983825683594
13.8690185546875 -14.51361083984375 -41.4348983764648438
24.0689620971679688 -5.89841842651367188 -47.5608711242675781
40.4870834350585938 -19.9964141845703125 7.58818340301513672
-3.48144316673278809 -7.24117326736450195 -52.34783935546875
-54.6110954284667969 34.1345443725585938 -16.7894840240478516
-0.478577494621276855 -2.68582415580749512 53.5886688232421875
37.6468734741210938 -20.524261474609375 14.7243175506591797
-22.6493549346923828 -26.8671436309814453 9.45069789886474609
52.8252105712890625 12.2569894790649414 7.19180965423583984
-48.7361183166503906 -2.46689271926879883 4.83271598815917969
32.12451171875 21.5090370178222656 -51.5731315612792969
-16.1327590942382812 11.4395666122436523 -49.8875236511230469
7.09820795059204102 -5.47840547561645508 52.3591499328613281
-32.0838394165039062 -19.6847496032714844 -0.743424654006958008
-2.48259568214416504 -17.7314319610595703 37.5981254577636719
-47.1353492736816406 13.7078828811645508 32.5621757507324219
-58.3061141967773438 33.2003135681152344 6.09029150009155273
-8.62290763854980469 -7.41644191741943359 46.2070693969726562
-44.8869895935058594 6.6272735595703125 -24.4852066040039062
-4.1335759162902832 -12.0400571823120117 -45.0770912170410156
54.9513359069824219 20.4563236236572266 -25.7505760192871094
-28.0231685638427734 -19.0975780487060547 28.613372802734375
49.1576461791992188 17.3693084716796875 22.8541202545166016
-56.5547218322753906 16.806396484375 -12.9340286254882812
-6.24483919143676758 11.2953834533691406 -52.1841278076171875
-37.8659019470214844 8.95235729217529297 38.6237144470214844
0.537192463874816895 5.60691165924072266 50.7740745544433594
11.4073476791381836 -24.6024188995361328 10.7404050827026367
47.0870208740234375 -7.43627452850341797 8.74930381774902344
37.9325447082519531 -14.7184839248657227 -21.9090652465820312
-47.0423088073730469 19.1247787475585938 23.0124626159667969
-21.4108676910400391 -17.7921924591064453 -31.0605373382568359
15.6068792343139648 -22.0939788818359375 25.7550582885742188
36.3739814758300781 14.5322685241699219 -40.2314224243164062
42.5434379577636719 -15.6029605865478516 -2.99557852745056152
33.2734298706054688 18.8432807922363281 50.4054946899414062
-21.9571208953857422 2.83503174781799316 45.0797080993652344
52.2698478698730469 21.6844329833984375 31.0717620849609375
-26.6055946350097656 18.5302906036376953 -53.4952735900878906
38.2089424133300781 -14.4708776473999023 -21.8933811187744141
-44.2467765808105469 -7.36766195297241211 -16.3803043365478516
22.1953678131103516 16.1466331481933594 48.2692947387695312
-56.799163818359375 19.4551353454589844 -12.8307952880859375
6.40461540222167969 -21.9107608795166016 16.5557670593261719
-2.05280423164367676 -27.3084983825683594 24.4773635864257812
-44.9380149841308594 14.3847503662109375 35.7805442810058594
-55.0598373413085938 12.9541215896606445 14.4100446701049805
8.85591602325439453 -22.0211963653564453 3.85611248016357422
-37.8064613342285156 26.4816856384277344 38.3931617736816406
44.0652236938476562 -15.9291820526123047 15.1528377532958984
-31.25848388671875 -27.0089950561523438 -0.470972388982772827
-36.8665084838867188 -0.766756534576416016 -38.98248291015625
-15.3446559906005859 -2.74512124061584473 50.8589019775390625
-47.5780906677246094 -5.64142560958862305 -5.35450077056884766
29.0132102966308594 -5.95430517196655273 -39.8172073364257812
-50.8140335083007812 13.1268453598022461 -9.62612152099609375
45.2090530395507812 14.8736934661865234 28.578460693359375
3.85998368263244629 -5.88825368881225586 52.4971923828125
4.83121299743652344 -21.7437362670898438 -30.5569400787353516
43.4163894653320312 -18.0776443481445312 -5.81940460205078125
-51.1266326904296875 22.8972148895263672 14.0202217102050781
52.1486740112304688 28.4202232360839844 -29.5010852813720703
-12.4242515563964844 5.06574916839599609 49.0253105163574219
-4.24838924407958984 12.873906135559082 51.755706787109375
50.6791763305664062 1.10933494567871094 3.04035425186157227
-56.0040092468261719 28.2538890838623047 -16.7093391418457031
-41.910247802734375 14.2033157348632812 -31.0651168823242188
-14.2950782775878906 -20.9724311828613281 -21.4475021362304688
-27.8602466583251953 -20.3012142181396484 -4.04007911682128906
-58.2707710266113281 34.8841361999511719 6.10387134552001953
4.88870573043823242 -6.03510904312133789 47.4797477722167969
44.3347702026367188 10.9741725921630859 -30.3141632080078125
6.47250032424926758 1.17822849750518799 -50.4959068298339844
6.42132425308227539 -24.5156936645507812 7.60973310470581055
51.8246917724609375 8.56162261962890625 7.56138706207275391
37.9294319152832031 14.3906421661376953 -38.8192634582519531
47.2521286010742188 25.8308734893798828 -38.9945907592773438
47.6361618041992188 1.75780224800109863 17.2180976867675781
60.023895263671875 21.2613201141357422 9.72839069366455078
-13.5531768798828125 26.6680831909179688 -54.0468902587890625
-31.659027099609375 23.5520896911621094 43.0263862609863281
-13.6822280883789062 7.58845615386962891 -54.6608924865722656
-32.6822738647460938 -5.78886556625366211 38.1519813537597656
26.4626255035400391 -6.22437143325805664 -46.095977783203125
16.0682201385498047 7.74381637573242188 -54.7297439575195312
-35.1874580383300781 -17.8891429901123047 -23.9581813812255859
-49.2365798950195312 14.3595352172851562 29.1886539459228516
50.0197639465332031 5.72973060607910156 -15.5212459564208984
25.8652973175048828 -23.7293109893798828 24.4954833984375
-47.3711929321289062 16.2723350524902344 -22.2173213958740234
4.30619001388549805 -17.5066165924072266 43.304351806640625
-47.6903953552246094 11.3480892181396484 -29.3226089477539062
40.240020751953125 18.797149658203125 -38.1403388977050781
10.4325618743896484 -21.6711673736572266 -30.4816017150878906
-1.51123058795928955 6.70023822784423828 50.9356956481933594
15.4871921539306641 -7.71479177474975586 44.4550819396972656
4.80702829360961914 7.20655012130737305 -56.446533203125
-50.9297142028808594 26.9249191284179688 -17.7625579833984375
22.9989547729492188 -15.0202236175537109 -41.4772796630859375
-7.54526901245117188 -24.4644584655761719 -16.0599803924560547
15.446497917175293 -17.3485183715820312 35.9174957275390625
-51.3896636962890625 11.1724853515625 20.9440250396728516
-6.06446743011474609 -0.888028204441070557 -54.2149505615234375
9.47252655029296875 -26.808258056640625 -33.5039176940917969
54.9165878295898438 21.7194118499755859 26.1618804931640625
33.7594375610351562 -25.4030532836914062 -7.94963598251342773
-19.2276439666748047 15.9694404602050781 -49.5926551818847656
-33.15802001953125 -10.3637685775756836 30.3649101257324219
48.5045166015625 -3.65375971794128418 8.81036949157714844
-32.4376449584960938 30.0843563079833984 44.2193489074707031
34.0193061828613281 -20.0262165069580078 -13.6665515899658203
23.6087379455566406 -24.0086669921875 -27.0419216156005859
6.42511558532714844 -12.7717809677124023 43.2474021911621094
5.68481302261352539 -24.5995826721191406 -20.0585479736328125
28.5437145233154297 -22.0392284393310547 13.8776035308837891
20.1529006958007812 -18.1359615325927734 32.4980278015136719
-50.9952888488769531 10.0870771408081055 -6.02484941482543945
14.1938571929931641 -19.4732704162597656 -39.53546142578125
22.2693691253662109 22.6292057037353516 -51.0920906066894531
-48.5092735290527344 17.1380348205566406 -19.8419303894042969
39.2548561096191406 19.2106399536132812 -39.2651710510253906
57.2726287841796875 28.64862060546875 15.3579216003417969
30.9829730987548828 22.2515010833740234 -52.2761726379394531
46.1901473999023438 0.702041029930114746 -29.1067733764648438
28.8872432708740234 19.7384853363037109 -53.2235641479492188
40.2203788757324219 -14.6611299514770508 -17.3687973022460938
12.2086820602416992 12.0958700180053711 -51.6053657531738281
-36.7373390197753906 -16.9585323333740234 21.604278564453125
10.0610160827636719 -23.3753890991210938 -35.17730712890625
53.1329994201660156 9.63077640533447266 -23.4112968444824219
-7.03862714767456055 -9.55892753601074219 -46.3223190307617188
-32.7459678649902344 -23.1639423370361328 8.89847183227539062
22.3546485900878906 17.3531627655029297 55.8010368347167969
-10.3918085098266602 5.90973281860351562 -50.5177879333496094
-41.15655517578125 -17.7994880676269531 7.14139699935913086
-47.0018386840820312 -4.90175819396972656 -11.0259809494018555
26.8505687713623047 17.0642776489257812 -47.3837966918945312
3.35751819610595703 -28.4709358215332031 26.5095291137695312
22.4882774353027344 13.7520875930786133 -48.6553878784179688
-45.5947418212890625 -14.2182779312133789 -1.71352291107177734
-19.630584716796875 30.3732128143310547 56.1902275085449219
-26.7303123474121094 -9.49023914337158203 36.9862709045410156
-9.25759029388427734 -4.27904224395751953 -52.6390419006347656
-37.0365371704101562 27.1344318389892578 -46.8039283752441406
-16.5323905944824219 23.4599990844726562 57.1688919067382812
32.156036376953125 -18.9528903961181641 19.630645751953125
-37.7004737854003906 31.4747638702392578 -41.3731536865234375
-46.287353515625 32.0670623779296875 29.8664207458496094
-52.1882362365722656 8.89481544494628906 -15.8856401443481445
-43.1500930786132812 32.5708236694335938 -35.9319000244140625
-10.7024564743041992 11.1497898101806641 55.9878120422363281
-9.6066436767578125 -21.0992412567138672 3.52598762512207031
36.9334869384765625 26.9313240051269531 42.61334228515625
42.7070503234863281 -10.5425233840942383 -26.3890666961669922
-48.4174766540527344 21.1765098571777344 -33.5634040832519531
-57.0374488830566406 14.2620420455932617 5.01859807968139648
-28.8184432983398438 -17.8080387115478516 22.3506927490234375
50.3846359252929688 0.123629219830036163 -6.30780172348022461
-15.0639276504516602 -27.7568855285644531 -24.0142879486083984
34.7196197509765625 -23.6431026458740234 -8.19100189208984375
-13.9176216125488281 1.46395790576934814 -48.6856498718261719
45.6623649597167969 -1.31285285949707031 19.9462165832519531
30.076324462890625 -19.0034732818603516 -30.0287857055664062
-26.1588687896728516 -13.2157440185546875 38.2650413513183594
-29.6599311828613281 4.23415708541870117 -41.4402732849121094
-50.079681396484375 -3.78508472442626953 9.66695213317871094
15.1420049667358398 -8.29336261749267578 49.6555862426757812
50.0002365112304688 9.86429119110107422 -27.8057231903076172
-8.54656887054443359 -9.99764919281005859 44.7255706787109375
39.5794830322265625 0.635791957378387451 -38.0518417358398438
32.7268104553222656 -23.798797607421875 -13.6065855026245117
9.92375946044921875 -5.05024576187133789 47.1359291076660156
24.2435817718505859 -17.5996494293212891 -37.385833740234375
-8.49863243103027344 -24.9449577331542969 14.6684188842773438
42.3989372253417969 1.16226315498352051 35.6716766357421875
13.2515172958374023 -6.03066492080688477 45.9185791015625
47.9526863098144531 2.44572925567626953 16.8312263488769531
-4.13283681869506836 -21.5715236663818359 0.603896558284759521
-4.74194240570068359 19.3894290924072266 -60.0630378723144531
43.476531982421875 -14.1797447204589844 -7.24652814865112305
43.4201698303222656 29.4680156707763672 39.1300086975097656
-55.7781753540039062 12.0825462341308594 -9.42359828948974609
-17.2429389953613281 -20.6692008972167969 33.9142417907714844
45.4852142333984375 15.8689994812011719 39.5964546203613281
-36.3650245666503906 -1.86099338531494141 -39.1446990966796875
53.3120918273925781 15.383143424987793 -11.3313999176025391
41.238311767578125 -9.8119049072265625 30.9680919647216797
-17.5648212432861328 -20.4687995910644531 -35.5198860168457031
-28.3097629547119141 -0.424238622188568115 40.4603195190429688
31.3086414337158203 -20.6044445037841797 24.9975833892822266
-55.4027938842773438 33.6309471130371094 -17.2274150848388672
-9.41634559631347656 -20.8609695434570312 -8.87271308898925781
-49.5824928283691406 27.4758071899414062 30.1593418121337891
51.1714668273925781 14.4885568618774414 31.8150882720947266
28.9822196960449219 -20.0211429595947266 -22.7842121124267578
32.8301277160644531 -17.9928493499755859 -28.9898662567138672
-21.8624820709228516 -20.4027843475341797 0.808256387710571289
-38.5365219116210938 4.37642240524291992 36.5993576049804688
-33.0251197814941406 10.1639318466186523 -39.9320487976074219
-23.7993927001953125 -2.58906292915344238 42.5822334289550781
15.2447805404663086 -10.4976387023925781 -48.7584648132324219
38.7314033508300781 -8.89925098419189453 -28.2889499664306641
-49.127288818359375 22.2574024200439453 -20.3373870849609375
-49.9965095520019531 32.4260368347167969 -30.972259521484375
-48.2796745300292969 22.8188247680664062 -33.8252296447753906
14.6475248336791992 30.0935325622558594 -56.9068107604980469
46.6650733947753906 23.9131221771240234 30.8176784515380859
27.6073665618896484 3.39508318901062012 42.5099830627441406
-5.99909448623657227 -15.2350368499755859 45.049774169921875
55.6207656860351562 6.49027204513549805 -9.49408340454101562
-27.7238979339599609 -21.0554351806640625 -26.3011569976806641
-23.3789901733398438 -20.3429775238037109 -9.95293998718261719
10.794550895690918 24.6734104156494141 -54.9065589904785156
6.20314884185791016 13.8881158828735352 59.4449958801269531
-6.22853660583496094 30.7615165710449219 59.2370872497558594
-26.1067066192626953 -19.2934913635253906 21.2845897674560547
-29.8113517761230469 -22.7404899597167969 17.2306919097900391
42.0312576293945312 4.28016376495361328 37.257720947265625
-25.3877983093261719 -28.7274208068847656 -14.7432880401611328
-24.6838836669921875 -19.2884883880615234 23.1270732879638672
-34.3843955993652344 -18.1030292510986328 -9.97077178955078125
26.932830810546875 22.0272769927978516 54.1948699951171875
-17.1272983551025391 -20.5756454467773438 2.32488584518432617
55.93408203125 4.4354243278503418 -1.93760275840759277
-36.2181205749511719 -19.0394420623779297 -18.4980640411376953
47.4460372924804688 13.1214590072631836 36.8571586608886719
57.7874832153320312 19.3446216583251953 -17.99481201171875
-11.4000883102416992 13.2578277587890625 -58.3367767333984375
-33.3730049133300781 29.2272148132324219 -49.6609077453613281
11.1207561492919922 14.3546562194824219 -59.0487861633300781
-26.6150913238525391 22.3847827911376953 -47.2379951477050781
-43.6649932861328125 -13.0574007034301758 15.433192253112793
-28.0874214172363281 -20.1956272125244141 -7.114776611328125
15.9361238479614258 -18.0446395874023438 40.6252670288085938
-21.9736442565917969 -20.9517459869384766 -31.7777214050292969
27.8586158752441406 -22.0017929077148438 25.5492515563964844
-51.5427360534667969 23.2303791046142578 -13.375676155090332
-18.0024166107177734 23.8542594909667969 -51.8246536254882812
38.4716758728027344 -17.5803794860839844 10.8453874588012695
-34.7834930419921875 32.2710418701171875 47.2365570068359375
2.39099693298339844 -24.7721233367919922 15.1820182800292969
-57.8645286560058594 22.0517864227294922 -3.49204802513122559
19.8780498504638672 16.8204212188720703 49.3453712463378906
-13.1734371185302734 -10.7707920074462891 -43.9868316650390625
-15.8339290618896484 21.9489250183105469 57.3600082397460938
-10.0368375778198242 28.4477252960205078 54.3510894775390625
-27.95770263671875 -13.3441429138183594 -32.8930854797363281
-30.8795433044433594 -17.9014854431152344 -19.8601799011230469
19.7744064331054688 11.602656364440918 55.4430809020996094
-0.319564372301101685 31.5207805633544922 58.8344078063964844
-47.2509765625 13.0290822982788086 -33.4174156188964844
41.9026565551757812 -6.02539348602294922 23.8747787475585938
56.272735595703125 21.5636806488037109 -22.9787845611572266
31.4750022888183594 16.9820518493652344 51.3834953308105469
-46.9094161987304688 9.2518157958984375 -21.1376457214355469
-1.81415688991546631 -3.20221900939941406 -49.6541252136230469
-13.3679046630859375 -24.5913047790527344 -11.0271768569946289
-15.6731700897216797 3.24043464660644531 47.7288856506347656
-35.9378242492675781 21.3127250671386719 -47.5356864929199219
-47.4957618713378906 15.5096759796142578 32.3687553405761719
-22.1731700897216797 13.5333395004272461 -47.796234130859375
25.2593784332275391 25.4410133361816406 -50.6742591857910156
24.5486354827880859 7.27818632125854492 51.0478286743164062
55.1687088012695312 17.89447021484375 24.8927001953125
-45.0298423767089844 -2.07416200637817383 -27.3969478607177734
-19.4622383117675781 -4.51318120956420898 -44.8276710510253906
-50.4344444274902344 13.7358264923095703 -28.7678432464599609
43.1652946472167969 3.36522150039672852 26.9995899200439453
-38.2067604064941406 -15.4670476913452148 -24.0685634613037109
6.71238374710083008 -20.2551231384277344 -34.7218856811523438
-51.9134788513183594 6.17929553985595703 -14.7208967208862305
-47.2436790466308594 -6.80384063720703125 1.43665432929992676
-41.2104148864746094 28.3740806579589844 -42.8797492980957031
43.4197540283203125 3.59737396240234375 26.6875896453857422
45.88995361328125 -10.8803749084472656 -7.13384103775024414
40.7632942199707031 -4.8032832145690918 34.9754066467285156
-15.2755498886108398 -10.9290409088134766 -47.6561012268066406
-36.9880409240722656 -1.85428345203399658 -38.4922256469726562
-49.2807083129882812 20.1206607818603516 -32.0010795593261719
22.7353916168212891 -25.2060451507568359 -10.5406036376953125
-47.6958351135253906 18.3938064575195312 -22.2956619262695312
-35.6312370300292969 -21.9368839263916016 3.88719654083251953
39.1201667785644531 8.62778377532958984 -40.5858230590820312
15.1540298461914062 -16.1403255462646484 37.7002716064453125
30.5344295501708984 -26.1782474517822266 15.8381567001342773
-9.81810188293457031 -27.5876693725585938 -31.9196186065673828
58.6102294921875 28.2179126739501953 -9.35491180419921875
54.1069526672363281 -2.51416778564453125 2.71587681770324707
-37.6363906860351562 -2.89836382865905762 -31.6714134216308594
5.29391717910766602 -24.4037399291992188 -17.1860103607177734
43.3339996337890625 16.8058319091796875 -33.951446533203125
11.3657608032226562 -10.806818962097168 -49.5619354248046875
31.8209609985351562 -9.28405952453613281 40.8023185729980469
-0.695167064666748047 2.37282180786132812 54.9421653747558594
8.69228458404541016 -15.602015495300293 -45.9092826843261719
41.6275482177734375 -17.1977882385253906 -16.6795711517333984
51.4501152038574219 23.92474365234375 -25.0243148803710938
32.3416824340820312 -9.99720382690429688 32.9122848510742188
-48.0029869079589844 14.9576473236083984 -20.2334365844726562
-42.6797027587890625 4.04774570465087891 -27.5085887908935547
-9.77775287628173828 -21.3572978973388672 24.2167377471923828
34.395477294921875 -20.6373500823974609 7.23934555053710938
44.7068710327148438 -13.5140104293823242 -17.9780464172363281
-2.83554172515869141 -28.1687545776367188 25.6259937286376953
52.9579238891601562 10.2475395202636719 -3.44297528266906738
18.1488819122314453 -2.45884418487548828 50.9815101623535156
-46.4904670715332031 8.45952129364013672 20.8534603118896484
30.4534168243408203 -27.4041824340820312 -16.3833999633789062
-14.4265584945678711 4.11292839050292969 48.2901191711425781
-13.6543006896972656 -24.9433383941650391 10.8308954238891602
-17.8319435119628906 -20.4788265228271484 -0.229608491063117981
-39.1636886596679688 -19.6844844818115234 -2.87894773483276367
-28.0217494964599609 21.1936492919921875 45.0712242126464844
-56.3941268920898438 12.141749382019043 2.71447134017944336
-11.5598812103271484 -12.7244043350219727 41.8114013671875
30.0188999176025391 -12.2261018753051758 -39.8853378295898438
-37.2694664001464844 0.901776254177093506 -39.2005043029785156
-37.9485588073730469 -2.14641952514648438 -37.2946548461914062
-22.0466766357421875 8.81521797180175781 -51.8584022521972656
6.37915372848510742 -23.9347896575927734 33.3150596618652344
-54.9119300842285156 11.801487922668457 -11.9385986328125
-1.65659570693969727 -6.25581598281860352 -52.8623161315917969
50.8535079956054688 2.76028633117675781 22.9185829162597656
49.3240089416503906 5.09261941909790039 -17.420745849609375
28.3408432006835938 -3.30244350433349609 -46.1766510009765625
48.4850959777832031 28.5659294128417969 35.5276756286621094
-44.6247062683105469 33.4259262084960938 -37.87249755859375
-55.2825927734375 33.8677215576171875 -7.27257966995239258
5.17816257476806641 -24.3060626983642578 -14.9090051651000977
-18.5142288208007812 18.5002403259277344 -57.0933418273925781
18.1556911468505859 -21.4853763580322266 -34.4939346313476562
33.1084632873535156 -21.4803485870361328 20.1480331420898438
-53.4811019897460938 32.4153900146484375 12.871485710144043
-5.20736551284790039 -24.4462738037109375 -3.96563577651977539
-13.3170633316040039 -20.6557273864746094 -4.41351509094238281
51.3843994140625 11.7872085571289062 13.2301921844482422
28.9840717315673828 -20.7504425048828125 -27.5131816864013672
25.9413242340087891 -27.3326034545898438 21.6315059661865234
20.8422508239746094 2.78862261772155762 45.9389076232910156
40.7467727661132812 23.2632846832275391 -45.3694839477539062
3.80457091331481934 16.5224723815917969 59.5980911254882812
21.6575927734375 -22.3600044250488281 -22.4927616119384766
-2.80959296226501465 -21.6685829162597656 -26.1643447875976562
38.2428855895996094 -8.28380203247070312 35.6916313171386719
15.9073190689086914 -21.9037952423095703 -27.8737678527832031
-21.4447460174560547 14.4897489547729492 -48.3377456665039062
-38.3356475830078125 -20.0612106323242188 -6.53909683227539062
50.0103302001953125 3.13343405723571777 -23.7578125
10.4202070236206055 -2.50064730644226074 47.8638687133789062
-13.9541435241699219 -22.3761005401611328 32.5725631713867188
-14.0625782012939453 -28.4076271057128906 -28.3473167419433594
34.9360504150390625 29.046783447265625 49.3060569763183594
-22.3632411956787109 -17.1391468048095703 -31.5884380340576172
44.3308868408203125 23.9637451171875 41.7101821899414062
7.77578067779541016 -27.8232002258300781 32.0350799560546875
-19.0153026580810547 18.4575119018554688 49.1678085327148438
39.02777099609375 -19.4947128295898438 -14.5054512023925781
4.19605684280395508 -24.2761726379394531 -13.8944215774536133
58.8123283386230469 15.5146989822387695 -12.700927734375
-52.0101661682128906 17.9785633087158203 5.22890424728393555
52.7870635986328125 -3.83845305442810059 -9.13204097747802734
43.7536430358886719 14.4321832656860352 30.5095310211181641
-44.5987701416015625 -5.32169389724731445 -18.2825279235839844
-26.2414073944091797 2.01873683929443359 47.1273155212402344
38.4725532531738281 -10.1835441589355469 -32.9903640747070312
-22.5521221160888672 -20.3269138336181641 -8.10428047180175781
55.6558761596679688 8.58848190307617188 14.3888111114501953
-33.5636329650878906 20.8431110382080078 48.2639656066894531
-10.4975500106811523 10.1854209899902344 -56.0800857543945312
-9.62856483459472656 -24.6171360015869141 6.81890058517456055
-52.8120918273925781 21.3137264251708984 -0.44487878680229187
15.4461479187011719 -21.0007362365722656 -30.5632724761962891
34.4750633239746094 7.89811944961547852 -44.9331283569335938
40.3305587768554688 -9.44660091400146484 -25.3246002197265625
37.3814430236816406 1.14133191108703613 40.9349288940429688
39.6243324279785156 -10.9502897262573242 -24.8399372100830078
2.23893308639526367 -19.7494487762451172 -35.8863182067871094
23.7680892944335938 -23.1434516906738281 -10.1003541946411133
37.5830764770507812 -15.678253173828125 18.7335720062255859
53.1183891296386719 17.6040534973144531 -28.7008876800537109
16.1211605072021484 15.4946937561035156 57.7402305603027344
35.1296958923339844 -18.5589962005615234 -24.7201652526855469
24.7710952758789062 -23.0828742980957031 -1.02281773090362549
-18.4666347503662109 10.414790153503418 52.4161720275878906
-21.3058071136474609 -25.4223346710205078 2.8408958911895752
-7.49953842163085938 -26.80206298828125 22.3910274505615234
-18.0318470001220703 29.5742893218994141 56.866546630859375
46.1511039733886719 25.3506889343261719 32.2475051879882812
-52.77239990234375 21.1738510131835938 -1.62954616546630859
20.3228492736816406 14.415095329284668 -49.6959571838378906
-7.97577810287475586 -10.935999870300293 -45.2237281799316406
7.93285942077636719 15.0606002807617188 51.9577484130859375
52.15191650390625 8.36391448974609375 23.9330024719238281
-49.1843452453613281 4.02396202087402344 -12.0941638946533203
-31.364288330078125 4.58555793762207031 -45.4910774230957031
1.99007642269134521 2.06198859214782715 54.9081306457519531
-49.3074417114257812 4.81898927688598633 11.1168498992919922
22.1122035980224609 -27.4469490051269531 -20.0440464019775391
3.22884011268615723 -26.1994895935058594 -27.1964092254638672
0.773929178714752197 -26.1765613555908203 -27.2396011352539062
-9.08564376831054688 28.500396728515625 59.19537353515625
-26.4366092681884766 -20.3682823181152344 13.3503684997558594
32.4905166625976562 -24.3289089202880859 14.0896244049072266
2.20615100860595703 3.20086574554443359 -51.1420783996582031
55.0177803039550781 1.34437370300292969 -3.64641857147216797
60.1216888427734375 15.6648359298706055 -4.23069000244140625
-8.43090057373046875 -2.34704136848449707 -49.0488929748535156
54.7740249633789062 21.3586616516113281 10.2380294799804688
-0.58850252628326416 0.355422109365463257 54.4826278686523438
40.5343132019042969 25.7288436889648438 -40.68890380859375
-15.3912277221679688 -24.6919116973876953 0.230110123753547668
-12.6938266754150391 -10.7593984603881836 -48.6019325256347656
3.43372440338134766 1.54600274562835693 54.7366485595703125
-4.33229684829711914 -11.1672706604003906 -50.0761566162109375
-54.9855422973632812 33.6615257263183594 -8.2678375244140625
-2.76239132881164551 12.6274147033691406 -59.0781326293945312
54.9019355773925781 22.6139678955078125 26.3413505554199219
2.49341750144958496 -22.8310222625732422 -36.9650993347167969
9.48677730560302734 -4.06862163543701172 -53.0144729614257812
42.5711936950683594 13.3434305191040039 -42.2839584350585938
25.2570972442626953 17.5892314910888672 47.1816787719726562
12.9084196090698242 16.7827415466308594 -58.8263664245605469
45.1716766357421875 3.17078852653503418 -25.7271366119384766
-29.9770660400390625 11.2168474197387695 -48.1369705200195312
58.1282501220703125 9.00048637390136719 2.81950902938842773
-0.594321668148040771 16.5967655181884766 59.6297760009765625
-49.4655532836914062 4.38531398773193359 -11.0632104873657227
52.2957115173339844 13.3016719818115234 -29.1479816436767578
-28.759368896484375 -25.0834293365478516 13.6843843460083008
-50.5051307678222656 25.225341796875 17.4813652038574219
-39.6165580749511719 -13.7111482620239258 13.5701656341552734
7.46394538879394531 -20.1952896118164062 38.9790420532226562
4.52284955978393555 13.2088661193847656 -52.9471626281738281
58.167144775390625 16.3057842254638672 -15.5569095611572266
-50.3157196044921875 3.99445700645446777 -4.86527490615844727
-35.5358047485351562 -17.7611122131347656 -7.75215911865234375
-39.5117530822753906 -11.3446636199951172 -20.56982421875
36.3620796203613281 -19.6153507232666016 20.4156246185302734
-26.2579021453857422 4.38077974319458008 -48.8493614196777344
26.3218307495117188 -27.8402156829833984 11.1011438369750977
-45.5771446228027344 -7.38123750686645508 -21.8242969512939453
41.2996063232421875 -14.3156623840332031 25.0268363952636719
28.4758968353271484 -26.0550365447998047 -19.9866657257080078
5.82706642150878906 -18.6529998779296875 -37.7954521179199219
11.4635181427001953 -28.4672679901123047 24.9926948547363281
16.4157905578613281 -22.5189609527587891 13.6829462051391602
33.2283248901367188 -0.1973714679479599 -38.7453880310058594
13.1014089584350586 -5.40431642532348633 51.4053459167480469
-40.5653152465820312 27.8274002075195312 -43.5274467468261719
-42.89739990234375 4.35295915603637695 -33.8004035949707031
21.5537872314453125 -20.3882579803466797 -34.4008102416992188
-37.0030784606933594 6.84618711471557617 34.6524887084960938
18.7075767517089844 -18.7505722045898438 38.1199951171875
-14.7145566940307617 -24.9189624786376953 8.99874114990234375
19.6906471252441406 -27.8854084014892578 -23.5126457214355469
38.9550132751464844 -1.2323068380355835 -32.7984275817871094
-51.9490509033203125 18.3716640472412109 -7.0976872444152832
-1.30872845649719238 27.0174751281738281 -56.1776924133300781
14.9866352081298828 -24.4830818176269531 -14.3918724060058594
24.7424640655517578 -26.0511722564697266 23.8651771545410156
-42.2922592163085938 30.2637538909912109 40.9159355163574219
14.9494285583496094 26.6912326812744141 58.62335205078125
-12.607569694519043 -10.1156606674194336 48.2717056274414062
-35.2421035766601562 10.7727594375610352 -38.0146980285644531
40.4891128540039062 -8.28955078125 33.1435890197753906
-24.1341629028320312 24.7699203491210938 48.1500434875488281
8.30191230773925781 23.493927001953125 53.8592491149902344
55.4250831604003906 2.21911072731018066 1.50547027587890625
42.3214950561523438 16.6669960021972656 -43.0390586853027344
-31.2615890502929688 9.77428054809570312 -46.7746696472167969
-54.4961814880371094 30.446075439453125 1.22917056083679199
4.91177988052368164 -24.9525737762451172 17.0853252410888672
-32.3438606262207031 28.7066059112548828 43.8915672302246094
36.8583106994628906 -19.7867641448974609 -3.21284580230712891
-45.4649734497070312 -13.794032096862793 5.93175029754638672
-6.85240793228149414 9.37441730499267578 55.5263938903808594
-3.05095887184143066 -17.8246421813964844 42.7110023498535156
28.1466178894042969 2.65463757514953613 41.9902534484863281
31.0230560302734375 -22.3349132537841797 3.47997951507568359
49.4650802612304688 -10.7302703857421875 -9.60389423370361328
-11.3201055526733398 27.026031494140625 58.7120246887207031
-11.4844913482666016 -24.5212516784667969 -12.5281906127929688
-14.9407672882080078 9.90325832366943359 53.428314208984375
-34.3378982543945312 -21.6811580657958984 -12.6506748199462891
-50.1144485473632812 7.76998043060302734 -21.5307502746582031
-50.3055572509765625 21.997802734375 -16.9590301513671875
22.2129535675048828 -27.8097476959228516 -26.1481742858886719
25.4763908386230469 5.29619503021240234 44.2195854187011719
7.7201385498046875 28.5591011047363281 59.8345489501953125
-45.7847671508789062 27.6296119689941406 -29.3794307708740234
46.9910697937011719 2.50244998931884766 30.0379257202148438
-12.0170183181762695 -22.3734512329101562 33.3894882202148438
-47.2694129943847656 19.3570709228515625 33.254241943359375
-47.7051277160644531 15.1265726089477539 -21.0203342437744141
-52.25830078125 29.3832015991210938 25.5058860778808594
4.20085239410400391 -17.1781463623046875 43.80340576171875
-23.7972049713134766 9.77802753448486328 45.3333740234375
-42.3877029418945312 16.0931968688964844 29.9731941223144531
-34.1359214782714844 -18.8048992156982422 3.31314635276794434
-29.4194355010986328 -8.75273990631103516 -36.3389968872070312
6.75066852569580078 -21.360321044921875 -38.5816764831542969
20.5042552947998047 -24.8702850341796875 6.00119638442993164
53.9978904724121094 19.2710018157958984 10.8775634765625
-8.12858009338378906 -25.2062110900878906 17.4660453796386719
46.4867401123046875 16.9490489959716797 38.5461997985839844
-49.5275917053222656 -0.814083695411682129 -1.26544761657714844
-22.3620109558105469 22.9874973297119141 54.9720191955566406
23.4121608734130859 -0.441202670335769653 49.5460433959960938
-3.87829899787902832 -9.468231201171875 45.7544517517089844
19.4704208374023438 -2.66311073303222656 50.4680824279785156
10.8523187637329102 6.43379116058349609 49.8622512817382812
38.8587226867675781 17.9555683135986328 46.1997032165527344
-52.097198486328125 11.2586746215820312 -19.6290245056152344
-34.0138053894042969 26.2637386322021484 -42.9413337707519531
26.8333263397216797 -19.7670917510986328 -25.6746845245361328
-55.095550537109375 21.2830734252929688 -19.4106235504150391
-39.4458961486816406 26.5008316040039062 43.5257644653320312
-38.2222175598144531 -14.2925472259521484 24.2553768157958984
3.47367429733276367 -18.9435691833496094 35.8479766845703125
52.2198066711425781 -1.63888919353485107 -14.5299701690673828
32.3982048034667969 18.1404933929443359 43.1241531372070312
39.8048515319824219 -11.9954643249511719 -23.2079830169677734
2.66177511215209961 5.97183656692504883 -56.2364120483398438
-3.64719557762145996 -11.4024686813354492 -45.5933265686035156
-31.1234035491943359 5.16182088851928711 -40.5408134460449219
36.41326904296875 -11.8110933303833008 -28.4657955169677734
-40.2295913696289062 -10.8156862258911133 -20.1339111328125
-56.6529159545898438 31.1506156921386719 17.4275779724121094
19.1973018646240234 -24.5710391998291016 -0.976483523845672607
16.9749622344970703 11.7942609786987305 -56.827301025390625
16.8423233032226562 -15.707611083984375 43.1352691650390625
55.5702171325683594 22.7422618865966797 -24.7911872863769531
-39.2336883544921875 8.77528858184814453 37.0843963623046875
33.0744552612304688 -13.0232610702514648 29.2948379516601562
