ply
format ascii 1.0
element vertex 792
comment vertices
property float x
property float y
property float z
end_header
15.9540185928344727 24.8648777008056641 -25.9485950469970703
20.1441383361816406 -7.16526269912719727 -90.9009857177734375
17.9978427886962891 76.23468017578125 110.160499572753906
-7.4445500373840332 99.5840988159179688 -80.3817672729492188
16.5925235748291016 35.0259323120117188 -81.570281982421875
2.43710207939147949 -115.041839599609375 51.5377235412597656
-1.97378659248352051 -107.577552795410156 -48.9461746215820312
22.0097198486328125 67.37506103515625 -68.8249359130859375
19.2241268157958984 -17.2470188140869141 40.2293167114257812
16.2796344757080078 81.752471923828125 31.832427978515625
18.9423027038574219 -74.2727813720703125 16.7997665405273438
16.0790977478027344 -47.0494956970214844 7.73141956329345703
12.7407922744750977 142.3819580078125 14.1550941467285156
18.0695915222167969 2.4702756404876709 121.635414123535156
0.217893838882446289 127.392326354980469 -55.6304206848144531
-2.79465079307556152 -11.8143310546875 138.604248046875
6.4887394905090332 -104.005577087402344 -64.915252685546875
2.08684754371643066 -74.737457275390625 112.036178588867188
17.31201171875 -46.6157417297363281 108.094673156738281
1.51680552959442139 -49.435150146484375 -106.93817138671875
16.7279491424560547 -91.9417037963867188 -8.6939849853515625
14.9850215911865234 -77.5624847412109375 97.0208816528320312
16.2292003631591797 72.1910934448242188 5.44299888610839844
15.9448728561401367 -111.592758178710938 12.7108449935913086
21.21881103515625 25.5553550720214844 -84.1750946044921875
-2.57180333137512207 -28.0029544830322266 142.570388793945312
13.4687480926513672 -90.8790740966796875 79.5852279663085938
16.1748542785644531 48.2222671508789062 -31.4088401794433594
-9.56566524505615234 -125.748832702636719 25.9857769012451172
22.2895927429199219 89.6605224609375 3.05769515037536621
17.4571456909179688 35.1825332641601562 124.922019958496094
13.9957551956176758 140.408737182617188 25.3000926971435547
0.657890200614929199 136.611663818359375 21.1557121276855469
-0.970615744590759277 46.2318458557128906 -113.865463256835938
6.35734272003173828 -125.475700378417969 25.6116218566894531
19.0666427612304688 -65.2640838623046875 -6.24698257446289062
13.7351799011230469 125.556869506835938 -29.3907299041748047
15.9452447891235352 -39.4131698608398438 84.63885498046875
13.6403999328613281 61.6465911865234375 116.982086181640625
10.3603496551513672 102.900802612304688 -78.136077880859375
-3.56776785850524902 52.6288719177246094 -117.98828125
-5.19891262054443359 -128.376068115234375 -3.22353839874267578
19.7725086212158203 -37.6599311828613281 -60.8680534362792969
11.8094406127929688 -63.0713233947753906 117.147659301757812
20.4657192230224609 39.2880439758300781 73.7395858764648438
20.4121112823486328 8.17832374572753906 -56.7500457763671875
14.4929265975952148 126.655708312988281 66.8267669677734375
19.1550502777099609 -44.3268051147460938 8.30192661285400391
3.38882184028625488 -29.2347812652587891 135.580245971679688
-1.91289389133453369 37.6079292297363281 -116.05084228515625
14.8293600082397461 28.8147087097167969 120.792671203613281
16.5213623046875 -75.1677932739257812 -11.0306062698364258
19.3634204864501953 -9.69882583618164062 88.3296585083007812
16.6173648834228516 100.867256164550781 34.6248779296875
17.7344589233398438 70.718994140625 -99.52642822265625
19.7190399169921875 48.0885734558105469 109.852439880371094
19.6341991424560547 5.68457698822021484 54.5935821533203125
9.40066242218017578 -117.456962585449219 51.1331024169921875
11.4652605056762695 -114.369331359863281 -30.419677734375
16.0893917083740234 -30.9341373443603516 -20.4728221893310547
5.6492009162902832 145.263671875 11.2098684310913086
12.6756219863891602 98.7166595458984375 -76.4387588500976562
-6.93994808197021484 121.173606872558594 -62.1247787475585938
-8.09760570526123047 -85.2361373901367188 -80.0041961669921875
21.4906349182128906 65.532806396484375 -1.60725641250610352
19.152069091796875 -27.2994709014892578 98.2182388305664062
19.6922740936279297 17.17144775390625 16.3995552062988281
15.7254123687744141 -27.9650554656982422 107.905303955078125
11.6597967147827148 -6.62146520614624023 -116.307266235351562
16.1307144165039062 -90.5950927734375 -41.6176223754882812
9.87854862213134766 134.020828247070312 40.1896018981933594
12.8633737564086914 -90.7782669067382812 -67.8934402465820312
-3.96932268142700195 127.702117919921875 77.8170394897460938
15.7605075836181641 47.6977310180664062 128.271697998046875
21.5021800994873047 42.9413719177246094 -67.81011962890625
16.3889446258544922 69.8814620971679688 -32.6691627502441406
20.5421543121337891 98.1525192260742188 77.7194671630859375
16.1062183380126953 112.183700561523438 -34.3564720153808594
15.8937931060791016 48.4367599487304688 20.7885360717773438
2.47495794296264648 -97.6087722778320312 -66.323486328125
22.0176582336425781 100.41259765625 -49.6171340942382812
-10.5616436004638672 -76.3962554931640625 -90.9668960571289062
-11.0715160369873047 88.1448745727539062 -92.9238662719726562
-1.80554783344268799 70.411865234375 -103.402885437011719
0.48875194787979126 -113.822830200195312 -35.3304252624511719
1.45991480350494385 -117.857147216796875 41.7061843872070312
22.4787998199462891 100.216278076171875 8.90723800659179688
17.238067626953125 89.3073348999023438 104.389739990234375
1.07793855667114258 127.164619445800781 60.7612648010253906
5.43893575668334961 124.595382690429688 67.8344192504882812
-10.7611293792724609 91.6357498168945312 -90.4250564575195312
-2.52611017227172852 14.2369041442871094 139.842056274414062
18.9201221466064453 -63.3908195495605469 17.7081184387207031
16.5797061920166016 4.9435429573059082 -83.266693115234375
15.839604377746582 -28.8998069763183594 105.247901916503906
18.642425537109375 -79.1436691284179688 33.2164230346679688
15.861811637878418 30.6070499420166016 131.22320556640625
21.1191539764404297 45.234222412109375 -35.8785972595214844
16.0309047698974609 -67.4607009887695312 82.6169052124023438
-7.50056982040405273 -112.615821838378906 -37.3702774047851562
15.7611608505249023 38.9886360168457031 15.2473411560058594
20.2173576354980469 -8.46461868286132812 -66.0795440673828125
1.76170873641967773 24.9531574249267578 -125.232002258300781
19.9982147216796875 131.0255126953125 18.7236251831054688
16.31707763671875 82.0627670288085938 16.4573535919189453
15.960932731628418 -32.8119850158691406 -0.781993448734283447
-7.74178838729858398 142.856094360351562 23.7091121673583984
21.8536205291748047 121.159248352050781 0.664103448390960693
13.2847833633422852 25.8972740173339844 128.8431396484375
16.2451763153076172 68.435760498046875 -11.3586635589599609
17.6071224212646484 -57.0453605651855469 98.2342910766601562
19.16790771484375 -21.5465126037597656 25.7761993408203125
16.6514244079589844 60.2996101379394531 -106.659370422363281
19.721343994140625 -23.6668033599853516 -45.75653076171875
18.7519359588623047 -58.3047904968261719 -75.9974365234375
20.7601146697998047 51.146270751953125 64.1536865234375
6.09319162368774414 78.3197250366210938 125.866294860839844
15.0832042694091797 81.1924819946289062 97.0093841552734375
19.0034065246582031 -71.9105758666992188 11.4679622650146484
-0.509632408618927002 -57.1602249145507812 130.799270629882812
16.0528850555419922 62.8379554748535156 55.3175125122070312
20.6047382354736328 45.9856796264648438 75.8237457275390625
21.3719902038574219 37.4281272888183594 -66.2257232666015625
15.9403696060180664 102.163803100585938 64.128814697265625
16.0672721862792969 56.9597396850585938 1.31121265888214111
21.7070693969726562 96.8087234497070312 -58.3069229125976562
12.3656883239746094 -41.7435874938964844 -105.828727722167969
21.5383491516113281 93.3309555053710938 -63.8414649963378906
17.2137546539306641 32.339752197265625 -112.623481750488281
16.55450439453125 -21.2455177307128906 -87.2083892822265625
18.9660186767578125 -56.8697853088378906 49.0495414733886719
16.5148658752441406 92.5954513549804688 11.4597549438476562
22.0351200103759766 85.1314163208007812 4.65824747085571289
15.8447685241699219 -87.115966796875 80.7910919189453125
18.862091064453125 -74.3146286010742188 22.9277362823486328
5.78537368774414062 -40.9435195922851562 135.154983520507812
21.7085914611816406 53.7052726745605469 -61.3205680847167969
10.0437822341918945 86.1667709350585938 112.704971313476562
16.2624092102050781 -23.7220420837402344 -54.3613853454589844
12.3126344680786133 139.285171508789062 37.8438148498535156
19.6999282836914062 -46.4854049682617188 -70.5855712890625
19.9238548278808594 21.7155342102050781 55.1978721618652344
-10.4474563598632812 -116.192085266113281 -37.7267303466796875
21.1756381988525391 41.2012405395507812 -87.7094650268554688
-10.3014955520629883 124.011871337890625 67.8377227783203125
-0.354806721210479736 -15.5733938217163086 145.382949829101562
-4.73293876647949219 31.2181968688964844 -123.273139953613281
16.1768436431884766 71.1895370483398438 16.0937042236328125
-4.99513101577758789 134.632553100585938 62.39056396484375
-4.39833831787109375 -119.929801940917969 -39.3751220703125
15.6966419219970703 -8.70622730255126953 44.9020919799804688
19.7874393463134766 88.8729248046875 91.6761093139648438
0.653028786182403564 -60.0675697326660156 -108.818130493164062
-4.74581336975097656 -65.6215744018554688 125.369834899902344
22.3565578460693359 88.284271240234375 -13.4574003219604492
22.5820827484130859 109.395736694335938 2.09306955337524414
13.7714395523071289 128.607223510742188 -18.1551570892333984
-8.12792587280273438 -119.5557861328125 -13.5157632827758789
15.2102985382080078 110.399612426757812 -47.7854080200195312
21.5168609619140625 123.815147399902344 6.11658859252929688
16.3737087249755859 35.0710411071777344 -65.2149810791015625
16.6153278350830078 -62.6936416625976562 -43.2645606994628906
14.3719654083251953 40.9005012512207031 132.741683959960938
12.7537269592285156 -93.920440673828125 86.6015167236328125
16.3626976013183594 -9.01733970642089844 -72.0402679443359375
21.4087238311767578 118.143028259277344 36.8370590209960938
16.8085708618164062 -76.4669952392578125 -36.4797859191894531
-10.703455924987793 -11.1417303085327148 -118.575859069824219
-8.58081817626953125 13.9296684265136719 -118.679359436035156
20.5081119537353516 39.6804389953613281 87.366424560546875
8.27412796020507812 76.0433731079101562 125.717025756835938
13.9594364166259766 20.9515228271484375 126.746414184570312
16.6363544464111328 85.2446670532226562 -31.9880619049072266
16.7964916229248047 109.480682373046875 -7.90658044815063477
17.7825164794921875 -98.5886917114257812 26.1468906402587891
15.6422271728515625 -13.2455005645751953 27.1441783905029297
1.67792081832885742 -85.2091217041015625 102.440483093261719
-12.4149913787841797 71.4466934204101562 125.299552917480469
17.8160533905029297 -17.4114570617675781 -106.33447265625
1.23668551445007324 2.74841475486755371 140.59344482421875
15.8093700408935547 -101.224365234375 31.9455280303955078
16.3482131958007812 -54.1585693359375 -31.8521060943603516
19.6949825286865234 13.5573129653930664 39.9066162109375
18.7295799255371094 -31.2662887573242188 -95.3106613159179688
2.20069599151611328 38.9095573425292969 143.621978759765625
16.1873989105224609 -39.113555908203125 -87.7674713134765625
20.8612136840820312 33.2198638916015625 -36.4193344116210938
19.0444507598876953 -55.9420280456542969 -4.56990766525268555
16.1249790191650391 82.2676010131835938 -96.642486572265625
-7.15158224105834961 99.9586868286132812 -87.4801254272460938
4.35234832763671875 -111.029922485351562 -43.2607765197753906
8.18919181823730469 -50.4022903442382812 -107.146942138671875
5.04643821716308594 32.8809585571289062 143.267425537109375
16.1220359802246094 58.6050643920898438 90.2166748046875
20.3380470275878906 37.3082389831542969 37.6530303955078125
16.1196212768554688 -59.7096443176269531 40.299560546875
16.1239566802978516 -9.7096710205078125 -46.9252510070800781
18.9155807495117188 -46.1376800537109375 44.4811897277832031
-9.72929096221923828 95.0453872680664062 -89.36328125
-9.52225685119628906 140.153182983398438 -2.50774669647216797
16.3616809844970703 -65.410614013671875 -15.192413330078125
19.7117023468017578 -37.0323257446289062 -56.3189163208007812
18.8121738433837891 -56.4412040710449219 77.3005218505859375
15.8275060653686523 11.1980361938476562 93.7171249389648438
-6.84979581832885742 118.571083068847656 75.1325454711914062
-0.0942727029323577881 136.78216552734375 16.7470226287841797
16.7839450836181641 101.343330383300781 -32.2597808837890625
16.0151100158691406 -40.1727485656738281 8.30047988891601562
16.8269329071044922 -75.0299148559570312 -39.24908447265625
16.2144603729248047 111.207374572753906 -34.0560188293457031
-10.857569694519043 -12.7575082778930664 -120.347175598144531
16.8431377410888672 107.8853759765625 -7.17254829406738281
5.72981643676757812 81.2793502807617188 -105.692070007324219
18.7220649719238281 17.4085521697998047 118.540206909179688
16.8599910736083984 103.11859130859375 -15.3593158721923828
2.88303899765014648 12.6819295883178711 -126.267127990722656
16.8230381011962891 33.8728179931640625 128.016311645507812
19.2623538970947266 -15.8387479782104492 4.29863500595092773
1.26334333419799805 134.188796997070312 38.2327423095703125
18.0324172973632812 -94.5480117797851562 31.6341400146484375
11.8536176681518555 42.1931838989257812 135.96630859375
15.2580270767211914 -11.6518182754516602 -103.381797790527344
-5.8557887077331543 127.604873657226562 76.4631195068359375
15.9500541687011719 119.291702270507812 27.3638515472412109
16.2176837921142578 61.1214942932128906 -83.263885498046875
19.3234405517578125 -6.56145286560058594 29.3583755493164062
-10.4988470077514648 1.09722232818603516 -122.164802551269531
4.49988746643066406 -127.146430969238281 17.3147430419921875
15.7671260833740234 -17.3865203857421875 64.6549301147460938
12.2649688720703125 33.446929931640625 137.309005737304688
15.8580036163330078 -24.7977981567382812 85.5782089233398438
19.186981201171875 -72.4254302978515625 -22.2589302062988281
20.6154861450195312 3.05564045906066895 -83.3661956787109375
20.7068767547607422 47.7270622253417969 80.155975341796875
-3.25093674659729004 -10.3262510299682617 138.79437255859375
20.8041057586669922 50.7508468627929688 95.5458145141601562
21.2576847076416016 61.5251388549804688 12.1422891616821289
21.5110893249511719 62.6986885070800781 -22.3698368072509766
6.73939037322998047 1.61212003231048584 -125.14129638671875
15.2717170715332031 36.5511436462402344 115.547348022460938
-3.95355796813964844 141.3974609375 -17.0125408172607422
-1.66271519660949707 -111.082160949707031 -41.556610107421875
16.1621379852294922 -59.6427001953125 76.2257003784179688
16.2162227630615234 -3.57239151000976562 -59.6302871704101562
16.1026096343994141 -34.5631065368652344 -21.1474285125732422
15.9409713745117188 39.85919189453125 95.8339614868164062
14.9223213195800781 -4.53985166549682617 -106.054168701171875
-10.0811309814453125 -118.88818359375 -22.885986328125
-0.119611077010631561 60.9206047058105469 137.139999389648438
16.5457954406738281 83.3322219848632812 -62.9053916931152344
13.1568498611450195 122.241531372070312 -41.0479583740234375
19.4436225891113281 -55.0635261535644531 -44.4765205383300781
18.8569259643554688 -81.7873764038085938 -3.90795636177062988
16.3960399627685547 -25.7190227508544922 -89.2189254760742188
-7.38196039199829102 -114.463890075683594 69.4683990478515625
7.00895500183105469 -65.45855712890625 117.73773193359375
20.1909542083740234 -14.1900548934936523 -70.4918670654296875
19.3453159332275391 -36.3021316528320312 -16.6139278411865234
2.39117741584777832 44.4916610717773438 -121.461357116699219
19.1174373626708984 -23.7629146575927734 69.4674835205078125
4.9725651741027832 137.11639404296875 21.3457088470458984
15.7171230316162109 22.2261066436767578 -100.553375244140625
11.8465700149536133 -44.7061080932617188 123.113410949707031
15.9426717758178711 -1.37969720363616943 -29.0272159576416016
16.4983119964599609 121.71441650390625 70.3941574096679688
16.884521484375 -10.7263078689575195 125.530021667480469
-10.3628463745117188 -120.439064025878906 -25.3318462371826172
-3.2661597728729248 -115.658302307128906 -28.6653404235839844
21.0739212036132812 62.4001274108886719 89.8843002319335938
16.1079597473144531 -35.0221519470214844 -17.1523857116699219
20.0564174652099609 4.81220912933349609 -30.172027587890625
16.6820068359375 -101.056053161621094 -35.90631103515625
19.4593257904052734 62.1515083312988281 108.210891723632812
-9.05692577362060547 134.7076416015625 54.8187637329101562
20.4024639129638672 88.7312545776367188 -77.6606979370117188
13.6776933670043945 -0.736744344234466553 -111.516952514648438
18.9316368103027344 -43.6512489318847656 48.3885536193847656
-10.8928604125976562 130.286346435546875 55.2641525268554688
20.4304790496826172 38.3361587524414062 84.9212417602539062
21.9412765502929688 73.5105514526367188 -68.4497604370117188
16.0686111450195312 10.6432104110717773 -43.4747047424316406
16.1047649383544922 66.7478485107421875 69.7826461791992188
15.6339387893676758 121.547431945800781 27.2131805419921875
-6.33713865280151367 20.6401729583740234 138.54840087890625
-7.13096427917480469 38.1150703430175781 135.331741333007812
21.6606082916259766 85.1467132568359375 59.2174720764160156
20.2686557769775391 99.833984375 78.7287673950195312
16.576751708984375 86.3322982788085938 -23.5024318695068359
18.916107177734375 133.25848388671875 24.6930580139160156
20.5592384338378906 97.2198944091796875 78.3977813720703125
-7.01910924911499023 102.598533630371094 -77.39642333984375
16.1617679595947266 -95.5094223022460938 -30.4152927398681641
17.9911861419677734 -95.6309967041015625 -27.516265869140625
15.8178291320800781 15.9069061279296875 86.5368728637695312
14.233795166015625 -87.1331787109375 -73.8335113525390625
9.50756931304931641 137.428573608398438 19.2352180480957031
19.8514041900634766 18.3386173248291016 76.910308837890625
21.4702014923095703 38.3383750915527344 -79.8873367309570312
-3.68491840362548828 -75.1244277954101562 118.841285705566406
15.4227943420410156 70.5251693725585938 101.015090942382812
-10.8136310577392578 13.0354804992675781 -121.803909301757812
21.3312911987304688 106.955337524414062 58.4438400268554688
-10.5813169479370117 -2.88231253623962402 144.340621948242188
8.98807716369628906 -34.4229507446289062 -116.745201110839844
9.92431926727294922 125.349273681640625 65.092437744140625
0.431520611047744751 90.2181396484375 110.743919372558594
16.6564083099365234 -27.0170116424560547 -81.2376022338867188
15.9023447036743164 -75.93841552734375 93.421661376953125
19.0729942321777344 35.99237060546875 116.148704528808594
15.9096794128417969 -37.0145721435546875 36.861053466796875
-7.3088841438293457 74.7771530151367188 129.281341552734375
15.7116842269897461 13.4214582443237305 -12.3030376434326172
18.6825370788574219 -0.242224052548408508 -106.31695556640625
16.3190402984619141 -73.3072662353515625 23.4413585662841797
16.3792266845703125 -30.5172386169433594 -61.0965232849121094
21.6349735260009766 60.6213951110839844 -40.1580619812011719
16.2035236358642578 52.9599685668945312 -32.8145027160644531
-5.06304168701171875 -92.269805908203125 -82.7995452880859375
17.5501899719238281 31.3639488220214844 124.825401306152344
-0.440600425004959106 -114.545639038085938 -52.1216926574707031
18.4248714447021484 5.25679111480712891 -108.548385620117188
8.79771327972412109 142.706619262695312 -12.785588264465332
20.1719474792480469 8.338653564453125 -35.4318161010742188
12.9544525146484375 -114.42340087890625 45.9166412353515625
-1.31292581558227539 50.82281494140625 132.8331298828125
15.5053396224975586 2.66418623924255371 25.8327522277832031
15.7738218307495117 -21.4534378051757812 26.7100372314453125
-1.95818936824798584 135.13330078125 -9.37371730804443359
16.1517353057861328 75.8491973876953125 84.3268203735351562
-11.6225175857543945 108.80120849609375 92.95208740234375
16.0940074920654297 -111.112640380859375 -2.36071348190307617
-0.785982072353363037 65.6667098999023438 135.134841918945312
15.9317550659179688 138.306930541992188 -11.5132331848144531
21.6781787872314453 63.5786209106445312 -33.9404106140136719
8.28266429901123047 108.143478393554688 100.759498596191406
13.8727893829345703 15.5683355331420898 136.685440063476562
14.5791740417480469 -78.0021209716796875 -73.9017257690429688
16.2299537658691406 -65.4080657958984375 73.8765945434570312
16.5566806793212891 17.9564952850341797 -80.924591064453125
12.7284889221191406 -71.3534927368164062 109.446670532226562
-5.72065973281860352 119.692146301269531 -54.7090606689453125
9.40610980987548828 -77.6411514282226562 105.109176635742188
11.4180421829223633 112.47210693359375 82.743011474609375
6.92480802536010742 23.9799041748046875 139.793304443359375
21.3079643249511719 51.060760498046875 -38.6888580322265625
16.2882823944091797 -67.0935897827148438 3.55716371536254883
14.1619338989257812 5.88326311111450195 126.134117126464844
13.9837484359741211 127.386039733886719 35.6254081726074219
-1.5525658130645752 -120.387290954589844 -8.76465606689453125
16.2173423767089844 -53.8512039184570312 -12.3628988265991211
14.932708740234375 109.370712280273438 91.403045654296875
21.8764991760253906 66.88116455078125 -40.4194793701171875
18.2445659637451172 -94.6425552368164062 -21.4398307800292969
16.6063079833984375 -5.63336849212646484 -84.6882400512695312
-1.48767554759979248 28.3041172027587891 -124.384162902832031
16.4263839721679688 39.8446388244628906 -88.6576919555664062
2.73191308975219727 -128.033889770507812 10.7377986907958984
-1.05959773063659668 102.8204345703125 110.172050476074219
18.5509510040283203 135.567031860351562 7.88944005966186523
-2.20853924751281738 -101.948379516601562 -58.8460121154785156
22.4674892425537109 104.415283203125 -32.313751220703125
11.1543092727661133 110.327674865722656 86.4296646118164062
13.7131624221801758 -106.312446594238281 47.6327705383300781
21.1008682250976562 51.0979690551757812 -19.7360858917236328
16.1852741241455078 -64.1631011962890625 77.8508377075195312
0.33810800313949585 -42.6934127807617188 130.693466186523438
20.4801368713378906 26.7482967376708984 -97.0178604125976562
16.2987804412841797 -38.9511604309082031 -45.6552009582519531
16.0522346496582031 11.9115056991577148 -40.6542892456054688
5.34471559524536133 25.7887916564941406 139.61053466796875
19.7547893524169922 14.9840297698974609 -1.25323247909545898
15.2435274124145508 -46.8008995056152344 107.170616149902344
14.5468244552612305 -108.739265441894531 25.6219654083251953
16.3652286529541016 81.1951675415039062 -2.58426594734191895
-6.45660638809204102 121.934471130371094 69.2466583251953125
-9.05709552764892578 84.4727249145507812 -98.688262939453125
14.949127197265625 -91.0356521606445312 81.8094635009765625
3.27035760879516602 91.4734420776367188 -98.7991180419921875
19.779937744140625 -28.0913047790527344 -54.9962654113769531
18.22454833984375 -62.2005233764648438 86.406646728515625
21.9065837860107422 68.4470138549804688 -43.15423583984375
-2.2592310905456543 -121.415901184082031 17.2906436920166016
16.8927726745605469 19.8953838348388672 128.57354736328125
16.3367710113525391 58.5028572082519531 -41.0072975158691406
3.38305425643920898 -24.1737270355224609 -116.469459533691406
14.3158502578735352 -44.8379783630371094 114.359039306640625
-5.72923755645751953 68.2909469604492188 -103.699325561523438
-10.862767219543457 -50.1480216979980469 -107.182044982910156
7.30386066436767578 -64.2868194580078125 -103.32879638671875
21.7962360382080078 76.418731689453125 -71.1029586791992188
16.5822219848632812 -40.9359397888183594 -102.208450317382812
19.6782093048095703 117.604347229003906 61.9132957458496094
-9.57351970672607422 -126.368972778320312 17.7758617401123047
-0.322624295949935913 130.017074584960938 52.569427490234375
19.9006366729736328 21.7814445495605469 1.66886305809020996
16.6555252075195312 102.240188598632812 30.0392093658447266
16.0693435668945312 45.1928291320800781 -20.3529644012451172
-9.47300148010253906 -90.8903045654296875 -74.9607467651367188
21.226287841796875 66.5801162719726562 73.4308700561523438
15.7096061706542969 -10.2558727264404297 43.7927207946777344
3.98018026351928711 -70.8872756958007812 -100.937080383300781
-2.39616203308105469 136.59771728515625 12.6983909606933594
19.9575233459472656 -25.0636768341064453 -72.8131866455078125
20.8479747772216797 22.5784893035888672 -62.4691429138183594
-3.38639569282531738 -120.675300598144531 23.5247402191162109
16.3512248992919922 12.6966676712036133 -73.0441513061523438
-4.54788446426391602 -116.696388244628906 42.9981842041015625
18.6884441375732422 -81.1462860107421875 33.9373054504394531
20.9478244781494141 53.5556488037109375 22.5183086395263672
19.0648593902587891 -31.3865242004394531 39.0931053161621094
16.2284584045410156 4.42892980575561523 -61.3132438659667969
19.4823398590087891 5.13189840316772461 1.53996658325195312
20.8944053649902344 16.2225914001464844 -77.6605453491210938
19.4632644653320312 -6.94158792495727539 66.52239990234375
18.3525524139404297 -11.672266960144043 -105.255081176757812
-6.2812957763671875 -94.24859619140625 -79.845916748046875
19.4095478057861328 -4.09956741333007812 41.2709121704101562
16.0379390716552734 -53.3774948120117188 48.8188285827636719
-3.5206444263458252 -29.1372051239013672 -120.990325927734375
16.6863307952880859 99.9899826049804688 -39.4080390930175781
15.8180313110351562 -20.3848896026611328 75.0935821533203125
19.938751220703125 31.5495128631591797 -101.330947875976562
22.4935226440429688 101.616996765136719 27.5206050872802734
10.4759359359741211 134.989837646484375 33.8414535522460938
11.5975742340087891 -80.724090576171875 98.8119583129882812
9.88117313385009766 -113.321182250976562 60.7377853393554688
15.5098724365234375 17.5230464935302734 7.0910639762878418
19.3627967834472656 133.647994995117188 7.14084196090698242
22.1531085968017578 114.690872192382812 22.9632225036621094
14.0079307556152344 -112.123344421386719 -12.7226371765136719
15.9877643585205078 -34.49359130859375 -2.74935221672058105
16.2020778656005859 103.964447021484375 94.4747085571289062
21.6153945922851562 73.941864013671875 14.4885416030883789
15.8873252868652344 -27.0201606750488281 0.867805838584899902
-2.68840432167053223 123.806678771972656 -60.7536354064941406
16.3236160278320312 -15.5793361663818359 127.082939147949219
-6.50681257247924805 13.3251657485961914 -124.591537475585938
19.0352993011474609 -78.2047653198242188 -22.4951534271240234
21.7457942962646484 62.7930755615234375 -39.987701416015625
16.4169292449951172 -51.4631271362304688 -42.0688896179199219
21.4233055114746094 63.2692337036132812 -9.85479164123535156
15.8355512619018555 18.4878215789794922 94.8259658813476562
15.4852972030639648 7.06656169891357422 1.97377455234527588
2.51877474784851074 -54.6649208068847656 125.289413452148438
15.8667984008789062 116.710769653320312 38.3532562255859375
15.9262962341308594 48.2100410461425781 57.6214523315429688
20.9563064575195312 20.9235363006591797 -88.7445526123046875
16.9702835083007812 -103.396141052246094 -23.0907230377197266
11.0328207015991211 -32.0160179138183594 129.720687866210938
19.7773170471191406 12.644866943359375 105.583663940429688
5.21154308319091797 -118.5169677734375 39.88336181640625
19.2899570465087891 -37.8478889465332031 -13.9056873321533203
11.8793535232543945 135.342254638671875 -0.781446456909179688
20.9522838592529297 34.7080078125 -47.1215362548828125
16.2805500030517578 -44.103179931640625 -38.6865806579589844
18.8079452514648438 -67.6945724487304688 51.8998756408691406
-5.01651811599731445 37.2005729675292969 -115.564399719238281
6.51516151428222656 137.865890502929688 52.8688507080078125
-7.83675861358642578 137.61517333984375 50.0434684753417969
10.4395923614501953 68.4520263671875 127.998588562011719
16.6252040863037109 -64.9056396484375 -41.0410842895507812
13.8662958145141602 -26.5828609466552734 130.846221923828125
15.8487491607666016 -6.02875280380249023 102.77777099609375
16.0265140533447266 59.9757080078125 30.5649814605712891
12.7143564224243164 -64.9882431030273438 -97.2157745361328125
-8.59818172454833984 -126.749687194824219 -3.5235440731048584
14.37744140625 112.605995178222656 88.5386428833007812
18.5181121826171875 -88.232757568359375 -32.9488067626953125
18.9202404022216797 -62.7793998718261719 11.3580484390258789
10.6581096649169922 -78.9094619750976562 102.377685546875
15.832890510559082 21.4365367889404297 81.6030120849609375
3.58645749092102051 114.828033447265625 -76.3150787353515625
21.6494770050048828 56.5280303955078125 -78.437103271484375
21.2719631195068359 50.3146133422851562 -32.6528892517089844
20.4947109222412109 -0.786227583885192871 -69.9995651245117188
2.77656650543212891 25.7122364044189453 -125.20989990234375
9.92954635620117188 144.064041137695312 9.63799190521240234
15.7140884399414062 -53.0061111450195312 -85.6021194458007812
16.1580905914306641 71.3879241943359375 18.4187107086181641
16.6007766723632812 -14.1166715621948242 -82.3568649291992188
16.7715911865234375 -22.9221973419189453 -108.963760375976562
14.3347082138061523 -103.3248291015625 49.0718231201171875
-10.4053354263305664 -88.7880783081054688 -78.811309814453125
16.1067295074462891 -59.0301856994628906 56.7653579711914062
16.3017673492431641 83.0141830444335938 30.1424751281738281
18.5162239074707031 -69.3612442016601562 71.8076019287109375
16.2896652221679688 99.2509689331054688 57.1160812377929688
9.84649753570556641 -38.1815071105957031 -111.563652038574219
16.4792079925537109 92.8019027709960938 -54.8196983337402344
20.7243766784667969 49.7935218811035156 63.1672286987304688
16.7042427062988281 101.443778991699219 20.3927497863769531
15.8240804672241211 16.5871105194091797 87.7163772583007812
16.3535308837890625 -30.8998699188232422 -57.3563957214355469
14.2232112884521484 120.465927124023438 53.2495002746582031
22.2548885345458984 83.0487289428710938 -39.599090576171875
15.107630729675293 96.9242935180664062 -87.4311752319335938
20.8210086822509766 46.8003273010253906 -3.35966706275939941
-10.6171483993530273 -17.8590145111083984 -119.756568908691406
19.6404361724853516 16.2507514953613281 12.6494894027709961
15.7109556198120117 -17.7262630462646484 8.79895973205566406
16.1702461242675781 -88.3351211547851562 -64.3058700561523438
15.7952098846435547 -22.7897014617919922 56.8622474670410156
16.2877254486083984 70.7862930297851562 -15.5136003494262695
16.0847015380859375 -6.82890987396240234 -97.5009078979492188
22.3958473205566406 108.883308410644531 -27.0000267028808594
6.65618276596069336 -117.555038452148438 56.9126548767089844
11.1905269622802734 131.429534912109375 45.0938301086425781
12.8319282531738281 70.4121322631835938 -97.4025039672851562
16.2630271911621094 -29.0696887969970703 -50.1362571716308594
20.5179176330566406 40.7627525329589844 7.73960018157958984
15.8143033981323242 2.82977914810180664 -100.673591613769531
20.3300075531005859 13.9075984954833984 -32.2268600463867188
15.2047052383422852 119.141220092773438 -31.1962833404541016
15.7342147827148438 37.674163818359375 31.3697662353515625
18.8989830017089844 -52.3070526123046875 63.0379371643066406
18.6464481353759766 -72.2550735473632812 49.396942138671875
19.1804447174072266 -35.6307945251464844 3.81579065322875977
15.9100179672241211 -24.1218204498291016 94.807861328125
15.6321945190429688 -13.0096101760864258 16.0790061950683594
18.6310062408447266 -68.6507186889648438 57.1766357421875
7.23004007339477539 -44.5321502685546875 -109.979263305664062
16.6556739807128906 62.9003448486328125 -63.8767013549804688
22.0467109680175781 71.2942047119140625 -52.512054443359375
11.5474023818969727 -120.155319213867188 -14.2272405624389648
6.92632484436035156 -5.56631088256835938 143.257415771484375
-8.53962039947509766 -112.724678039550781 -50.8258476257324219
16.0666141510009766 18.5856971740722656 -39.1836280822753906
11.072209358215332 125.140472412109375 75.299407958984375
1.29082679748535156 -38.6063346862792969 138.897171020507812
13.2407798767089844 83.5418701171875 -87.558349609375
20.8301906585693359 98.0457077026367188 74.6473464965820312
17.0569171905517578 -103.828475952148438 25.1273422241210938
-4.31389760971069336 -3.58901572227478027 -125.155609130859375
1.90307426452636719 -24.5609874725341797 143.021484375
16.2113037109375 -41.2068557739257812 -30.9605026245117188
15.0697107315063477 125.214851379394531 -12.1540317535400391
19.9519691467285156 -11.6398868560791016 -49.2675247192382812
16.0919551849365234 -70.9710235595703125 -68.425994873046875
19.7388668060302734 -32.685943603515625 -54.5178184509277344
15.6836709976196289 -7.96001386642456055 111.150192260742188
14.410212516784668 -1.55847012996673584 134.946502685546875
21.4652252197265625 76.6960067749023438 72.9892044067382812
16.750946044921875 -84.6276473999023438 -10.5686368942260742
12.8210668563842773 -112.497352600097656 33.5260429382324219
20.5371437072753906 34.5815849304199219 -13.7380208969116211
20.1980228424072266 -0.511408567428588867 -52.0850296020507812
16.5222682952880859 -31.3484859466552734 -69.4644927978515625
-5.84389400482177734 16.2081241607666016 -118.556488037109375
5.71126317977905273 58.2649688720703125 -116.950584411621094
19.4251594543457031 -2.94901180267333984 78.2915878295898438
16.25579833984375 74.6820907592773438 4.64162158966064453
-5.72379541397094727 130.221817016601562 -30.6918888092041016
16.0746631622314453 109.962593078613281 48.5922317504882812
14.6363096237182617 -113.813896179199219 32.3590087890625
16.7734165191650391 90.5150375366210938 -47.8859596252441406
20.4128665924072266 42.5603599548339844 101.657966613769531
16.6776943206787109 -91.645538330078125 11.2672290802001953
19.9397258758544922 -26.5204792022705078 -62.3449745178222656
15.4951801300048828 -0.429087609052658081 22.7591514587402344
9.15402793884277344 141.91656494140625 -16.3867664337158203
3.80969381332397461 130.995193481445312 51.2889671325683594
19.9931697845458984 106.298515319824219 74.17486572265625
16.4203758239746094 -40.3297653198242188 -55.2001914978027344
21.4068241119384766 58.4104156494140625 -25.2033672332763672
16.6239604949951172 -103.660873413085938 36.8522529602050781
22.2093944549560547 75.4384384155273438 -54.6144371032714844
-6.46537923812866211 70.7621383666992188 -108.976577758789062
21.0893630981445312 46.9093399047851562 -23.63818359375
15.9428625106811523 -38.7637672424316406 83.8757705688476562
19.5343341827392578 -28.7009334564208984 -28.9147891998291016
12.6207094192504883 134.131103515625 2.78363513946533203
19.7931079864501953 -1.20998609066009521 -18.6759719848632812
18.8838920593261719 -54.8626022338867188 69.3303909301757812
14.7190494537353516 100.446624755859375 81.6117630004882812
7.43471097946166992 -101.509124755859375 85.87493896484375
-0.170668244361877441 33.9752235412597656 145.089218139648438
16.25128173828125 -4.56721591949462891 -61.7515716552734375
7.39373683929443359 105.532341003417969 96.7467117309570312
16.03497314453125 62.2200775146484375 42.5604324340820312
14.3131704330444336 117.144577026367188 82.7081832885742188
10.7694807052612305 75.648223876953125 124.014717102050781
-4.80601263046264648 93.366180419921875 -86.6758270263671875
15.3130064010620117 63.9057235717773438 -90.2061767578125
20.4055042266845703 28.736968994140625 -15.864776611328125
15.8098545074462891 30.3106422424316406 63.3922080993652344
21.6554183959960938 83.3796844482421875 70.4301223754882812
19.8741817474365234 -23.7980327606201172 -56.6943740844726562
16.0174655914306641 -111.00140380859375 -8.01695060729980469
18.3864173889160156 -94.2427139282226562 15.4506187438964844
15.9436788558959961 52.1869773864746094 47.4183349609375
19.5915660858154297 12.373835563659668 17.586578369140625
-11.1685543060302734 -107.230140686035156 72.21478271484375
16.0086784362792969 -37.7023124694824219 1.32595086097717285
15.7863359451293945 -10.7552967071533203 68.6021804809570312
19.409515380859375 -5.21896028518676758 78.7697830200195312
15.8482685089111328 -9.74753570556640625 96.3261032104492188
15.631866455078125 0.340256303548812866 41.618255615234375
-9.06132698059082031 127.063583374023438 -43.6516761779785156
18.9745025634765625 -64.1479034423828125 -65.5373001098632812
2.61248564720153809 -75.6134033203125 -90.0919418334960938
17.0679759979248047 76.347686767578125 -98.2405014038085938
-8.64617729187011719 129.25390625 53.3532905578613281
13.8529224395751953 29.2349910736083984 -109.07623291015625
-10.252284049987793 -114.051528930664062 -38.4714469909667969
-6.62874555587768555 -92.464385986328125 -81.566986083984375
21.4965629577636719 76.0206527709960938 50.3033065795898438
21.9038753509521484 71.7564010620117188 -69.6427841186523438
-8.92954063415527344 -118.115028381347656 36.8433990478515625
-8.03442955017089844 -20.0039176940917969 -121.345733642578125
15.6349077224731445 30.62213134765625 24.4238643646240234
16.1374015808105469 -87.6064605712890625 56.5022506713867188
15.964421272277832 37.5874404907226562 -17.6995086669921875
13.6513547897338867 -109.4334716796875 55.8149375915527344
15.9723329544067383 -38.3090286254882812 86.520721435546875
-4.26844930648803711 127.870429992675781 -37.8320121765136719
19.4172840118408203 -33.1584815979003906 -23.9869728088378906
15.5990371704101562 54.461578369140625 106.743545532226562
11.3698673248291016 -119.766326904296875 10.742894172668457
-12.5581388473510742 -34.4027633666992188 134.646835327148438
-10.7234783172607422 82.6688232421875 115.716865539550781
19.5906524658203125 2.80989670753479004 91.2201309204101562
16.3737678527832031 47.8488044738769531 -86.4613494873046875
16.2473983764648438 16.1017951965332031 -63.7027473449707031
18.9485130310058594 -67.3791885375976562 21.2330131530761719
-4.91101598739624023 104.064872741699219 -85.0976181030273438
15.8067951202392578 -18.6152858734130859 77.031524658203125
20.0012855529785156 64.928436279296875 -92.98858642578125
-10.1486482620239258 53.5419197082519531 -110.819862365722656
14.2446994781494141 -108.500717163085938 31.4140987396240234
15.5787677764892578 -5.45900344848632812 0.707793712615966797
13.9057283401489258 -48.1732749938964844 114.784820556640625
16.015411376953125 51.5696792602539062 0.179113328456878662
20.3550682067871094 -10.3143310546875 -73.9055862426757812
16.3336715698242188 -72.7423095703125 16.9651565551757812
1.7319415807723999 8.53378200531005859 -120.175323486328125
15.8524532318115234 -23.5939121246337891 77.9468612670898438
19.7129573822021484 12.9805316925048828 1.59147655963897705
8.19002723693847656 129.03131103515625 -54.0936241149902344
19.1872539520263672 -57.6591682434082031 -68.9634780883789062
19.3226356506347656 -7.83095598220825195 3.60101461410522461
-10.8212194442749023 -93.485137939453125 96.6606292724609375
18.7407855987548828 117.225082397460938 68.5831680297851562
16.5893154144287109 -72.6403579711914062 -26.4347915649414062
19.4914512634277344 -31.8019313812255859 -87.0084075927734375
21.2403354644775391 72.3264999389648438 83.5449295043945312
16.7790164947509766 105.723434448242188 13.7848320007324219
16.4749431610107422 -63.7548332214355469 -30.7654438018798828
18.9076728820800781 26.0859909057617188 -107.236236572265625
1.197165846824646 65.6081314086914062 -113.466400146484375
8.09479045867919922 -120.000717163085938 31.3455715179443359
20.0719718933105469 40.0381278991699219 106.678604125976562
15.808445930480957 -6.30678653717041016 89.1456680297851562
15.5248012542724609 17.9030570983886719 25.1773567199707031
15.9647645950317383 49.3184623718261719 76.8982696533203125
15.9983339309692383 56.73541259765625 27.0169963836669922
15.4785995483398438 -1.27418339252471924 12.0935907363891602
-9.01799488067626953 111.739471435546875 97.0297622680664062
12.3136377334594727 84.3026580810546875 108.468986511230469
0.188512921333312988 -106.264472961425781 83.902496337890625
15.4169492721557617 8.88120841979980469 116.313873291015625
0.541924178600311279 -50.7839622497558594 -113.542724609375
4.99227523803710938 -18.6198692321777344 142.833770751953125
16.2181205749511719 -53.2228012084960938 -13.3589420318603516
15.7419614791870117 -9.81837368011474609 54.0359725952148438
16.2753257751464844 -44.348114013671875 -37.9752349853515625
18.0987377166748047 63.9543571472167969 115.207305908203125
16.5684051513671875 101.169158935546875 42.2313346862792969
-0.516169130802154541 71.5029296875 132.288162231445312
-10.3587827682495117 -25.3806495666503906 -115.624794006347656
-8.49114990234375 -121.577507019042969 3.82585477828979492
-12.7131614685058594 25.9384765625 138.7987060546875
13.6032218933105469 -114.3817138671875 41.1742973327636719
15.2984495162963867 -59.8893928527832031 110.527442932128906
15.9617023468017578 -11.3590726852416992 -27.2987995147705078
13.4254207611083984 46.0030784606933594 123.832733154296875
16.6059055328369141 40.9525833129882812 -78.4883193969726562
11.2715063095092773 93.7021026611328125 -85.1474761962890625
11.0347490310668945 45.8891334533691406 130.931182861328125
20.5890846252441406 129.462997436523438 10.5634136199951172
17.1795825958251953 -7.78858518600463867 124.906517028808594
9.69275856018066406 -75.8183746337890625 110.880485534667969
21.6635475158691406 60.997802734375 -39.171966552734375
12.5276222229003906 5.85755300521850586 -121.435638427734375
12.0871429443359375 77.69183349609375 -95.14630126953125
15.7127256393432617 46.365081787109375 107.548866271972656
-5.05652570724487305 -2.70642709732055664 -125.013420104980469
19.9833965301513672 -25.4387397766113281 -60.2962570190429688
19.5351963043212891 6.74089527130126953 2.52211904525756836
11.1263713836669922 115.248992919921875 89.8071212768554688
15.5208005905151367 93.68798828125 81.3446121215820312
21.4311370849609375 82.3718414306640625 -73.2173690795898438
15.3850231170654297 -30.1095771789550781 112.386650085449219
19.4291152954101562 104.908103942871094 80.4484176635742188
20.0347251892089844 50.8317909240722656 106.403640747070312
15.0567760467529297 -5.96510744094848633 119.770904541015625
15.8528995513916016 10.3005456924438477 98.5286483764648438
-0.930684208869934082 -107.688766479492188 68.6319732666015625
2.31849455833435059 41.3199195861816406 -115.837013244628906
22.1774539947509766 114.880928039550781 -20.6727638244628906
14.4916496276855469 68.7313003540039062 -106.638023376464844
19.1581306457519531 -54.8104629516601562 -15.3711175918579102
16.9814491271972656 -28.5872859954833984 -106.198654174804688
-10.0170907974243164 -120.545539855957031 -27.5847511291503906
15.9234275817871094 49.6418876647949219 12.0810909271240234
16.4242496490478516 57.0319061279296875 -54.2526473999023438
-7.99139595031738281 -106.258155822753906 68.5217819213867188
16.4282436370849609 -90.4919052124023438 38.6301841735839844
16.4065570831298828 12.3552188873291016 -76.328033447265625
18.7790298461914062 -73.8983306884765625 40.0289726257324219
8.49110507965087891 -80.4430007934570312 108.383110046386719
16.6607685089111328 97.6444549560546875 7.41423749923706055
14.7305698394775391 112.927482604980469 63.4413986206054688
-11.0645961761474609 76.2711029052734375 125.472625732421875
15.0877456665039062 76.0018463134765625 118.227737426757812
-5.04782724380493164 32.3288764953613281 145.099014282226562
18.9576129913330078 -79.7770843505859375 -15.3485803604125977
11.4560375213623047 -121.996025085449219 16.7806148529052734
20.448455810546875 15.0585412979125977 -52.5343704223632812
15.637629508972168 24.2731437683105469 112.333992004394531
16.3531074523925781 88.3685531616210938 54.0720329284667969
-3.19874882698059082 135.925323486328125 23.0706100463867188
18.5646190643310547 -91.7070083618164062 -18.1282691955566406
8.75910186767578125 137.851547241210938 8.78502845764160156
19.0900611877441406 -31.4648265838623047 46.8612823486328125
12.5484619140625 -16.0310897827148438 -112.925018310546875
18.941497802734375 -66.1582870483398438 6.75295591354370117
16.1722660064697266 -62.2296676635742188 21.1247024536132812
16.2565250396728516 -15.0644464492797852 -58.1839485168457031
16.2228641510009766 -18.1136875152587891 -54.7265586853027344
2.04369926452636719 -120.890579223632812 26.4478645324707031
16.3159008026123047 -67.7188949584960938 -1.68716776371002197
-5.56300163269042969 -7.51764249801635742 138.590774536132812
-8.68399810791015625 75.2965240478515625 128.248580932617188
20.973388671875 50.9153823852539062 -89.9594497680664062
-4.12122106552124023 -65.2500381469726562 -105.321739196777344
21.9870643615722656 109.03070068359375 -38.5239486694335938
-9.76494789123535156 -39.5888252258300781 129.230026245117188
16.3973217010498047 5.9857330322265625 -93.4228057861328125
15.8071317672729492 11.9785795211791992 85.2153472900390625
16.6229457855224609 -78.5689773559570312 -13.7848529815673828
16.0284099578857422 46.5170936584472656 97.0811004638671875
18.9094314575195312 -72.8665084838867188 21.0000438690185547
15.7497768402099609 19.4868278503417969 62.1981430053710938
12.0135049819946289 135.443084716796875 11.6967344284057617
16.2998695373535156 -73.15435791015625 44.6230010986328125
0.722888052463531494 56.1792259216308594 131.1246337890625
16.0069427490234375 41.2707366943359375 -18.7889842987060547
19.9392929077148438 9.93625164031982422 -18.0956096649169922
15.6407976150512695 9.56082534790039062 45.8660240173339844
16.3985195159912109 77.1715316772460938 -18.2061691284179688
19.3764209747314453 -7.0128931999206543 45.2491416931152344
1.94497561454772949 134.820037841796875 -13.4810876846313477
16.7995929718017578 -77.3230514526367188 -42.8000106811523438
19.0520725250244141 -70.7004776000976562 -53.0922927856445312
21.4313220977783203 71.8941726684570312 51.7282829284667969
14.8037862777709961 -32.8284034729003906 -100.617912292480469
19.3633575439453125 -7.35121726989746094 105.702423095703125
13.1444463729858398 -29.5525321960449219 125.100807189941406
9.94784069061279297 35.6888389587402344 139.133758544921875
5.64281845092773438 138.6982421875 51.1130142211914062
16.4187984466552734 93.3224563598632812 56.9100799560546875
11.3411159515380859 136.01617431640625 -2.08124756813049316
15.2150859832763672 -32.2401695251464844 113.005569458007812
15.7923030853271484 14.1702613830566406 81.0392608642578125
6.89257049560546875 -102.737709045410156 -59.42431640625
16.0020599365234375 -40.0720748901367188 9.70788478851318359
-12.2901372909545898 12.6837234497070312 139.433364868164062
1.96603906154632568 -119.490104675292969 -16.0850963592529297
16.0689544677734375 44.1704521179199219 -20.954681396484375
15.6212778091430664 9.29954433441162109 -7.20649003982543945
14.6772050857543945 127.320075988769531 -8.73023605346679688
0.341712772846221924 -128.563339233398438 11.0222206115722656
18.3785057067871094 -71.4119110107421875 -66.485015869140625
15.8691139221191406 42.2488594055175781 62.0759315490722656
0.577352404594421387 -31.1105098724365234 -114.097915649414062
-3.43339729309082031 -127.853218078613281 26.7087383270263672
15.7224845886230469 -45.2174491882324219 -89.5876693725585938
16.3094043731689453 -13.9790630340576172 -64.9826278686523438
15.8549423217773438 -7.79036951065063477 -19.1972312927246094
15.8543567657470703 17.2510833740234375 104.071662902832031
0.207894802093505859 -5.22116994857788086 -119.313064575195312
20.2777576446533203 34.4331092834472656 67.9962997436523438
14.1200313568115234 41.28839111328125 133.106704711914062
16.5376205444335938 54.5289230346679688 124.325981140136719
16.6163997650146484 100.069381713867188 30.4829235076904297
19.7118091583251953 -36.8736991882324219 -54.5554580688476562
21.6390132904052734 72.576904296875 0.624430060386657715
3.65644168853759766 -48.4743995666503906 -107.707664489746094
19.514495849609375 -2.25477242469787598 94.3819046020507812
-1.15826559066772461 116.480171203613281 95.3431549072265625
19.0877513885498047 -69.8375701904296875 -7.74751520156860352
-9.20017814636230469 -111.735031127929688 -51.7296409606933594
