ply
format ascii 1.0
element vertex 794
comment vertices
property float x
property float y
property float z
end_header
-145.615020751953125 -27.3705615997314453 -47.9268264770507812
-130.785812377929688 324.75958251953125 70.0740890502929688
-85.93292236328125 -362.089599609375 179.140838623046875
159.687759399414062 177.02532958984375 -144.7978515625
135.70672607421875 -182.786575317382812 168.970932006835938
79.89141845703125 -289.764068603515625 77.3315505981445312
27.3907527923583984 -316.628814697265625 180.878799438476562
164.232269287109375 196.344467163085938 -123.425804138183594
-85.016845703125 -188.04425048828125 192.329498291015625
-18.837921142578125 -290.7744140625 132.396881103515625
-71.6912689208984375 197.65472412109375 -221.456954956054688
42.482513427734375 188.811981201171875 -223.717529296875
6.62063217163085938 364.527374267578125 -59.0850753784179688
-86.3309783935546875 219.604660034179688 196.24456787109375
-26.2523117065429688 -159.9779052734375 -222.311309814453125
-141.417984008789062 88.9543380737304688 39.4414253234863281
151.537185668945312 -205.484405517578125 130.054733276367188
-75.6556777954101562 79.292755126953125 194.038681030273438
-39.14361572265625 155.395706176757812 196.941375732421875
130.2393798828125 -133.994461059570312 173.430831909179688
156.958465576171875 -98.6142959594726562 123.550514221191406
82.7086257934570312 202.295730590820312 200.575607299804688
-120.413177490234375 -245.47491455078125 8.91636276245117188
47.3539314270019531 -293.441680908203125 44.3541488647460938
-118.21978759765625 -291.37957763671875 118.145980834960938
-71.7737655639648438 -288.654693603515625 54.7791061401367188
-79.2110748291015625 -274.94891357421875 172.82232666015625
-138.469436645507812 124.358261108398438 -96.7847061157226562
7.08678007125854492 -317.109771728515625 -180.799911499023438
148.40728759765625 250.470291137695312 -74.7723464965820312
-73.8162384033203125 162.025543212890625 196.402938842773438
74.6438827514648438 -100.496986389160156 -236.0152587890625
122.764137268066406 320.74603271484375 -183.867752075195312
-42.4224014282226562 -282.204559326171875 168.674179077148438
41.3441352844238281 -155.15283203125 195.208206176757812
-120.835899353027344 -271.83221435546875 -152.907073974609375
128.2901611328125 -249.320938110351562 -212.491607666015625
-118.561996459960938 -293.81256103515625 -16.7453956604003906
-1.81934940814971924 86.8819808959960938 215.475662231445312
62.6562004089355469 -291.667724609375 66.0039596557617188
-103.340362548828125 0.365228652954101562 -221.703216552734375
106.597328186035156 323.93682861328125 42.2255439758300781
87.1469345092773438 -150.204498291015625 -234.084182739257812
-79.1803817749023438 -323.1668701171875 177.780349731445312
-138.032119750976562 -36.8330001831054688 83.3714828491210938
81.375518798828125 -271.82647705078125 -214.263351440429688
-139.003326416015625 -19.5188026428222656 -106.192527770996094
165.8067626953125 122.150680541992188 -97.2390823364257812
40.177001953125 -291.2274169921875 -216.423309326171875
-72.679473876953125 161.136032104492188 191.980697631835938
-30.1762790679931641 2.40018033981323242 199.186447143554688
-90.9166107177734375 -246.513641357421875 -224.2147216796875
80.1306991577148438 -291.059844970703125 -26.5981388092041016
-129.977294921875 -116.213188171386719 -58.1343727111816406
136.2176513671875 -259.77496337890625 -82.8588104248046875
-117.776405334472656 184.616592407226562 136.358734130859375
-80.0317840576171875 -280.25421142578125 171.159957885742188
-69.88909912109375 77.9376602172851562 196.543304443359375
171.136322021484375 -67.30963134765625 12.2329845428466797
-119.884101867675781 -184.957489013671875 -54.7780609130859375
120.125602722167969 128.7347412109375 193.12091064453125
-116.633949279785156 -200.749649047851562 -187.332412719726562
144.008804321289062 -241.017257690429688 151.861099243164062
152.871856689453125 -227.643310546875 7.40766286849975586
142.330078125 276.127716064453125 -95.1442184448242188
117.612106323242188 -186.483871459960938 182.187545776367188
154.120773315429688 -198.497817993164062 -147.018539428710938
-141.317672729492188 23.7760658264160156 -51.6577415466308594
-137.798736572265625 74.5378952026367188 74.6730880737304688
61.8992843627929688 275.384857177734375 -220.021774291992188
154.723419189453125 -36.9727516174316406 -160.898651123046875
96.9780654907226562 -0.333713054656982422 -236.887557983398438
-144.588790893554688 -31.2392501831054688 20.3377475738525391
98.3440017700195312 -103.051040649414062 195.012359619140625
11.3619575500488281 -221.68316650390625 194.686294555664062
-11.4153356552124023 331.550537109375 41.5137367248535156
-69.4432449340820312 38.365447998046875 -224.257827758789062
95.4405593872070312 226.73565673828125 -227.260269165039062
18.8091526031494141 -304.3626708984375 -175.981674194335938
34.6746864318847656 315.018829345703125 -206.097396850585938
-13.6767416000366211 75.7344818115234375 200.283859252929688
-111.528144836425781 -55.3370437622070312 -218.32733154296875
-117.217506408691406 -165.90350341796875 -157.876785278320312
115.639617919921875 324.576202392578125 -53.6813201904296875
-87.9181137084960938 331.941253662109375 99.3887176513671875
-2.69845151901245117 266.93487548828125 194.222000122070312
-57.8450889587402344 -73.3542633056640625 -225.00982666015625
0.0302068796008825302 -288.574981689453125 -41.5861434936523438
-61.32318115234375 -111.143112182617188 -223.3321533203125
-119.310646057128906 -153.343887329101562 -62.5180816650390625
7.23809576034545898 -183.455551147460938 -222.22344970703125
151.385040283203125 -181.23779296875 -172.468887329101562
-132.136886596679688 44.0570907592773438 98.6106796264648438
-89.4924468994140625 -291.175445556640625 -21.2506809234619141
-139.891281127929688 132.375839233398438 15.6725263595581055
158.924041748046875 210.610580444335938 -153.18896484375
-63.54852294921875 -23.7732658386230469 -224.221145629882812
89.0273056030273438 -218.992630004882812 -234.600418090820312
-139.005233764648438 101.928237915039062 69.342620849609375
121.929893493652344 126.15472412109375 186.816696166992188
105.169349670410156 277.76348876953125 187.441497802734375
-117.320419311523438 -189.077194213867188 -154.768081665039062
167.00732421875 119.596572875976562 34.5610198974609375
24.2231998443603516 -292.146636962890625 -213.951065063476562
42.4532966613769531 135.56396484375 199.530975341796875
-142.9498291015625 279.710906982421875 42.1762008666992188
-66.0257110595703125 -107.552383422851562 195.636703491210938
-2.53922247886657715 213.20135498046875 196.315155029296875
-11.1194829940795898 236.182937622070312 195.524993896484375
-81.0986709594726562 134.048812866210938 193.798263549804688
-102.119361877441406 335.779083251953125 -93.9040908813476562
39.9286384582519531 -289.092803955078125 57.0362129211425781
-115.263145446777344 223.712356567382812 -142.568023681640625
55.3557777404785156 -147.853805541992188 196.884445190429688
-142.724578857421875 289.281219482421875 67.7754898071289062
-48.7787284851074219 -194.043121337890625 -221.708450317382812
138.62872314453125 -253.849822998046875 -164.23345947265625
-68.4154129028320312 -121.571090698242188 195.110137939453125
-133.252273559570312 -28.4649677276611328 102.470207214355469
-110.683120727539062 211.008743286132812 -185.7725830078125
86.260833740234375 -5.87260723114013672 -234.887802124023438
-143.244461059570312 -1.52834367752075195 56.756317138671875
-48.6898689270019531 -287.969512939453125 102.552001953125
-60.506866455078125 -21.7188892364501953 193.878341674804688
-25.0417098999023438 -114.150054931640625 -223.449920654296875
165.758956909179688 56.6964912414550781 -116.323776245117188
13.0087261199951172 346.45013427734375 65.3627243041992188
16.8104190826416016 -305.71441650390625 -194.19696044921875
-67.6553268432617188 -345.436248779296875 -179.622055053710938
-100.417556762695312 252.651260375976562 0.295503407716751099
-128.878799438476562 320.32415771484375 -35.59356689453125
-4.4763946533203125 -31.1872615814208984 217.130035400390625
26.2624359130859375 -296.871429443359375 49.9764022827148438
-53.8176803588867188 195.06341552734375 192.922988891601562
-115.836204528808594 -284.362640380859375 -109.80926513671875
7.95664882659912109 -64.3735504150390625 -224.723709106445312
-129.438095092773438 -304.100189208984375 158.340255737304688
-119.156242370605469 -160.994232177734375 -74.9136428833007812
-17.4006557464599609 10.0912923812866211 -224.745437622070312
114.981109619140625 -50.3768730163574219 191.582275390625
-120.495735168457031 -274.344268798828125 -211.482513427734375
132.102783203125 213.843048095703125 -182.662734985351562
170.175994873046875 -90.3818206787109375 -33.8062705993652344
167.997833251953125 187.149139404296875 -66.1449737548828125
-117.957679748535156 -128.548980712890625 1.94401872158050537
-154.25860595703125 -244.7657470703125 -78.7076797485351562
109.935302734375 232.797760009765625 198.628921508789062
-116.991111755371094 -260.902984619140625 114.804351806640625
-140.343963623046875 262.244140625 -56.3423576354980469
-103.721748352050781 -52.2880744934082031 193.78466796875
46.7439079284667969 -296.892913818359375 24.1198940277099609
31.7135353088378906 -293.3388671875 19.1221504211425781
-90.4963302612304688 313.113922119140625 -210.367599487304688
-136.987701416015625 207.517303466796875 -89.5453948974609375
146.27520751953125 255.530227661132812 -100.701408386230469
146.448028564453125 23.1858196258544922 -178.837081909179688
-23.8944187164306641 75.7384490966796875 200.021408081054688
-131.536300659179688 275.415435791015625 68.489593505859375
111.230735778808594 -285.967742919921875 159.839309692382812
-14.8942604064941406 364.24346923828125 -38.3306198120117188
-21.8223876953125 -88.5296478271484375 -228.868927001953125
-97.2170867919921875 -291.046112060546875 -31.1690902709960938
-129.965606689453125 35.3915977478027344 106.428901672363281
-101.109794616699219 309.8646240234375 146.759857177734375
32.9066581726074219 -106.707298278808594 197.279327392578125
-139.66357421875 300.29254150390625 -92.9404830932617188
76.0427932739257812 -53.9482040405273438 203.67803955078125
115.166069030761719 -65.5715484619140625 -218.419113159179688
18.5928783416748047 -133.262649536132812 195.327407836914062
5.47290849685668945 220.586883544921875 196.054367065429688
-132.013626098632812 -116.509613037109375 10.2382068634033203
171.146133422851562 47.6318550109863281 -17.5399856567382812
166.3050537109375 -30.3048782348632812 -116.781692504882812
170.38446044921875 198.101181030273438 -56.6248092651367188
168.009323120117188 -29.8900089263916016 -102.77935791015625
119.174797058105469 45.0219230651855469 187.245376586914062
92.866424560546875 -114.539962768554688 -235.323532104492188
-137.767715454101562 147.630996704101562 79.4982986450195312
-3.95650506019592285 -287.63311767578125 -70.8173904418945312
105.632682800292969 -131.425064086914062 192.819122314453125
136.64080810546875 229.468643188476562 136.675125122070312
104.278831481933594 278.015533447265625 188.351760864257812
-122.257270812988281 -229.1212158203125 -68.9535293579101562
68.701629638671875 26.5853233337402344 -230.09942626953125
-97.67401123046875 234.245956420898438 193.379547119140625
-47.2882347106933594 142.960159301757812 193.988784790039062
32.7675399780273438 -171.67156982421875 -223.189041137695312
-125.827491760253906 -120.304756164550781 143.045654296875
39.2164840698242188 -296.936553955078125 24.2861919403076172
110.002517700195312 21.3093833923339844 -228.246902465820312
114.5458984375 15.1402311325073242 -223.764602661132812
-70.424774169921875 334.73846435546875 72.62646484375
-103.523063659667969 237.550460815429688 -32.0246658325195312
-106.300376892089844 132.943115234375 -216.059188842773438
-139.88555908203125 147.540542602539062 -48.251251220703125
167.085693359375 -135.676681518554688 -22.3803730010986328
-99.8395843505859375 -290.10235595703125 184.54193115234375
61.8740196228027344 330.131561279296875 44.898193359375
-139.290542602539062 -253.036117553710938 -72.9559783935546875
-40.2598686218261719 -287.680145263671875 107.109878540039062
-45.4720191955566406 -128.83013916015625 194.70904541015625
168.694366455078125 -71.2559738159179688 -82.5143508911132812
-123.559684753417969 -266.36279296875 -208.327468872070312
-46.48211669921875 -116.507026672363281 -223.162155151367188
20.6503753662109375 139.379287719726562 199.060989379882812
20.4467334747314453 -346.631439208984375 -179.077133178710938
169.6441650390625 99.54046630859375 -19.862518310546875
-82.752105712890625 -196.650344848632812 190.342742919921875
59.0875587463378906 -11.446136474609375 202.04632568359375
-87.4246826171875 -203.8021240234375 190.495574951171875
134.853164672851562 -263.04296875 156.719314575195312
-138.57684326171875 57.0157585144042969 -101.888053894042969
-131.193222045898438 -53.7096519470214844 109.697608947753906
-19.4739704132080078 -288.06561279296875 -159.857742309570312
78.1425704956054688 37.6614456176757812 -231.067962646484375
-145.23358154296875 -27.9093189239501953 -3.84918498992919922
-128.224884033203125 324.478424072265625 -29.9695301055908203
156.618453979492188 -206.312545776367188 28.0443267822265625
166.110458374023438 148.662429809570312 39.2471504211425781
-104.394935607910156 -334.801483154296875 -181.955459594726562
97.9816818237304688 -37.9576416015625 -231.747314453125
-140.516082763671875 63.4030609130859375 22.3061161041259766
-120.054679870605469 197.002197265625 127.3140869140625
-104.767601013183594 -291.122467041015625 19.0744915008544922
-10.6206674575805664 -289.93182373046875 152.86163330078125
-99.912322998046875 268.345733642578125 75.0497283935546875
-145.305984497070312 -28.5909080505371094 -0.668593645095825195
-110.677848815917969 -290.201080322265625 -83.1852569580078125
59.4460678100585938 156.271621704101562 -226.36297607421875
9.36234283447265625 -358.99053955078125 147.437896728515625
-141.054031372070312 256.24090576171875 15.4187726974487305
-20.0664730072021484 -288.347808837890625 -150.6546630859375
-72.8962478637695312 -53.9335212707519531 194.52899169921875
-142.97210693359375 10.0981130599975586 53.7870025634765625
3.42585515975952148 -324.412078857421875 -198.574188232421875
151.152191162109375 100.467041015625 -174.175521850585938
19.6935005187988281 -309.399749755859375 143.258834838867188
-113.65972900390625 202.552108764648438 158.185379028320312
133.906600952148438 293.9061279296875 105.020721435546875
-114.757110595703125 185.474319458007812 -167.745773315429688
-141.05584716796875 122.591392517089844 48.0062026977539062
-111.187309265136719 -148.799591064453125 -221.841964721679688
-100.366989135742188 291.4993896484375 93.5743331909179688
53.8961257934570312 328.4931640625 122.178329467773438
146.40325927734375 263.98712158203125 -68.4373016357421875
-136.3966064453125 93.3109054565429688 -106.409385681152344
-117.642646789550781 -137.2216796875 39.7650146484375
89.1802825927734375 27.9956550598144531 198.78070068359375
71.7048263549804688 -291.79034423828125 -100.792953491210938
148.671676635742188 -220.739028930664062 141.176620483398438
-31.3890914916992188 220.704238891601562 192.275848388671875
91.6872634887695312 -116.924575805664062 -228.492279052734375
-84.5626144409179688 335.615509033203125 -95.7949066162109375
-108.416923522949219 -207.730545043945312 190.194839477539062
97.2821044921875 -127.194869995117188 -240.93023681640625
123.215782165527344 313.439056396484375 -71.0862197875976562
-83.1718368530273438 229.692916870117188 192.522674560546875
167.00811767578125 53.5865898132324219 73.7667617797851562
65.5733489990234375 331.341949462890625 -10.095707893371582
160.043487548828125 108.827659606933594 120.427825927734375
-105.588737487792969 -98.0673599243164062 -222.604690551757812
101.175819396972656 59.613861083984375 -241.840988159179688
-117.384658813476562 -147.259429931640625 110.773445129394531
110.095626831054688 84.134735107421875 -228.37933349609375
159.563919067382812 -148.683059692382812 -138.237686157226562
161.832748413085938 184.743515014648438 108.251396179199219
115.233787536621094 -261.244720458984375 175.848983764648438
162.475845336914062 197.30999755859375 108.477210998535156
-119.027420043945312 -247.447616577148438 -186.1844482421875
-101.318862915039062 95.00726318359375 193.655029296875
-113.480262756347656 -88.15234375 -216.322174072265625
-135.553237915039062 254.69390869140625 -84.845123291015625
50.1015396118164062 -287.035400390625 43.417022705078125
92.4431610107421875 -288.20550537109375 -122.411422729492188
-108.638038635253906 174.504867553710938 -196.288848876953125
18.9969596862792969 48.2087287902832031 199.290771484375
-85.4935836791992188 -280.5467529296875 164.522628784179688
110.036148071289062 -285.97674560546875 -65.3697128295898438
47.3802833557128906 -9.46004295349121094 -226.691421508789062
138.534317016601562 78.70904541015625 -194.119964599609375
-142.469573974609375 1.71999251842498779 32.4200592041015625
-99.2885665893554688 -116.342613220214844 195.192657470703125
160.181137084960938 -50.4997367858886719 -145.196701049804688
166.0843505859375 212.15863037109375 -15.3116054534912109
-91.6416015625 332.61578369140625 -175.395950317382812
163.370086669921875 85.5927276611328125 104.526786804199219
128.609375 -268.055694580078125 -148.651321411132812
-22.4392547607421875 -53.1967086791992188 199.906448364257812
-141.75140380859375 59.288818359375 -80.9531021118164062
130.552215576171875 -128.18109130859375 -203.842926025390625
53.1550369262695312 331.142120361328125 -106.394866943359375
-29.8283023834228516 -288.9827880859375 -0.0182288940995931625
-17.6423358917236328 -23.4481163024902344 199.443572998046875
-50.6181449890136719 332.146636962890625 -94.4334869384765625
-34.3271446228027344 156.00018310546875 -222.646575927734375
67.194305419921875 -291.302276611328125 -82.1519317626953125
120.459381103515625 296.5899658203125 -212.066650390625
-121.137054443359375 -203.235595703125 -67.648406982421875
-120.160652160644531 -210.735198974609375 -211.598846435546875
71.8074798583984375 -250.806671142578125 185.603179931640625
-102.397834777832031 244.469589233398438 -46.4706802368164062
62.0169944763183594 -177.040512084960938 -226.497970581054688
140.0098876953125 138.041732788085938 -195.585281372070312
-102.904426574707031 248.204483032226562 -53.1721000671386719
-120.796333312988281 -247.194168090820312 18.5972042083740234
159.177490234375 192.661300659179688 125.620735168457031
159.969253540039062 208.762664794921875 39.9145469665527344
-99.7910690307617188 264.24359130859375 -209.352859497070312
126.595909118652344 207.008834838867188 -204.226760864257812
-119.106422424316406 311.977203369140625 4.64158964157104492
162.190444946289062 -102.335861206054688 98.7099227905273438
145.515274047851562 -24.9022712707519531 -178.979507446289062
138.18487548828125 -2.37153005599975586 -191.15057373046875
-62.8406562805175781 125.035964965820312 196.722671508789062
-127.244148254394531 -261.4730224609375 180.1270751953125
-19.4160022735595703 -288.077056884765625 87.5480270385742188
152.766433715820312 -227.673736572265625 -62.4733161926269531
-139.451034545898438 155.10650634765625 -64.1109619140625
151.523590087890625 -97.4602737426757812 -170.670196533203125
55.2588996887207031 -17.4479923248291016 -227.596588134765625
168.071517944335938 -31.6945819854736328 -101.67559814453125
83.1254119873046875 -286.330047607421875 -48.2122268676757812
-100.3531494140625 258.93267822265625 -206.37774658203125
150.809173583984375 164.726150512695312 -176.988540649414062
-82.094818115234375 -332.875274658203125 174.082199096679688
127.766830444335938 297.945343017578125 -191.367095947265625
75.5889205932617188 -248.99920654296875 -227.287933349609375
-117.313491821289062 123.046218872070312 145.110946655273438
133.600387573242188 -159.870529174804688 -204.682586669921875
-78.9346542358398438 283.222503662109375 189.28240966796875
-141.49957275390625 262.86407470703125 12.1202230453491211
2.12891483306884766 -64.7146072387695312 -224.685699462890625
-65.4379959106445312 57.6499710083007812 -223.951461791992188
170.749496459960938 183.220779418945312 -12.555088996887207
-124.847015380859375 -276.345428466796875 -186.030105590820312
93.5151443481445312 232.9161376953125 195.450210571289062
-105.273872375488281 223.015335083007812 -62.0518913269042969
137.216598510742188 283.3316650390625 102.736541748046875
15.1039266586303711 -326.62652587890625 158.02801513671875
-78.2310714721679688 244.860794067382812 -221.452011108398438
-87.6547164916992188 -286.8758544921875 -122.2447509765625
167.774444580078125 -5.07126998901367188 -105.646293640136719
145.71575927734375 263.4053955078125 30.4662380218505859
-118.896270751953125 -150.660507202148438 -32.9239768981933594
-5.4368138313293457 331.17041015625 -151.825408935546875
-57.6380043029785156 -194.120758056640625 191.863418579101562
-134.056869506835938 333.624603271484375 -105.63690185546875
-130.968673706054688 61.6813392639160156 -125.726142883300781
166.879730224609375 93.0853118896484375 -99.058197021484375
116.672988891601562 128.00213623046875 194.065582275390625
102.998764038085938 -71.6331710815429688 -230.300216674804688
-142.129501342773438 61.3582916259765625 -28.4891090393066406
160.759902954101562 103.375801086425781 -143.847000122070312
-137.074676513671875 173.024658203125 -19.2155895233154297
-87.8191146850585938 274.79278564453125 188.920501708984375
-116.592597961425781 -134.6629638671875 131.853805541992188
-54.2747039794921875 -149.936798095703125 193.745620727539062
-141.61920166015625 0.913481533527374268 -0.30883944034576416
-112.239303588867188 334.222442626953125 -81.5861587524414062
130.242904663085938 85.4718551635742188 -204.971328735351562
-70.3905563354492188 158.456680297851562 -222.16790771484375
131.00897216796875 100.274932861328125 179.213592529296875
-38.1936149597167969 -53.5512580871582031 193.93634033203125
-118.229759216308594 32.9609260559082031 -176.018142700195312
93.8702163696289062 238.7490234375 -228.940887451171875
171.183456420898438 210.017974853515625 -52.5246047973632812
-41.6785354614257812 -71.394561767578125 194.655227661132812
-119.173629760742188 -180.528884887695312 -127.248634338378906
-125.893363952636719 -140.621444702148438 63.8173942565917969
-87.6982574462890625 -261.71209716796875 190.528045654296875
21.2760047912597656 366.844818115234375 -20.9720249176025391
166.089096069335938 178.900344848632812 -91.1130523681640625
-140.272811889648438 135.393707275390625 -46.4782752990722656
-139.018661499023438 162.087982177734375 -5.59673118591308594
-117.876327514648438 -125.341255187988281 -9.09869575500488281
31.8530120849609375 -62.6904754638671875 199.011016845703125
-21.2552623748779297 -285.265411376953125 164.441864013671875
96.5009536743164062 -248.7965087890625 187.409378051757812
165.907806396484375 205.790008544921875 -111.940872192382812
37.0520782470703125 234.073593139648438 199.257278442382812
-110.087310791015625 116.938468933105469 -194.70343017578125
-126.957313537597656 -26.5027885437011719 -149.040603637695312
-78.2066421508789062 -132.392135620117188 192.0689697265625
167.431503295898438 118.067176818847656 28.1119098663330078
-31.3635292053222656 139.80145263671875 197.248779296875
120.449211120605469 123.297218322753906 191.807464599609375
171.026809692382812 203.605728149414062 1.73475551605224609
1.25567948818206787 44.501861572265625 199.174972534179688
58.7939987182617188 -176.371124267578125 -225.8277587890625
-72.9060897827148438 177.12249755859375 193.280303955078125
138.058120727539062 77.8178329467773438 -194.695205688476562
7.47958755493164062 -166.41424560546875 193.42596435546875
13.3278121948242188 -287.51580810546875 -166.96417236328125
-128.922821044921875 -276.152679443359375 143.09637451171875
9.36347389221191406 336.3983154296875 60.2503929138183594
140.341964721679688 157.278182983398438 169.977935791015625
-6.98836326599121094 -287.6553955078125 -164.817718505859375
153.2835693359375 34.3706893920898438 142.02960205078125
126.432533264160156 214.104248046875 169.671127319335938
97.6513290405273438 -40.9503593444824219 -237.58758544921875
-130.26727294921875 78.49017333984375 -125.470291137695312
-13.5138139724731445 -286.5001220703125 -106.190444946289062
-117.194816589355469 -196.4298095703125 -212.553955078125
-118.732093811035156 -36.0141334533691406 -189.390487670898438
-138.752227783203125 222.790847778320312 -18.8330364227294922
-147.394439697265625 -100.962326049804688 -71.469451904296875
124.066444396972656 315.4705810546875 44.74029541015625
130.631118774414062 -109.100906372070312 175.44110107421875
-113.271965026855469 46.520172119140625 176.73699951171875
160.420684814453125 -161.533416748046875 93.257598876953125
104.70245361328125 204.519027709960938 -236.245315551757812
-122.044090270996094 -249.440673828125 -174.200714111328125
-119.487037658691406 330.65533447265625 64.6024703979492188
-131.424148559570312 22.2655239105224609 101.767257690429688
139.858749389648438 -229.800277709960938 -200.117202758789062
-33.5269851684570312 331.78289794921875 -152.096221923828125
156.790695190429688 -198.363922119140625 73.3318557739257812
-81.258026123046875 -281.81304931640625 -191.55987548828125
168.716232299804688 -105.587783813476562 -55.0684280395507812
-103.317146301269531 308.04248046875 -70.9579544067382812
145.102432250976562 -100.8907470703125 156.26251220703125
-102.450019836425781 -313.778106689453125 -213.320175170898438
-68.677764892578125 103.163734436035156 194.27978515625
-21.8951797485351562 106.820640563964844 199.638778686523438
-142.904647827148438 -18.1651420593261719 26.087310791015625
-126.630416870117188 -259.50543212890625 -221.871826171875
-140.68359375 151.401687622070312 -72.0357131958007812
-13.12896728515625 362.394439697265625 -3.45178651809692383
-106.142013549804688 -300.175628662109375 -170.562164306640625
-119.090835571289062 -164.6767578125 -123.930885314941406
-7.31857681274414062 -224.161956787109375 -224.406387329101562
-119.827110290527344 -185.467453002929688 -58.4648704528808594
86.678192138671875 -284.85638427734375 -181.714431762695312
170.513168334960938 18.7164802551269531 -66.9382247924804688
-139.363967895507812 154.8118896484375 8.93036937713623047
-128.99798583984375 322.113677978515625 -88.0963363647460938
156.46929931640625 66.0822982788085938 134.723373413085938
-58.355072021484375 -286.40606689453125 -121.192817687988281
95.2216644287109375 30.0298709869384766 196.509307861328125
-26.6978626251220703 -47.082244873046875 198.860748291015625
-101.025421142578125 248.951492309570312 31.6330146789550781
90.2282028198242188 -125.328872680664062 -228.560379028320312
115.913078308105469 105.660552978515625 -221.070968627929688
151.557693481445312 -81.0194473266601562 -169.739517211914062
-69.6683349609375 222.686538696289062 -220.901535034179688
-120.197853088378906 -230.371109008789062 166.75811767578125
-50.9015388488769531 178.213104248046875 193.262298583984375
165.611923217773438 133.803604125976562 44.5737419128417969
161.53277587890625 36.9948463439941406 -139.18609619140625
-139.3892822265625 160.589691162109375 -55.5396652221679688
142.402816772460938 279.741973876953125 -67.3548812866210938
-62.3380203247070312 331.007659912109375 133.340576171875
47.6207504272460938 11.9016733169555664 -226.8106689453125
-118.512275695800781 -255.414962768554688 -159.234619140625
50.9647560119628906 -306.63177490234375 165.441543579101562
138.054977416992188 -243.319244384765625 167.753204345703125
-129.463272094726562 222.091461181640625 -120.533241271972656
95.2697601318359375 -280.582244873046875 161.804458618164062
116.671073913574219 58.6543846130371094 -217.944320678710938
-90.3146133422851562 -340.8831787109375 -182.307876586914062
-118.003532409667969 -285.168548583984375 -107.303207397460938
0.133480191230773926 364.58819580078125 36.7688217163085938
-101.86260986328125 312.36846923828125 160.801177978515625
47.2040367126464844 209.261489868164062 -223.015213012695312
-14.8470849990844727 332.10040283203125 8.20804786682128906
-109.986328125 205.805389404296875 178.014236450195312
-40.1490249633789062 109.749801635742188 194.276290893554688
69.4054336547851562 331.378143310546875 -167.446136474609375
61.7374725341796875 -88.7195053100585938 200.635543823242188
35.7635917663574219 -25.3857593536376953 199.85772705078125
-143.28326416015625 293.6859130859375 89.049774169921875
104.819107055664062 270.70269775390625 189.032150268554688
97.646636962890625 -196.617462158203125 192.615768432617188
165.205810546875 111.67095947265625 82.026336669921875
107.458877563476562 -196.009201049804688 190.8135986328125
-113.704109191894531 222.162673950195312 166.755630493164062
-24.419677734375 327.0718994140625 158.592864990234375
-103.530906677246094 236.713302612304688 -31.1714801788330078
147.260665893554688 14.4443149566650391 -177.00653076171875
147.271530151367188 -64.8398513793945312 -177.115921020507812
-77.9736862182617188 -183.067337036132812 192.534820556640625
109.658935546875 320.991851806640625 156.3251953125
150.8316650390625 206.086074829101562 -110.397384643554688
129.748641967773438 -267.459197998046875 -116.507514953613281
-99.8720016479492188 296.093017578125 -216.36578369140625
158.918350219726562 117.879890441894531 124.394668579101562
-9.86621665954589844 -336.2003173828125 -214.924606323242188
5.75872898101806641 -340.43243408203125 184.508560180664062
101.279144287109375 70.4772872924804688 -232.320510864257812
38.0976905822753906 -336.10955810546875 142.032257080078125
-121.273704528808594 -217.06732177734375 18.7343063354492188
-54.4060173034667969 -169.482635498046875 192.940673828125
-17.3565483093261719 -289.08819580078125 -9.62367343902587891
145.630569458007812 98.9826278686523438 161.258575439453125
146.65716552734375 225.585540771484375 75.4956741333007812
-70.3321609497070312 -317.996490478515625 178.45123291015625
-144.137283325195312 -31.8881454467773438 37.9116859436035156
-67.9351806640625 -329.2811279296875 -167.46649169921875
53.9259605407714844 -289.86480712890625 47.4534454345703125
23.2140884399414062 147.554244995117188 198.559356689453125
20.7983684539794922 331.4693603515625 -75.4516143798828125
-118.013053894042969 -204.322509765625 -157.834747314453125
135.47296142578125 204.711715698242188 -180.66357421875
-20.6314506530761719 257.6431884765625 194.592987060546875
57.8979606628417969 215.712005615234375 211.4935302734375
-0.355280667543411255 25.8135185241699219 -225.139434814453125
148.059066772460938 83.1287078857421875 -179.234359741210938
-114.9490966796875 333.06842041015625 35.0721817016601562
25.5580425262451172 330.88671875 5.15035486221313477
25.9494304656982422 -287.144134521484375 -95.3761520385742188
-116.251655578613281 -43.5396575927734375 -202.81756591796875
-134.091384887695312 247.190231323242188 64.0174636840820312
-14.7137842178344727 -91.4610671997070312 -228.749374389648438
163.581100463867188 81.3570480346679688 -129.85858154296875
-134.64306640625 285.264617919921875 0.836130499839782715
-36.5274772644042969 -56.4087181091308594 194.425140380859375
-132.729232788085938 -79.4313507080078125 -145.610107421875
-63.7182502746582031 -173.755966186523438 -222.516143798828125
104.744438171386719 198.881439208984375 -236.146774291992188
-120.83990478515625 -134.4390869140625 157.27105712890625
88.1073379516601562 153.4739990234375 199.856552124023438
-78.31866455078125 136.6453857421875 193.740081787109375
-119.644340515136719 -213.923065185546875 -137.25079345703125
53.5291900634765625 -187.643890380859375 -224.54742431640625
22.2621212005615234 331.341827392578125 -1.41359353065490723
-122.315742492675781 -222.398025512695312 -35.8966178894042969
71.4219284057617188 -145.571136474609375 -234.158157348632812
58.36798095703125 310.602996826171875 182.886962890625
67.2640914916992188 265.425994873046875 -222.168411254882812
38.8566780090332031 323.944549560546875 -193.64093017578125
166.980606079101562 196.159942626953125 70.5003509521484375
-139.554290771484375 232.2464599609375 5.35479164123535156
-110.4525146484375 146.800308227539062 179.303268432617188
134.293533325195312 -156.41021728515625 171.111038208007812
87.8895111083984375 -192.28741455078125 -242.395431518554688
153.889984130859375 -80.5880584716796875 -164.011688232421875
-111.854194641113281 202.734573364257812 168.6982421875
-96.042572021484375 -358.8037109375 183.80279541015625
141.1070556640625 207.5704345703125 -152.79693603515625
75.3552322387695312 -258.245025634765625 182.321075439453125
-13.6920223236083984 213.107208251953125 191.939956665039062
-65.2274932861328125 -60.0400314331054688 -232.01513671875
-124.885528564453125 128.06884765625 115.780601501464844
20.3225898742675781 332.9293212890625 -105.68280029296875
-123.9063720703125 329.872955322265625 -57.4760894775390625
152.6224365234375 -230.718063354492188 -32.575439453125
168.303314208984375 95.7329864501953125 38.5334129333496094
64.2439041137695312 60.7231521606445312 -229.318679809570312
-69.6659469604492188 -249.12542724609375 -222.546066284179688
135.67547607421875 -139.17596435546875 -200.236831665039062
-74.633453369140625 -323.69989013671875 -198.599761962890625
-27.5625495910644531 -287.450164794921875 -75.70123291015625
-116.785331726074219 -191.960205078125 -220.800827026367188
-139.286483764648438 -211.707138061523438 62.4805259704589844
-150.976394653320312 -226.868408203125 56.1876144409179688
-11.5372781753540039 -287.538238525390625 -181.748519897460938
-131.918807983398438 -279.722564697265625 -186.292373657226562
-55.1962394714355469 -119.604736328125 195.171035766601562
168.095199584960938 210.305435180664062 -75.9081497192382812
-31.8164939880371094 329.971527099609375 124.735389709472656
52.1318893432617188 -294.3741455078125 -208.94757080078125
-44.7637481689453125 -285.6751708984375 -137.3922119140625
-141.826828002929688 274.660736083984375 -55.729583740234375
-139.371826171875 101.379112243652344 -23.3569412231445312
80.8553466796875 -204.468109130859375 -234.907363891601562
-118.874961853027344 -147.806564331054688 -20.7161636352539062
-78.7544097900390625 331.722381591796875 104.003570556640625
81.8042221069335938 -131.7637939453125 -228.171340942382812
-142.177017211914062 284.479736328125 -67.565826416015625
-87.9462738037109375 54.0369453430175781 -223.297439575195312
-60.5716781616210938 231.364837646484375 190.5555419921875
-75.8007583618164062 201.431381225585938 -221.24481201171875
136.833297729492188 -197.579177856445312 166.2652587890625
-82.4117202758789062 -120.351676940917969 195.373764038085938
43.1258087158203125 330.9539794921875 -85.3204498291015625
101.88909912109375 169.9669189453125 -238.956390380859375
65.6512985229492188 -264.40985107421875 180.674026489257812
104.262298583984375 -284.732147216796875 152.5184326171875
-99.0070953369140625 309.27728271484375 -176.67193603515625
35.9241676330566406 -155.787460327148438 -223.679275512695312
-122.751358032226562 118.911445617675781 122.355697631835938
29.3381996154785156 -296.698577880859375 50.8473472595214844
167.079788208007812 148.405685424804688 17.1202754974365234
-124.323211669921875 -198.943374633789062 61.4222640991210938
-142.190597534179688 -223.772476196289062 44.0401535034179688
89.7202835083007812 330.563720703125 117.343833923339844
170.072677612304688 45.4795761108398438 35.6798095703125
157.045028686523438 73.061248779296875 -156.018707275390625
144.097747802734375 261.588409423828125 67.9189071655273438
56.8143997192382812 -290.598541259765625 132.450927734375
72.2425308227539062 331.8773193359375 -1.75689578056335449
112.476837158203125 306.537689208984375 180.700836181640625
-130.7337646484375 222.33978271484375 -116.236495971679688
170.462493896484375 195.008453369140625 -1.97199738025665283
161.959442138671875 143.306488037109375 -130.467788696289062
89.3160629272460938 -290.04693603515625 1.57745587825775146
103.110855102539062 77.3760833740234375 -238.52392578125
40.3934783935546875 55.6215972900390625 -226.382553100585938
18.2413654327392578 -278.23077392578125 188.344223022460938
11.9387960433959961 254.576705932617188 190.865219116210938
-148.20001220703125 -121.644149780273438 19.0137386322021484
-136.086639404296875 205.36907958984375 -16.7912178039550781
-2.28155946731567383 118.035041809082031 210.7781982421875
87.216064453125 -288.148712158203125 -131.36578369140625
-98.1229934692382812 -342.828460693359375 160.707122802734375
86.6495285034179688 63.6346702575683594 201.030899047851562
156.5653076171875 85.7854766845703125 -158.420135498046875
6.44935989379882812 -249.394332885742188 191.046539306640625
163.671188354492188 -160.685821533203125 -96.2139511108398438
167.64251708984375 108.954238891601562 -74.4145584106445312
-136.327362060546875 187.248565673828125 7.55930328369140625
163.541900634765625 -79.5521392822265625 -126.477584838867188
-128.85406494140625 72.4580230712890625 -130.563385009765625
75.9374847412109375 -178.218063354492188 -234.462371826171875
160.903656005859375 161.353012084960938 -135.72930908203125
-139.043914794921875 227.391555786132812 -61.9304580688476562
163.792007446289062 133.030044555664062 81.9199142456054688
-101.325424194335938 253.66217041015625 -68.8343276977539062
-118.708450317382812 -154.358810424804688 22.406890869140625
81.5940933227539062 331.223968505859375 -1.01436567306518555
101.200813293457031 -281.417755126953125 -192.318084716796875
140.930252075195312 -187.6925048828125 161.086837768554688
-121.984596252441406 -293.473388671875 -84.1258010864257812
-100.361892700195312 258.64886474609375 -207.664581298828125
-16.5654163360595703 364.6444091796875 -31.0063915252685547
-118.509071350097656 -229.14959716796875 192.576904296875
164.812515258789062 124.18115234375 -109.160850524902344
-127.739120483398438 207.858428955078125 -116.667060852050781
-60.3009490966796875 -6.30447149276733398 196.341873168945312
-103.110107421875 295.115692138671875 161.945632934570312
163.110458374023438 141.156295776367188 -122.073722839355469
-102.983291625976562 -290.93060302734375 -38.6247482299804688
-57.83154296875 212.222900390625 -226.526153564453125
-138.271087646484375 163.89312744140625 69.1422882080078125
155.03240966796875 -107.641281127929688 -160.8607177734375
-4.24390649795532227 37.8892059326171875 230.359848022460938
-123.556922912597656 -246.680831909179688 178.055160522460938
15.3383779525756836 332.097137451171875 -137.057052612304688
69.8935775756835938 231.655410766601562 199.25213623046875
94.7496261596679688 -289.682647705078125 101.780220031738281
-103.253486633300781 232.427001953125 -46.5722274780273438
155.71466064453125 -171.843795776367188 120.276077270507812
-140.247116088867188 40.8033180236816406 65.9528961181640625
66.2607421875 -235.636444091796875 -226.9132080078125
-111.659378051757812 177.717376708984375 -178.66986083984375
-104.269599914550781 213.401885986328125 -18.8495998382568359
166.748855590820312 149.143646240234375 -65.4569091796875
-21.3375091552734375 216.982894897460938 195.884963989257812
-146.063705444335938 -36.4152946472167969 4.37290048599243164
157.542709350585938 16.6670398712158203 126.615524291992188
121.915817260742188 -276.656402587890625 111.769447326660156
1.77126526832580566 335.981414794921875 -116.5240478515625
-144.93988037109375 -39.5960426330566406 38.7209014892578125
-85.8975372314453125 127.49053955078125 196.19305419921875
-98.741729736328125 325.09039306640625 165.833786010742188
22.7883186340332031 277.313323974609375 193.802490234375
156.2857666015625 -53.4538497924804688 -156.955718994140625
-110.485130310058594 35.5942192077636719 -204.9012451171875
166.618988037109375 -53.9070281982421875 -109.735237121582031
-129.076766967773438 94.1286697387695312 112.69378662109375
-109.489997863769531 291.075347900390625 -113.647964477539062
-118.585411071777344 -142.493179321289062 -200.925857543945312
-10.4736652374267578 -341.5595703125 -181.742813110351562
-56.7919845581054688 -288.6064453125 51.528533935546875
-79.885284423828125 -332.978363037109375 169.144943237304688
162.076980590820312 -184.03717041015625 47.4953346252441406
67.141265869140625 154.706329345703125 201.431198120117188
97.5957183837890625 -260.332916259765625 -226.11053466796875
160.5450439453125 -35.3772430419921875 107.53955078125
-11.3657083511352539 330.739898681640625 119.453025817871094
-102.097023010253906 254.8118896484375 -48.7193870544433594
-87.26544189453125 154.48919677734375 196.27410888671875
-63.76806640625 222.39361572265625 -221.466339111328125
168.580764770507812 64.2633895874023438 53.1165504455566406
2.70428299903869629 -309.452423095703125 -178.692291259765625
164.160858154296875 124.870582580566406 83.825958251953125
-8.76479339599609375 -223.544647216796875 194.071884155273438
147.045059204101562 263.6146240234375 -7.26949405670166016
-67.8380584716796875 86.2692642211914062 196.690948486328125
152.734756469726562 207.5850830078125 87.4823226928710938
-100.084327697753906 -318.442596435546875 -210.148239135742188
-148.5101318359375 -193.4193115234375 59.2433128356933594
-140.743362426757812 -236.1673583984375 -75.6823501586914062
-101.384918212890625 283.4351806640625 184.597625732421875
-95.9297027587890625 -327.1654052734375 175.311309814453125
145.415603637695312 -240.070068359375 -156.347640991210938
-125.641975402832031 -124.105636596679688 -161.263198852539062
171.155853271484375 -37.2637138366699219 -56.5954818725585938
150.64520263671875 -222.278060913085938 126.484794616699219
-131.273895263671875 235.1468505859375 77.784698486328125
-139.546249389648438 169.443267822265625 -78.131378173828125
60.3103294372558594 -287.74468994140625 -194.923202514648438
149.472686767578125 219.119583129882812 -91.6113662719726562
-121.302581787109375 -116.045082092285156 -111.346046447753906
-40.4595146179199219 -161.3564453125 193.173324584960938
79.2710723876953125 -288.280059814453125 -132.384002685546875
-18.5109767913818359 265.46392822265625 194.313430786132812
-138.846267700195312 -235.418975830078125 62.5907096862792969
9.12249660491943359 129.021011352539062 200.336593627929688
-58.2680931091308594 -83.3433151245117188 194.582733154296875
-105.210365295410156 -64.6538925170898438 -221.907730102539062
-118.496482849121094 -136.3426513671875 -98.6625137329101562
148.8583984375 -238.335647583007812 25.8181972503662109
77.3305587768554688 290.6302490234375 193.2816162109375
113.489936828613281 22.3587265014648438 -227.635421752929688
-98.1843795776367188 306.2203369140625 -158.070526123046875
79.5290069580078125 -284.956298828125 -183.273834228515625
-150.314849853515625 -127.041969299316406 -75.8011550903320312
-17.8582286834716797 -127.475021362304688 194.98529052734375
-134.806900024414062 57.5804481506347656 -114.084556579589844
-145.344329833984375 -232.41497802734375 -97.1366806030273438
162.530654907226562 -185.880599975585938 -66.153778076171875
-97.4954605102539062 -297.419677734375 170.806533813476562
-120.875320434570312 -97.4269485473632812 160.09515380859375
149.646347045898438 233.350112915039062 29.5822353363037109
-147.679473876953125 -125.392898559570312 -2.63104987144470215
-50.1833572387695312 12.5053300857543945 198.404891967773438
168.198928833007812 -80.880767822265625 -84.5162582397460938
-28.2010421752929688 -64.2681198120117188 -224.763504028320312
100.594474792480469 272.200103759765625 194.842941284179688
86.1947555541992188 -210.100723266601562 -230.88055419921875
45.8361663818359375 -168.361953735351562 194.748306274414062
20.5719432830810547 -307.864013671875 9.73332309722900391
91.8536605834960938 -161.735977172851562 196.018035888671875
145.11590576171875 -112.716079711914062 -184.21923828125
121.001502990722656 -275.070068359375 -126.861869812011719
-118.813339233398438 -145.977447509765625 99.8217010498046875
1.9727853536605835 35.3066978454589844 -225.179275512695312
75.594573974609375 -229.762786865234375 190.944961547851562
-120.596633911132812 -246.2015380859375 -162.120941162109375
34.5893898010253906 -277.3238525390625 -220.680374145507812
-95.837432861328125 -332.245574951171875 -174.837982177734375
116.085418701171875 179.517852783203125 195.01300048828125
-145.961746215820312 -213.623886108398438 -77.2665634155273438
117.317237854003906 215.134918212890625 -224.863906860351562
-96.51690673828125 271.651275634765625 -214.412612915039062
-119.186576843261719 -324.7572021484375 163.910186767578125
155.047439575195312 -71.8328475952148438 129.214752197265625
-99.9633102416992188 317.059112548828125 106.553886413574219
122.966629028320312 319.564727783203125 130.180221557617188
-84.0857315063476562 -264.9849853515625 180.650741577148438
-0.720731198787689209 270.497344970703125 194.068695068359375
-121.646957397460938 -200.846206665039062 -18.7814254760742188
-13.1435298919677734 67.1016311645507812 200.204925537109375
166.306121826171875 -45.0168647766113281 75.4259185791015625
-78.1590576171875 -157.752334594726562 191.052474975585938
124.976943969726562 -205.079025268554688 -213.27496337890625
-99.948333740234375 -98.0559310913085938 -223.56683349609375
-118.058921813964844 -146.4525146484375 171.703262329101562
-2.86330246925354004 147.168060302734375 -223.54156494140625
-129.587417602539062 114.502845764160156 -124.034034729003906
8.85919761657714844 115.328727722167969 203.774520874023438
87.6534423828125 -287.251861572265625 137.155654907226562
-6.60444402694702148 280.21832275390625 193.102386474609375
14.990239143371582 -301.93914794921875 -195.821136474609375
15.5169744491577148 -248.465408325195312 192.151962280273438
-95.663299560546875 60.4276046752929688 197.296310424804688
-120.247940063476562 129.647003173828125 135.682586669921875
-97.5019607543945312 -347.440948486328125 135.98895263671875
-18.2421398162841797 -56.7606353759765625 210.407272338867188
141.618789672851562 283.345001220703125 -4.85277700424194336
-0.476188242435455322 332.566802978515625 62.1819076538085938
-2.03464818000793457 361.865692138671875 -49.2632255554199219
-127.075157165527344 -128.543502807617188 117.067298889160156
-63.8799896240234375 186.846267700195312 196.271636962890625
-112.930580139160156 -91.7959060668945312 -218.903640747070312
145.097549438476562 -100.251953125 -183.974639892578125
-61.0537910461425781 -58.4526824951171875 196.065475463867188
165.199981689453125 197.266769409179688 -115.690711975097656
125.934173583984375 -272.520050048828125 -59.6893768310546875
-100.461097717285156 -289.763214111328125 -102.550392150878906
-18.5118980407714844 -288.831329345703125 21.4484748840332031
-8.51735973358154297 -10.7316761016845703 223.47442626953125
-138.671127319335938 153.24224853515625 -93.3433303833007812
13.9713211059570312 -362.9742431640625 -177.604690551757812
171.985992431640625 17.5260219573974609 -21.9536323547363281
15.0437355041503906 331.446624755859375 8.33406543731689453
-89.4063186645507812 -84.600799560546875 193.175979614257812
-76.0023727416992188 -265.91668701171875 184.491363525390625
-114.950111389160156 10.83282470703125 -190.509185791015625
87.6118240356445312 54.2809944152832031 -234.849533081054688
69.5846939086914062 -289.476104736328125 -145.1873779296875
-114.767066955566406 -10.1200027465820312 -197.559402465820312
-117.206298828125 -198.475128173828125 -169.062881469726562
-88.3923110961914062 -289.465667724609375 151.524551391601562
98.3555068969726562 -219.588623046875 -233.303802490234375
-98.4230117797851562 309.6485595703125 -141.803390502929688
58.4814949035644531 316.223907470703125 -203.677810668945312
46.6900711059570312 -316.99176025390625 168.0830078125
150.967620849609375 -232.7412109375 17.1491470336914062
139.347976684570312 207.405517578125 -201.069122314453125
-136.074142456054688 234.421539306640625 -82.9919281005859375
38.7879180908203125 -287.65875244140625 -89.1237869262695312
36.1459503173828125 -37.9346427917480469 -225.989059448242188
