ply
format ascii 1.0
element vertex 790
comment vertices
property float x
property float y
property float z
end_header
-72.5704879760742188 -96.0818328857421875 24.7553234100341797
1.58012115955352783 15.1924610137939453 -160.235031127929688
-18.0232467651367188 110.893218994140625 50.3293800354003906
-14.2121801376342773 -129.18212890625 -73.4143600463867188
33.4006919860839844 138.248626708984375 65.3146514892578125
-74.9016799926757812 40.2792854309082031 102.09136962890625
-54.4225616455078125 52.5133247375488281 147.842239379882812
-75.6079254150390625 -60.9908866882324219 -45.0640869140625
-76.386993408203125 -47.9442634582519531 57.8829307556152344
71.5287628173828125 -95.3424148559570312 0.290147155523300171
27.1464900970458984 107.739845275878906 -57.98077392578125
42.3105239868164062 2.44476938247680664 151.52099609375
-48.5238571166992188 32.4385643005371094 148.110519409179688
81.6137237548828125 -56.0543785095214844 -28.78558349609375
-76.0869293212890625 54.8680915832519531 0.769292891025543213
-31.1163616180419922 117.615409851074219 60.3858985900878906
-31.0521011352539062 -123.649574279785156 -35.2705039978027344
29.0095748901367188 108.330451965332031 -62.694122314453125
-74.6678085327148438 38.7036857604980469 -111.611915588378906
36.4276084899902344 145.105484008789062 -53.298797607421875
-76.3540115356445312 -10.0812559127807617 -79.734039306640625
12.4041519165039062 110.668922424316406 114.443107604980469
-46.2554512023925781 110.612174987792969 83.1381149291992188
74.2658767700195312 60.5704574584960938 46.9103050231933594
-24.5091781616210938 106.467926025390625 -11.4787330627441406
22.6370639801025391 160.324111938476562 -8.77896785736083984
19.9888916015625 115.351715087890625 -77.7660446166992188
68.0539779663085938 -113.329521179199219 15.1156530380249023
-29.2116813659667969 148.750137329101562 -40.8666839599609375
-78.2584075927734375 -38.8489990234375 16.4109954833984375
67.4106521606445312 -115.698020935058594 -65.7545013427734375
-79.6387863159179688 -29.2082500457763672 -64.6920700073242188
25.2286529541015625 -51.3273200988769531 -154.34442138671875
66.862396240234375 -113.363433837890625 74.5018539428710938
-72.0438766479492188 -46.5059165954589844 -118.705612182617188
-43.4631462097167969 -123.371681213378906 -56.5658912658691406
-78.1391830444335938 11.2222366333007812 -55.3657951354980469
33.1222152709960938 89.325592041015625 138.25909423828125
-61.7589073181152344 73.8415679931640625 143.0623779296875
-30.9353809356689453 139.516815185546875 -42.0872230529785156
75.8483123779296875 56.9790725708007812 108.032752990722656
59.8597908020019531 -60.308074951171875 141.3719482421875
-78.937469482421875 2.04731845855712891 -24.1359195709228516
-21.3410110473632812 -78.1333160400390625 -153.130386352539062
-67.7701034545898438 80.528106689453125 132.830169677734375
-24.4221343994140625 -126.586654663085938 -56.4709358215332031
-48.0880508422851562 98.5945892333984375 -129.788864135742188
-72.6666641235351562 -34.4242057800292969 -117.228561401367188
-76.8797683715820312 35.7155914306640625 -48.5383872985839844
-14.1385250091552734 -130.535293579101562 3.09064054489135742
62.8280601501464844 -107.002784729003906 131.266876220703125
62.1931343078613281 86.169158935546875 -138.599716186523438
-70.4356689453125 -110.823654174804688 -29.66632080078125
91.719482421875 -32.2345161437988281 24.2553825378417969
73.0632858276367188 -59.7572822570800781 -98.8921356201171875
-78.7878875732421875 -39.6979522705078125 50.7876930236816406
26.1459827423095703 -123.56549072265625 -112.338882446289062
-76.858978271484375 26.8939990997314453 73.4305801391601562
-73.8053970336914062 64.6195526123046875 -106.722465515136719
70.4793014526367188 -19.4811935424804688 125.426315307617188
74.6533889770507812 80.5694351196289062 85.0704116821289062
53.0603752136230469 51.8656234741210938 143.762741088867188
91.0198898315429688 22.3608970642089844 -37.6908988952636719
-49.6451072692871094 -99.46063232421875 -147.760223388671875
77.4536056518554688 -25.1035594940185547 88.0230026245117188
-70.1695632934570312 -22.8724632263183594 136.2943115234375
-10.7464876174926758 -129.57574462890625 83.6494064331054688
75.7927169799804688 -39.9891242980957031 84.8299789428710938
-21.3752593994140625 -58.1239738464355469 151.77252197265625
24.0113372802734375 55.2887802124023438 146.837249755859375
-70.917266845703125 -13.5291643142700195 135.078994750976562
69.0909957885742188 -105.182449340820312 64.8672943115234375
-62.7469635009765625 97.7515869140625 -15.0670557022094727
-76.9572372436523438 -2.94005560874938965 -75.1928863525390625
7.53127813339233398 -47.8625373840332031 -160.981582641601562
-60.8253860473632812 -52.508331298828125 -145.912750244140625
74.7498855590820312 17.9087867736816406 -104.698837280273438
65.3928909301757812 93.7792892456054688 85.1350631713867188
-21.9673309326171875 -104.85736083984375 146.757064819335938
-46.3148918151855469 -118.781768798828125 132.541061401367188
-62.8734283447265625 -115.094757080078125 133.974441528320312
60.0019645690917969 98.9976425170898438 92.014007568359375
-2.94562077522277832 111.225288391113281 -116.680999755859375
74.688018798828125 25.6826019287109375 94.704803466796875
83.2386093139648438 22.0906028747558594 -76.3482589721679688
28.6300182342529297 151.54510498046875 -41.9297103881835938
30.7859477996826172 -124.158851623535156 111.701553344726562
-74.594818115234375 -36.729400634765625 109.694175720214844
79.8745040893554688 42.0401992797851562 96.4029006958007812
-73.4474868774414062 77.5779037475585938 88.3813858032226562
-75.468780517578125 -53.3856315612792969 -60.7816314697265625
0.624777793884277344 -115.570610046386719 142.854263305664062
-2.14931440353393555 -130.069732666015625 94.48626708984375
85.9044570922851562 -22.8043270111083984 53.975311279296875
8.38376426696777344 -104.830787658691406 147.305007934570312
-76.237548828125 49.7643203735351562 -34.0396385192871094
-64.141204833984375 -109.761810302734375 -136.140670776367188
81.97235107421875 -37.8452835083007812 -78.2643356323242188
-25.1793861389160156 103.695167541503906 121.993194580078125
57.7975044250488281 1.48571467399597168 -148.846099853515625
-63.6647834777832031 95.9430007934570312 82.1839752197265625
-72.4007568359375 -40.085052490234375 130.826278686523438
-62.8863945007324219 -83.3822174072265625 142.881759643554688
-57.6285934448242188 99.7077255249023438 91.2686233520507812
-69.2263717651367188 89.987396240234375 68.1815948486328125
-40.0940971374511719 -0.297179549932479858 -148.074981689453125
16.9890956878662109 114.810646057128906 14.3537578582763672
-72.6621932983398438 83.4207000732421875 44.0461807250976562
86.5764083862304688 25.8039035797119141 -61.179779052734375
74.948638916015625 -67.776275634765625 21.5692653656005859
-4.97050762176513672 -128.499893188476562 -24.8290176391601562
-70.63739013671875 -107.853424072265625 81.8482742309570312
59.7046356201171875 -120.924774169921875 -122.984565734863281
8.07116127014160156 -127.381866455078125 117.279525756835938
-50.8838310241699219 -71.0367355346679688 -149.151031494140625
55.0933151245117188 -110.963356018066406 135.257171630859375
2.30180096626281738 115.521903991699219 -17.0812301635742188
-11.9513673782348633 -44.7870597839355469 -157.927154541015625
68.0511550903320312 -114.45452880859375 -45.5266075134277344
41.1200714111328125 106.080497741699219 -95.2704238891601562
0.517231941223144531 97.82635498046875 134.268264770507812
20.8798675537109375 -52.004425048828125 149.691558837890625
72.6442947387695312 -94.8192672729492188 -104.162422180175781
-36.4340934753417969 134.433090209960938 56.5996894836425781
47.4572601318359375 99.7225570678710938 -132.987655639648438
-74.8995742797851562 -22.4342041015625 113.51885986328125
-30.6650238037109375 1.02824485301971436 148.724822998046875
-45.6864738464355469 100.57122802734375 -126.825431823730469
-78.9555587768554688 -18.7852001190185547 -90.2902679443359375
-74.8923721313476562 31.1241207122802734 -110.668777465820312
26.3638706207275391 37.8806915283203125 -152.87841796875
-10.8921289443969727 97.81396484375 140.183212280273438
19.1494178771972656 -124.947624206542969 31.6429500579833984
-68.263519287109375 -96.5103912353515625 -134.1932373046875
25.7484836578369141 156.035888671875 51.5498161315917969
96.0562286376953125 -24.5497016906738281 -21.0820121765136719
63.0022659301757812 -92.064697265625 -145.827774047851562
18.5064907073974609 -91.360260009765625 -157.669708251953125
-56.6167068481445312 49.1266937255859375 147.268768310546875
83.8067092895507812 -9.45356464385986328 -84.111663818359375
-47.6844825744628906 49.5024375915527344 -146.810379028320312
20.9782009124755859 113.134201049804688 69.6925582885742188
14.3613176345825195 -121.393707275390625 -139.972412109375
68.1348800659179688 8.54803276062011719 -140.164138793945312
47.5538406372070312 104.676071166992188 31.1444301605224609
-30.2751560211181641 157.720596313476562 -15.4710750579833984
70.4721755981445312 -102.227386474609375 -24.3646125793457031
-35.7489852905273438 132.08587646484375 45.760650634765625
34.0289306640625 63.6031913757324219 -150.752914428710938
78.6841506958007812 59.843109130859375 -38.4777030944824219
39.8402366638183594 -124.351104736328125 31.0373668670654297
-29.3488521575927734 121.966690063476562 -57.417999267578125
-70.6901626586914062 71.6698074340820312 -124.597274780273438
85.5389022827148438 21.1364898681640625 59.3807373046875
-11.159367561340332 -124.34991455078125 -127.14910888671875
23.1128463745117188 -124.749992370605469 -1.24189257621765137
52.9749832153320312 -124.070564270019531 48.5704727172851562
24.9739227294921875 -124.472816467285156 -43.758544921875
35.5720138549804688 -139.217666625976562 72.7213363647460938
-41.2736892700195312 -119.366043090820312 -128.268646240234375
-79.5284805297851562 -6.28049945831298828 10.2027511596679688
-68.3080520629882812 77.52484130859375 -129.53167724609375
86.8255462646484375 -5.13134574890136719 -74.9348602294921875
66.8781585693359375 -112.840286254882812 82.4755477905273438
-42.9769554138183594 19.2375259399414062 -147.441070556640625
-71.84027099609375 -50.3263778686523438 -119.06268310546875
76.2356338500976562 69.4729232788085938 -6.77995109558105469
77.9916305541992188 51.339874267578125 -60.3369674682617188
71.5521774291992188 -15.2878427505493164 -134.472335815429688
-77.111541748046875 -5.42926836013793945 68.986663818359375
-78.6193313598632812 0.355855941772460938 -49.2405738830566406
-68.065826416015625 -105.346138000488281 -129.139801025390625
73.5344772338867188 56.8807182312011719 62.7001953125
44.1622047424316406 104.996231079101562 52.1300125122070312
71.2930221557617188 27.0724201202392578 116.911018371582031
-32.4395103454589844 156.353683471679688 14.4153499603271484
50.8608322143554688 -130.110580444335938 -83.8165512084960938
70.6114501953125 84.6288528442382812 44.8634033203125
6.19318199157714844 111.220329284667969 -121.817634582519531
-71.7880096435546875 -88.0750350952148438 103.2890625
-78.2220077514648438 -39.05706787109375 -22.4551868438720703
64.549560546875 -119.026092529296875 -10.1437053680419922
-78.0370559692382812 -36.6636199951171875 98.7482833862304688
72.503387451171875 -91.0631561279296875 -20.4157352447509766
-75.115509033203125 18.3189315795898438 -100.585617065429688
-6.72941398620605469 27.278411865234375 157.323883056640625
-76.698211669921875 14.7091560363769531 95.240631103515625
-21.8318347930908203 54.3279380798339844 154.0369873046875
-75.0270767211914062 54.3084945678710938 80.0850753784179688
84.2448806762695312 26.1382369995117188 -69.8676223754882812
0.193309172987937927 -128.39385986328125 -94.8463363647460938
-28.0385265350341797 117.81103515625 -68.6967391967773438
84.7784347534179688 39.4438934326171875 -50.5403976440429688
89.1410293579101562 -12.0608558654785156 -50.0428962707519531
-77.078826904296875 29.2314815521240234 114.058952331542969
70.3072586059570312 -93.5401458740234375 -127.629631042480469
35.7397651672363281 118.393646240234375 78.2892837524414062
65.5456314086914062 -115.161087036132812 97.6749496459960938
72.55035400390625 -74.522979736328125 -86.2909774780273438
15.8984918594360352 -127.139396667480469 67.2828750610351562
86.4025192260742188 -39.0705375671386719 -54.0185813903808594
-1.73274242877960205 115.242607116699219 -50.6408615112304688
94.2627639770507812 -19.4492549896240234 20.01611328125
19.9664382934570312 80.2900924682617188 -156.112472534179688
68.1812057495117188 -0.949905753135681152 132.590286254882812
71.7268218994140625 -15.0451822280883789 109.141212463378906
-34.9730644226074219 134.304351806640625 -47.6714248657226562
-79.0617523193359375 11.2397737503051758 -6.27402067184448242
69.5033721923828125 90.0613632202148438 -28.2120685577392578
0.770264327526092529 -122.626495361328125 131.723709106445312
91.34356689453125 -42.9170913696289062 -15.1435747146606445
93.3727874755859375 14.2598228454589844 -20.9079151153564453
-68.853363037109375 87.4302139282226562 121.642486572265625
-53.1756134033203125 -106.384124755859375 -143.986419677734375
32.7467689514160156 132.576492309570312 -59.6793708801269531
62.9170646667480469 -120.486244201660156 -44.0075645446777344
-71.1684646606445312 73.98876953125 -119.264617919921875
-78.2859954833984375 41.0485954284667969 -67.2239608764648438
72.5623016357421875 -95.7980880737304688 17.6342697143554688
87.7630767822265625 -33.0433692932128906 -55.1856880187988281
71.9496307373046875 79.9588088989257812 -115.477043151855469
83.6326141357421875 -51.3032989501953125 16.4597606658935547
-78.6316070556640625 9.23774814605712891 34.0914535522460938
-30.9807815551757812 157.482696533203125 24.9312057495117188
91.5670852661132812 -3.9326789379119873 -50.5958786010742188
14.129572868347168 55.6482391357421875 154.366012573242188
-7.29911231994628906 100.106109619140625 -137.642791748046875
65.3291244506835938 59.1465606689453125 -141.944168090820312
51.5383872985839844 -126.808448791503906 -94.60479736328125
-25.1274299621582031 -11.9789905548095703 150.467941284179688
90.3037338256835938 -25.0658664703369141 29.9081306457519531
78.6850738525390625 3.99218297004699707 -95.008453369140625
-76.7837295532226562 59.6897544860839844 4.78510046005249023
29.7062911987304688 105.928947448730469 30.9000453948974609
-21.4987106323242188 -131.206573486328125 47.5217361450195312
-76.5078887939453125 -42.1726493835449219 66.4897079467773438
-35.1606636047363281 103.823738098144531 -31.8223609924316406
-29.4092025756835938 147.945037841796875 -40.561187744140625
76.03900146484375 58.0198974609375 68.6991653442382812
10.7705106735229492 -129.996826171875 -80.61065673828125
49.3697395324707031 -87.648895263671875 144.840087890625
15.3577070236206055 -108.017791748046875 144.845535278320312
34.1771392822265625 123.271018981933594 63.6013679504394531
0.0495480820536613464 -127.335227966308594 113.088272094726562
70.4649200439453125 -47.9641647338867188 115.573539733886719
42.3097763061523438 -134.819183349609375 -107.274551391601562
-35.3731346130371094 71.1859817504882812 -146.42401123046875
92.6929473876953125 19.8310108184814453 -21.9654598236083984
63.6831474304199219 96.7005157470703125 38.73077392578125
66.7655258178710938 69.9878616333007812 131.742263793945312
-23.4308071136474609 -44.6469573974609375 -152.151931762695312
69.080718994140625 -100.477340698242188 94.5138778686523438
-57.7437248229980469 -127.419563293457031 71.6714248657226562
42.4720191955566406 81.6421661376953125 142.62652587890625
68.587371826171875 55.4009780883789062 129.001815795898438
43.419189453125 26.1996192932128906 151.305892944335938
69.1051101684570312 14.7821664810180664 -138.629318237304688
21.6435604095458984 -123.18524169921875 117.776077270507812
71.7253265380859375 -83.4140396118164062 -100.361770629882812
-1.1104743480682373 -12.5058860778808594 -158.546371459960938
-63.7953071594238281 -122.575126647949219 -23.6064338684082031
84.1176605224609375 -34.6003952026367188 -73.3199310302734375
51.1801681518554688 -128.456497192382812 -82.5750656127929688
-57.2986030578613281 -131.479660034179688 72.7586212158203125
62.5184288024902344 -118.622787475585938 113.842422485351562
-20.2423744201660156 111.219779968261719 -12.2793436050415039
55.8461875915527344 -108.020439147949219 137.177963256835938
-18.5355396270751953 -130.087478637695312 -48.57562255859375
-75.5345916748046875 -52.027130126953125 -92.9001998901367188
-14.9722099304199219 -126.104911804199219 -120.072097778320312
20.4654197692871094 111.641670227050781 49.874420166015625
-19.9183559417724609 -90.2877426147460938 155.122314453125
8.32298469543457031 37.1972427368164062 -159.081863403320312
80.5282745361328125 -58.9155807495117188 -14.4524879455566406
-74.1405487060546875 73.0548858642578125 -23.5456390380859375
-36.8944244384765625 -124.425277709960938 38.262969970703125
-76.2396774291992188 -17.2682361602783203 -79.9089584350585938
-24.1414947509765625 -127.269546508789062 43.8692550659179688
4.71827316284179688 92.547454833984375 142.422073364257812
74.4226531982421875 -69.3798370361328125 -28.5411891937255859
-48.3289527893066406 -100.449676513671875 145.198822021484375
20.8303127288818359 106.260406494140625 122.555389404296875
25.0657958984375 -124.218833923339844 -64.7563400268554688
16.7720661163330078 -75.86346435546875 -161.00567626953125
-77.7830123901367188 -8.05459117889404297 -103.51959228515625
93.9054946899414062 -42.5206298828125 -2.44838142395019531
4.83065557479858398 -105.74749755859375 149.208847045898438
59.4317092895507812 42.8736572265625 -147.09765625
25.1930027008056641 108.746879577636719 -30.2933902740478516
-76.6155014038085938 45.8305816650390625 -22.5047340393066406
-69.4694366455078125 82.4447555541992188 -122.254356384277344
-11.2581453323364258 112.732192993164062 -88.630157470703125
-74.3121109008789062 37.78033447265625 -94.2811965942382812
-80.0640716552734375 -14.7464885711669922 -3.6248481273651123
-80.1601943969726562 -16.1520576477050781 -1.70406174659729004
42.4887542724609375 -61.0430488586425781 -151.673019409179688
10.4570827484130859 114.371063232421875 1.46478283405303955
94.2154083251953125 1.87566971778869629 -4.13690519332885742
34.8924217224121094 -21.8668861389160156 152.382064819335938
-69.49517822265625 -107.884803771972656 -89.8758773803710938
-78.2242889404296875 23.7550830841064453 -2.06067228317260742
17.8902053833007812 -102.905632019042969 -153.791702270507812
93.4344863891601562 9.93080520629882812 -26.623809814453125
-69.129364013671875 -104.422149658203125 -111.485321044921875
-32.5546455383300781 153.850448608398438 49.304229736328125
-30.1755199432373047 62.33184814453125 149.208694458007812
69.8602523803710938 -61.2946739196777344 116.280998229980469
67.2895355224609375 -112.909187316894531 62.8554801940917969
24.5363044738769531 9.43924903869628906 -154.388900756835938
72.7423629760742188 58.50933837890625 -122.589881896972656
81.070831298828125 -31.2529087066650391 -85.3608016967773438
15.1617031097412109 25.2416553497314453 -160.1614990234375
-35.3583831787109375 117.434883117675781 -76.5207443237304688
-68.4647445678710938 -111.898017883300781 -105.77349853515625
-52.0488662719726562 -123.289115905761719 -53.9034156799316406
57.1903190612792969 18.1198577880859375 -148.738143920898438
31.4930915832519531 -126.788063049316406 95.200592041015625
-78.255096435546875 38.3975830078125 -77.9520492553710938
67.6898422241210938 -114.99468994140625 -106.974929809570312
38.0859947204589844 89.3945083618164062 138.206405639648438
70.6424713134765625 -76.31903076171875 80.751129150390625
71.2183456420898438 -13.8434543609619141 116.403610229492188
-67.4813461303710938 -110.607872009277344 -126.204643249511719
88.295928955078125 -34.8994293212890625 -43.8064689636230469
71.7875900268554688 -97.8948211669921875 60.2093009948730469
48.4307632446289062 74.6043319702148438 -149.617202758789062
71.877838134765625 -91.00518798828125 81.2317276000976562
58.3605308532714844 -122.761749267578125 15.5104818344116211
-79.4034042358398438 -58.0366134643554688 23.0747776031494141
-43.9745330810546875 -134.43133544921875 70.0591812133789062
15.8055515289306641 -127.390121459960938 24.015411376953125
-57.4986686706542969 -126.16546630859375 105.119361877441406
-54.2425003051757812 -13.9923076629638672 -147.587356567382812
-70.9706344604492188 87.7822799682617188 32.2919845581054688
74.259124755859375 24.3775959014892578 -112.826400756835938
-36.3564605712890625 -46.4501724243164062 147.874298095703125
-76.6941986083984375 -85.2450790405273438 -28.5402717590332031
91.85894775390625 2.18418502807617188 -48.1864509582519531
11.9525032043457031 -129.520248413085938 104.813095092773438
25.9234466552734375 -90.6148147583007812 -152.622146606445312
-25.4952163696289062 -121.563552856445312 -125.569717407226562
76.3582763671875 -60.1928062438964844 -66.5364227294921875
-24.0140762329101562 -129.61590576171875 77.4968185424804688
-76.1706771850585938 -74.589996337890625 -73.67742919921875
76.4847488403320312 68.270233154296875 -18.5947208404541016
-43.4584236145019531 -124.169654846191406 29.6306571960449219
24.7077083587646484 167.810272216796875 -31.2212924957275391
-22.4163475036621094 -131.560592651367188 75.186004638671875
-14.4071149826049805 -128.13623046875 -92.708038330078125
94.3753814697265625 -33.1126518249511719 17.9512310028076172
16.0822811126708984 114.068435668945312 68.15948486328125
72.68963623046875 -75.10345458984375 -78.1549301147460938
34.7027702331542969 -21.3553428649902344 -152.01800537109375
39.6667900085449219 -99.8652801513671875 143.063934326171875
-33.780059814453125 80.620147705078125 145.000198364257812
-35.7533035278320312 34.1837959289550781 148.568984985351562
-18.0462226867675781 -120.970252990722656 -137.384078979492188
79.1718521118164062 5.37316703796386719 -93.7101669311523438
-11.9754447937011719 -129.003982543945312 9.03742408752441406
69.5322265625 -74.418426513671875 109.01617431640625
88.4148788452148438 24.1732463836669922 42.6545028686523438
63.2011909484863281 -10.7509965896606445 139.281280517578125
69.8228073120117188 88.3661270141601562 15.5706567764282227
27.3819084167480469 173.544418334960938 2.31720685958862305
30.5876998901367188 146.319091796875 67.60662841796875
24.2699508666992188 105.160186767578125 117.513656616210938
72.511016845703125 -96.725616455078125 36.9892692565917969
-18.3554821014404297 -38.0702362060546875 -156.179458618164062
66.574188232421875 90.5566864013671875 -127.100791931152344
3.40864086151123047 115.1710205078125 -94.7285079956054688
72.1782150268554688 -44.5873527526855469 -130.985458374023438
-30.5212020874023438 -107.92041015625 -143.459075927734375
79.6290359497070312 -60.3051528930664062 -26.5696392059326172
32.5869903564453125 143.117767333984375 53.9996566772460938
-59.3625946044921875 100.131813049316406 -43.3378562927246094
-60.8526039123535156 -69.372161865234375 -146.2073974609375
-43.8030509948730469 -129.492233276367188 68.9192123413085938
88.0777740478515625 -15.8317899703979492 -53.7661552429199219
-13.433192253112793 -1.83738076686859131 -157.311874389648438
-44.4820556640625 -124.112236022949219 27.5099582672119141
32.0100059509277344 46.7058029174804688 146.8941650390625
16.4782123565673828 -31.9088478088378906 154.472274780273438
58.1037445068359375 -115.943977355957031 127.818222045898438
-25.6562633514404297 -124.474372863769531 -6.90906572341918945
87.6100311279296875 21.3850078582763672 -60.8892974853515625
-79.4855880737304688 -3.49373579025268555 -7.54451322555541992
-73.56512451171875 -22.6646480560302734 -113.389801025390625
12.5522775650024414 -131.0223388671875 39.3975028991699219
-56.5497665405273438 -67.275299072265625 146.153076171875
88.8453826904296875 2.83508515357971191 -66.0735626220703125
-19.0385093688964844 96.5669326782226562 -143.254547119140625
70.1579208374023438 49.8403511047363281 -135.194229125976562
28.2743358612060547 106.920547485351562 -11.7022504806518555
-13.5369253158569336 108.532005310058594 111.715248107910156
-70.9576492309570312 -109.79827880859375 9.29396820068359375
-3.63006472587585449 115.961135864257812 6.73474311828613281
-20.4835014343261719 111.422134399414062 -106.8546142578125
19.6047248840332031 57.190185546875 151.649444580078125
-37.9866981506347656 105.53521728515625 90.917572021484375
-58.9873313903808594 -84.484161376953125 -147.3382568359375
-76.4123153686523438 49.7551765441894531 -1.76731133460998535
-56.5776557922363281 100.557273864746094 62.8109588623046875
-23.8490867614746094 -127.481048583984375 37.0219612121582031
-8.28463077545166016 -124.594390869140625 -124.643768310546875
24.8476886749267578 108.639122009277344 -9.070556640625
1.76582467555999756 0.302772998809814453 156.802413940429688
-21.123443603515625 87.4624404907226562 -148.545928955078125
72.9259796142578125 21.5562057495117188 -128.567642211914062
70.487030029296875 -93.9558029174804688 -118.428756713867188
-74.9168548583984375 32.4357643127441406 105.798507690429688
69.3074569702148438 -106.071006774902344 62.7658805847167969
70.2965087890625 -47.7109031677246094 118.58770751953125
42.7769889831542969 105.868698120117188 54.8665237426757812
69.821075439453125 -72.2885665893554688 -137.181640625
18.9895668029785156 -76.3892288208007812 -159.572097778320312
-72.2752227783203125 -94.7619400024414062 58.4860916137695312
53.0327186584472656 64.1065139770507812 -149.51824951171875
65.7430267333984375 -59.6947097778320312 135.458953857421875
-79.969329833984375 -14.6555624008178711 32.1191635131835938
-29.3419780731201172 -124.462760925292969 37.2913055419921875
76.4389266967773438 -66.28546142578125 7.66619682312011719
55.4329185485839844 13.1236467361450195 -149.432510375976562
-75.071441650390625 -69.241790771484375 42.1913375854492188
-25.820281982421875 -126.380897521972656 111.916152954101562
87.7633209228515625 37.5114479064941406 23.2848091125488281
16.5376510620117188 -120.768135070800781 -140.58209228515625
21.1234302520751953 173.501266479492188 -0.843691885471343994
-23.4265556335449219 114.540679931640625 -70.476776123046875
41.3136978149414062 105.682395935058594 -36.9578819274902344
-23.8321380615234375 104.597328186035156 -122.018669128417969
52.1267280578613281 104.058647155761719 -120.317604064941406
-78.9399795532226562 31.7399864196777344 78.1334152221679688
-38.976531982421875 -126.015937805175781 95.58905029296875
-78.2846832275390625 22.5041675567626953 -10.9496698379516602
-39.7042579650878906 159.707550048828125 -20.4044952392578125
17.082733154296875 -50.0517501831054688 150.851959228515625
35.8475189208984375 -128.622222900390625 100.508956909179688
66.81353759765625 -114.171928405761719 61.7044868469238281
-1.6226966381072998 -39.2270355224609375 -157.796676635742188
56.2269973754882812 102.018714904785156 72.9302825927734375
-47.22052001953125 101.337142944335938 108.157211303710938
-7.59605312347412109 112.084754943847656 13.8175277709960938
79.1402816772460938 -7.45586824417114258 86.768310546875
-56.7344551086425781 -67.4411392211914062 -148.417449951171875
0.304655790328979492 116.087150573730469 -32.1923866271972656
-3.3412480354309082 -62.6199531555175781 164.521087646484375
35.7105789184570312 117.640403747558594 -55.5669708251953125
13.7519292831420898 -63.8220138549804688 -161.312713623046875
32.1312599182128906 -93.13409423828125 -151.718353271484375
-56.2643966674804688 101.286186218261719 3.0194549560546875
30.8297100067138672 116.234909057617188 -58.7095565795898438
30.4445953369140625 158.280166625976562 24.7006664276123047
42.7389678955078125 -66.6065673828125 -151.655975341796875
72.0311050415039062 -65.059295654296875 -121.240814208984375
52.9571571350097656 74.7070770263671875 -148.81781005859375
-0.587384343147277832 -122.813636779785156 134.380523681640625
-24.5636005401611328 -121.870529174804688 -127.159423828125
-74.0049362182617188 -70.5761337280273438 -58.6414909362792969
-69.036956787109375 -112.24774169921875 -81.5506668090820312
43.656158447265625 -8.70328903198242188 151.425094604492188
33.3843879699707031 154.808349609375 -31.7302303314208984
-27.0113010406494141 -0.671993851661682129 -149.964614868164062
-16.2432670593261719 5.39477205276489258 157.688079833984375
-42.3908882141113281 -135.257904052734375 89.6975784301757812
-20.4548511505126953 0.79735100269317627 156.477554321289062
-74.2594680786132812 22.9585342407226562 -102.190864562988281
-77.0602798461914062 40.1303062438964844 -12.9741525650024414
33.7687492370605469 114.998756408691406 -91.9299163818359375
-0.881828367710113525 113.252517700195312 -108.448928833007812
73.8053665161132812 -57.6721725463867188 72.73590087890625
47.0017509460449219 104.745269775390625 35.544189453125
-18.9249477386474609 99.1003341674804688 139.3074951171875
-58.3696250915527344 100.617469787597656 -34.3897933959960938
-32.8336601257324219 -41.792572021484375 148.243240356445312
-77.1824493408203125 -3.69570493698120117 64.9647903442382812
-27.7520160675048828 104.098213195800781 42.9654083251953125
22.4748439788818359 111.811859130859375 -82.791717529296875
-23.4409561157226562 112.636734008789062 -69.547821044921875
-80.079833984375 -44.008453369140625 28.5312004089355469
23.9602832794189453 155.991729736328125 31.4195842742919922
-12.0125055313110352 -129.842117309570312 -31.1365547180175781
-33.6225776672363281 -70.1655807495117188 -150.032302856445312
85.2370223999023438 -8.83406829833984375 -79.9959869384765625
71.4688796997070312 -76.2860946655273438 52.6028900146484375
-79.0567474365234375 3.0701298713684082 1.97120285034179688
30.782989501953125 163.119155883789062 24.4689559936523438
72.256134033203125 -59.9600982666015625 74.6196823120117188
38.8904838562011719 -87.909820556640625 -151.865509033203125
-46.93133544921875 30.1697120666503906 -147.141098022460938
-64.6041412353515625 95.9289474487304688 -66.5681915283203125
22.46160888671875 166.41302490234375 -18.2771015167236328
28.1479244232177734 153.0709228515625 -44.4633674621582031
-76.43682861328125 15.4575672149658203 -82.0707015991210938
67.2057571411132812 -116.067550659179688 -84.2181549072265625
85.13299560546875 -36.8725318908691406 54.9514579772949219
32.6636238098144531 142.68731689453125 -69.7817306518554688
36.1749191284179688 17.7138576507568359 -151.312789916992188
-77.3733062744140625 -56.138885498046875 14.2878866195678711
-34.7563095092773438 104.978019714355469 -97.283905029296875
31.1185626983642578 156.955291748046875 35.3627967834472656
31.9136028289794922 149.056472778320312 52.38970947265625
-69.4710235595703125 -114.76251220703125 -41.1325836181640625
17.3210697174072266 -125.506942749023438 -74.9603271484375
77.5827484130859375 -64.5084991455078125 1.62151288986206055
-62.7470359802246094 96.6868057250976562 79.416107177734375
72.2858123779296875 -83.4585342407226562 59.725311279296875
57.6410484313964844 -123.126533508300781 7.69414710998535156
29.2133274078369141 115.563407897949219 54.1721916198730469
88.8010177612304688 -2.38082170486450195 56.4967002868652344
-77.7971267700195312 -31.1650733947753906 98.8384780883789062
-37.7080154418945312 155.269821166992188 16.7452888488769531
41.9434471130371094 -129.50341796875 101.747016906738281
-76.9020919799804688 36.7712326049804688 -46.0547065734863281
47.7535858154296875 -124.523330688476562 -107.934806823730469
73.3951644897460938 -50.2968673706054688 -103.29840087890625
-39.6468925476074219 -124.866722106933594 -88.7093353271484375
-57.0826950073242188 -123.768333435058594 15.3586149215698242
-55.2360954284667969 -123.328781127929688 -22.3341503143310547
22.1812953948974609 168.597686767578125 24.3125476837158203
-78.7556533813476562 -33.1356430053710938 32.4293365478515625
23.3181476593017578 107.541130065917969 -125.348312377929688
-42.8209114074707031 115.172981262207031 -80.73333740234375
-74.4110031127929688 -72.2033920288085938 57.2085075378417969
70.035186767578125 33.4164543151855469 -136.284896850585938
-66.03253173828125 -122.996315002441406 54.8748779296875
-69.8807830810546875 -102.011329650878906 -93.128692626953125
85.3528366088867188 4.28164196014404297 -78.2892913818359375
-76.8050537109375 42.4498634338378906 55.1024742126464844
-24.0131797790527344 -126.977256774902344 37.4326744079589844
-76.3477325439453125 -41.4255485534667969 -101.437660217285156
-74.2559051513671875 8.31442451477050781 -106.602035522460938
53.7198371887207031 74.795928955078125 143.029571533203125
-77.0878143310546875 -43.2090415954589844 53.0917930603027344
36.9136962890625 -137.714447021484375 -101.317344665527344
-23.774505615234375 -127.586288452148438 38.7041358947753906
43.3116035461425781 -124.188186645507812 15.910308837890625
-36.6173286437988281 136.853118896484375 55.7303504943847656
-78.43402099609375 -2.0285794734954834 37.125518798828125
-57.8570899963378906 100.419044494628906 27.3505935668945312
69.6728363037109375 -71.6683807373046875 109.616348266601562
3.2813107967376709 116.117393493652344 -56.7326850891113281
44.3049964904785156 -124.205810546875 35.3004112243652344
-39.1546745300292969 6.57600831985473633 148.065200805664062
70.7498245239257812 -22.3665904998779297 121.975753784179688
16.0774154663085938 -130.142333984375 -14.8594236373901367
24.9995288848876953 -123.084968566894531 -119.9847412109375
-31.050323486328125 -110.787368774414062 141.285293579101562
-57.0156440734863281 63.2249374389648438 147.327590942382812
-66.9395065307617188 12.0798740386962891 -138.057403564453125
-65.5119705200195312 -84.507537841796875 140.133758544921875
-6.82073783874511719 -41.3252296447753906 156.739822387695312
36.0074691772460938 97.628814697265625 129.691543579101562
-70.6548080444335938 -105.745735168457031 93.275146484375
41.796112060546875 -93.6833038330078125 144.6715087890625
-76.8626556396484375 59.160552978515625 38.9525337219238281
-73.7723388671875 27.8043117523193359 125.817047119140625
-75.6461563110351562 -88.0438613891601562 6.08022880554199219
73.7297744750976562 74.3769378662109375 -57.9894027709960938
-78.4363784790039062 -4.45558071136474609 -101.822105407714844
84.6151580810546875 50.8833198547363281 -18.0060672760009766
61.4308662414550781 -119.717498779296875 -123.960968017578125
18.6301727294921875 112.646736145019531 110.779335021972656
-38.1594886779785156 -123.633544921875 -20.304046630859375
79.7974166870117188 -57.6886940002441406 31.5877399444580078
-11.7330236434936523 -128.833221435546875 -0.106641069054603577
-4.44714593887329102 -12.1150693893432617 158.078567504882812
67.0802154541015625 -106.200035095214844 114.675132751464844
-71.2906951904296875 -105.460411071777344 -14.9599294662475586
-76.249908447265625 -81.2266998291015625 -56.1912765502929688
-74.7296066284179688 73.69281005859375 73.6870346069335938
22.1678314208984375 110.149543762207031 -4.26889419555664062
-66.00421142578125 -119.313606262207031 125.663795471191406
74.6517562866210938 -29.8047599792480469 92.2561111450195312
-77.313812255859375 36.9032173156738281 -12.2606925964355469
-8.31979751586914062 -61.8641281127929688 156.444122314453125
70.668426513671875 49.00006103515625 119.783958435058594
-71.9583969116210938 -76.8871536254882812 -92.3714752197265625
86.7173995971679688 -14.2349128723144531 62.7535820007324219
-78.7034149169921875 16.4865074157714844 -6.96246433258056641
-63.8447914123535156 -121.279243469238281 -105.397727966308594
22.3582878112792969 -124.341217041015625 -55.3901100158691406
-29.2689838409423828 122.531509399414062 -60.6480522155761719
-9.68786334991455078 -128.803665161132812 19.6707019805908203
71.573822021484375 -79.75970458984375 38.1841659545898438
-74.512054443359375 -36.9486351013183594 -105.16436767578125
86.8469390869140625 41.6115913391113281 -31.0509910583496094
-73.4136123657226562 52.8194999694824219 125.588851928710938
-78.1278152465820312 41.2440338134765625 83.604949951171875
23.6681575775146484 159.629226684570312 -17.8832302093505859
-67.3824844360351562 -68.2360916137695312 138.818405151367188
63.3869743347167969 -11.3251876831054688 139.114013671875
-72.2362823486328125 -94.85345458984375 -35.2715492248535156
69.7734375 75.4778289794921875 116.585929870605469
3.44135046005249023 -131.829116821289062 -6.65348720550537109
-35.9582405090332031 17.6665134429931641 -148.009735107421875
-78.2335052490234375 -52.8096733093261719 30.8902187347412109
37.3924560546875 -123.846977233886719 114.475227355957031
68.9492950439453125 85.5357437133789062 99.2582168579101562
-76.2327957153320312 -41.4171676635742188 74.4595184326171875
-24.0011577606201172 -82.8565139770507812 -151.689956665039062
-70.4796218872070312 -68.936431884765625 -129.391647338867188
-22.4120292663574219 112.024810791015625 -84.4120559692382812
-68.1035690307617188 -120.949287414550781 95.890380859375
-0.843739092350006104 -124.601966857910156 129.052322387695312
-54.6758804321289062 102.058563232421875 -24.5385360717773438
-36.9294471740722656 156.668502807617188 5.42375802993774414
-70.2225189208984375 -81.4997634887695312 -121.938453674316406
70.2515182495117188 5.01110219955444336 127.231033325195312
55.9255409240722656 103.576644897460938 -85.7698745727539062
44.0278396606445312 104.610862731933594 -121.938255310058594
-33.7702484130859375 138.643081665039062 -71.7194290161132812
-64.9237823486328125 -5.30992746353149414 -141.117202758789062
21.4415149688720703 -124.755767822265625 -17.4677734375
-51.311065673828125 -137.575515747070312 105.814445495605469
73.3157196044921875 21.9766578674316406 91.516693115234375
50.2793350219726562 -124.205764770507812 52.6803855895996094
-24.4279308319091797 85.0594406127929688 146.561477661132812
28.9160671234130859 89.8585662841796875 137.832901000976562
53.225128173828125 -101.105918884277344 -148.560745239257812
-22.5669288635253906 -130.91326904296875 0.884732425212860107
-42.81219482421875 -132.50091552734375 103.525291442871094
-75.4380950927734375 -80.31683349609375 37.7717208862304688
-54.1470489501953125 101.83447265625 17.7139072418212891
34.9414596557617188 -124.058219909667969 -60.0397224426269531
-21.2026329040527344 -129.649383544921875 -51.7905731201171875
55.9952583312988281 102.460151672363281 18.0470962524414062
80.7068328857421875 3.42926740646362305 81.8416213989257812
-15.7662544250488281 -90.9898452758789062 154.9315185546875
-77.910125732421875 25.68768310546875 85.1825180053710938
32.3625946044921875 -125.86541748046875 61.8248100280761719
46.2703742980957031 104.9654541015625 -2.05465316772460938
-75.2418441772460938 -75.893585205078125 5.36423635482788086
-34.8616142272949219 148.27789306640625 -56.2583732604980469
-30.2052078247070312 164.628387451171875 -14.3406171798706055
-66.271209716796875 -123.416862487792969 109.206314086914062
-66.5256195068359375 -122.839576721191406 63.2795524597167969
24.406005859375 111.197525024414062 -76.1083831787109375
-37.0456695556640625 162.828765869140625 -35.1783180236816406
58.3251686096191406 47.3096237182617188 141.522308349609375
-75.5642242431640625 -28.8214855194091797 104.325439453125
49.0559501647949219 -108.915695190429688 -144.5599365234375
74.8301467895507812 9.18977069854736328 -103.660728454589844
71.0294113159179688 86.86285400390625 -92.900634765625
-78.5199127197265625 -17.7825145721435547 -99.0124588012695312
87.9644088745117188 38.8196449279785156 -28.5161094665527344
63.2715911865234375 -120.232711791992188 -97.0825729370117188
29.6338481903076172 112.575180053710938 -61.8167228698730469
-20.1593151092529297 26.7253551483154297 -154.367721557617188
73.8060760498046875 27.9804267883300781 90.4542388916015625
67.5568008422851562 -97.682708740234375 117.77203369140625
-76.48406982421875 38.8819923400878906 -57.2299308776855469
0.74621957540512085 24.6298980712890625 -159.879562377929688
19.9012584686279297 114.327095031738281 11.3745956420898438
-29.5462684631347656 -31.4459247589111328 148.681610107421875
79.1144027709960938 59.2147178649902344 87.2637557983398438
70.2485885620117188 -67.191558837890625 102.484909057617188
-78.1142044067382812 -62.292327880859375 -7.07651281356811523
51.1361770629882812 67.2431488037109375 144.49871826171875
-69.2140045166015625 12.0779399871826172 137.536361694335938
8.63846302032470703 -58.4123497009277344 155.064804077148438
-75.9944381713867188 64.043914794921875 -27.3225021362304688
36.5926017761230469 106.073249816894531 -34.5132026672363281
48.91009521484375 -114.851875305175781 -138.84857177734375
65.805145263671875 91.0525283813476562 114.166549682617188
-73.4563369750976562 35.6218757629394531 -106.937461853027344
80.2113876342773438 -54.7537460327148438 43.6845550537109375
12.7602291107177734 -116.500381469726562 140.199996948242188
13.7331962585449219 -129.828140258789062 94.707122802734375
45.9029350280761719 -40.766082763671875 150.746841430664062
-76.6472091674804688 26.1555595397949219 -77.3188247680664062
90.7035903930664062 25.4775371551513672 23.9384002685546875
82.1897430419921875 -47.157623291015625 -66.3164443969726562
6.94555425643920898 94.0213470458984375 -147.212860107421875
-41.8758277893066406 -132.945358276367188 75.7520599365234375
-74.7353515625 6.37032127380371094 117.901695251464844
73.525177001953125 -47.0483474731445312 -104.15289306640625
70.196502685546875 -79.0020980834960938 -135.350677490234375
-50.9452362060546875 -8.40685272216796875 -147.802261352539062
32.1892738342285156 163.671966552734375 -22.5967788696289062
-72.2976150512695312 -93.5474929809570312 -39.2436790466308594
14.0204629898071289 50.9681282043457031 154.63470458984375
-70.8529586791992188 85.6219558715820312 -76.3120574951171875
71.1158447265625 -70.8218536376953125 78.0506439208984375
84.4195175170898438 51.9454383850097656 -12.8358354568481445
-64.2261276245117188 93.112884521484375 122.755874633789062
-29.4170017242431641 112.491905212402344 61.7504692077636719
71.9292144775390625 -85.6542282104492188 -81.8048477172851562
33.0886955261230469 -92.6385345458984375 145.066940307617188
-79.7677764892578125 -15.8579502105712891 -29.847137451171875
83.98284912109375 -45.4751510620117188 -57.9780006408691406
71.3902587890625 -21.6759548187255859 112.209190368652344
21.0402030944824219 63.8149948120117188 148.789215087890625
-56.8134002685546875 -134.71429443359375 89.4417190551757812
-51.0124359130859375 -123.7213134765625 7.18829727172851562
-14.1806755065917969 37.3693046569824219 -156.780807495117188
64.9188308715820312 16.7085037231445312 -143.507156372070312
80.0750045776367188 58.6605758666992188 -108.267837524414062
-70.7184677124023438 -87.2306747436523438 -102.099449157714844
32.0246009826660156 142.931686401367188 -47.242431640625
32.1921119689941406 117.100418090820312 86.1809844970703125
-13.4833488464355469 -132.625885009765625 41.6549530029296875
71.2329864501953125 -99.1786041259765625 -25.3417186737060547
-21.4527416229248047 -50.42303466796875 -153.25396728515625
90.020965576171875 33.3674545288085938 -21.0989055633544922
-59.4502830505371094 -125.869422912597656 83.23956298828125
-75.0316696166992188 63.9580726623535156 93.974334716796875
-51.4533348083496094 103.544891357421875 78.7024383544921875
79.1076431274414062 52.539642333984375 42.7388343811035156
70.1789321899414062 -89.5639495849609375 71.7531661987304688
67.7210464477539062 -54.8049545288085938 132.227508544921875
-79.5519256591796875 -7.05101537704467773 14.2334346771240234
-8.85860538482666016 -116.349250793457031 -142.569290161132812
69.8987579345703125 -94.8742523193359375 54.171234130859375
71.4813461303710938 -86.3856124877929688 13.4472923278808594
54.2682075500488281 103.042709350585938 68.64129638671875
54.1569175720214844 -123.849830627441406 -102.206222534179688
-76.53155517578125 37.9226760864257812 -56.8630523681640625
-79.4573974609375 -14.6084299087524414 -89.726531982421875
-77.5190505981445312 -40.0137138366699219 -54.3855094909667969
84.8853912353515625 1.50099682807922363 -80.2508163452148438
7.39209222793579102 104.392776489257812 -137.253402709960938
72.0062103271484375 -86.714813232421875 -89.849639892578125
72.3530349731445312 -62.3587799072265625 -116.229026794433594
-74.7583770751953125 -54.01141357421875 99.1137161254882812
44.5783119201660156 56.1735954284667969 145.28948974609375
-13.7819643020629883 17.7727890014648438 -157.154510498046875
-70.878692626953125 -26.5619888305664062 -132.44281005859375
88.411651611328125 39.9042930603027344 6.02437877655029297
71.8504638671875 -92.2824554443359375 -21.4714298248291016
81.622039794921875 42.8424568176269531 -105.918998718261719
-50.6585197448730469 -124.306373596191406 40.1815299987792969
-73.5392379760742188 0.866535365581512451 -108.963424682617188
-22.4154205322265625 72.0874404907226562 -149.88275146484375
67.939544677734375 13.7125911712646484 132.650131225585938
-55.1892166137695312 -31.1130008697509766 146.74334716796875
-75.5669708251953125 27.5678234100341797 94.330810546875
-75.1463699340820312 -66.4459381103515625 47.2847671508789062
-36.370391845703125 119.848373413085938 56.9924049377441406
-52.7063026428222656 76.065032958984375 146.4857177734375
-26.606292724609375 -4.52125406265258789 -150.213897705078125
22.0389118194580078 109.957588195800781 7.23107671737670898
79.684661865234375 69.2537078857421875 75.8069992065429688
-6.00588703155517578 75.4071044921875 151.544830322265625
55.1901817321777344 -68.0902786254882812 -150.537750244140625
-77.9604568481445312 62.0014114379882812 9.24260425567626953
89.4796600341796875 36.4630088806152344 4.15822172164916992
-74.46234130859375 23.7570400238037109 119.457000732421875
-73.0028915405273438 80.6868667602539062 83.4571990966796875
56.4553337097167969 -55.7441864013671875 143.126937866210938
-52.0908927917480469 39.0781059265136719 -146.606597900390625
6.67839813232421875 114.947029113769531 -70.9077301025390625
-5.76717090606689453 -30.9913787841796875 156.976974487304688
27.8970928192138672 -85.63189697265625 -152.673477172851562
-54.0762596130371094 101.079933166503906 92.5312728881835938
77.6167755126953125 46.521942138671875 -84.642791748046875
71.2415924072265625 -81.2414016723632812 47.7867164611816406
-56.3293075561523438 -132.52130126953125 103.559356689453125
-74.30010986328125 74.3179397583007812 71.6336669921875
-73.80743408203125 67.67388916015625 106.32330322265625
46.5631599426269531 116.041732788085938 -68.8343734741210938
31.034149169921875 126.412574768066406 -77.9413909912109375
-12.5735044479370117 111.064071655273438 45.39654541015625
69.3150711059570312 84.1352996826171875 100.189857482910156
72.0076980590820312 -78.3822479248046875 24.9290122985839844
71.1716690063476562 31.4268722534179688 -134.010894775390625
63.1559791564941406 -99.7834548950195312 134.892196655273438
-78.2305679321289062 -5.10847282409667969 -59.7901954650878906
7.9085230827331543 -58.5350837707519531 155.06280517578125
14.6807489395141602 113.790939331054688 -111.470252990722656
11.0801763534545898 -68.9261398315429688 154.457077026367188
-20.2378025054931641 -30.0315608978271484 156.0069580078125
91.0751953125 15.1692008972167969 34.9257392883300781
-63.0977592468261719 -105.965522766113281 138.740264892578125
90.9889068603515625 11.7703189849853516 -49.7175445556640625
-25.8268032073974609 -123.328170776367188 -85.21124267578125
-41.6638946533203125 162.162811279296875 3.83230805397033691
72.0320510864257812 -77.038665771484375 -102.733299255371094
89.8436965942382812 27.1618938446044922 28.2734622955322266
81.8759994506835938 45.7438011169433594 -104.571388244628906
-36.6621284484863281 -72.40960693359375 147.549850463867188
-37.50634765625 -98.9635162353515625 146.1134033203125
12.3980417251586914 -130.9805908203125 42.6092491149902344
-78.4682998657226562 -48.4880905151367188 -0.355255007743835449
-9.59171581268310547 102.635040283203125 -134.44146728515625
-46.3794326782226562 112.869598388671875 74.9142684936523438
-4.91759872436523438 114.068679809570312 10.8087711334228516
-66.9549026489257812 -104.765655517578125 134.2698974609375
-39.3411598205566406 -125.982711791992188 111.6302490234375
61.9686241149902344 -54.3247146606445312 139.7579345703125
83.5738067626953125 28.9837665557861328 -69.5584182739257812
